# .PCD v0.7 - Point Cloud Data file format
VERSION 0.7
FIELDS x y z
SIZE 4 4 4
TYPE F F F
COUNT 1 1 1
WIDTH 1223
HEIGHT 1
VIEWPOINT 0 0 0 1 0 0 0
POINTS 1223
DATA ascii
0.27588099 -0.57563299 2.095855
0.2965785 -0.57789147 2.0973868
0.27838299 -0.57477403 2.097446
0.26157001 -0.58007199 2.103966
0.278054 -0.57975298 2.102699
0.29455048 -0.57845849 2.1015611
0.2673555 -0.582353 2.108063
0.27664548 -0.58278096 2.1068201
0.30185801 -0.58385098 2.1099081
0.27047101 -0.57922 2.1083
0.275942 -0.58396798 2.114908
0.29216501 -0.58436102 2.1149321
0.25330001 -0.58913499 2.1199529
0.26259398 -0.58706701 2.1175101
0.26857302 -0.5867517 2.1183419
0.28930601 -0.58921802 2.1190519
0.29819551 -0.58710504 2.1185803
0.24749801 -0.58372802 2.1188469
0.27080801 -0.58008403 2.115252
0.28172699 -0.58309299 2.117666
0.26648799 -0.57978499 2.115381
0.24698099 -0.59228647 2.12356
0.25126553 -0.59120297 2.1231132
0.25984001 -0.58907902 2.1204181
0.26103199 -0.58717203 2.1219263
0.265517 -0.58588099 2.120198
0.25750899 -0.59179598 2.128557
0.27675399 -0.59458601 2.128197
0.28293699 -0.59114701 2.125133
0.300724 -0.593144 2.127955
0.228716 -0.58633202 2.128063
0.245039 -0.58672798 2.128088
0.261363 -0.58712298 2.128113
0.268989 -0.58987498 2.1287451
0.24591 -0.594549 2.1304791
0.264687 -0.593054 2.1336069
0.23584101 -0.58629799 2.1333151
0.25005901 -0.58744901 2.131882
0.248162 -0.58490902 2.1345561
0.21253899 -0.59791249 2.1390486
0.221901 -0.59907001 2.1387689
0.23865199 -0.59735548 2.139075
0.24805 -0.5976665 2.1375146
0.25359249 -0.59897101 2.1394429
0.25955701 -0.59650201 2.136838
0.2251 -0.59186298 2.1363821
0.23961499 -0.59399599 2.135282
0.25239399 -0.59156501 2.1363211
0.25506699 -0.59446102 2.137069
0.218724 -0.58987898 2.1393731
0.23309501 -0.58519799 2.1386781
0.23748666 -0.58807003 2.1376498
0.25454301 -0.58817297 2.1375849
0.222056 -0.58274299 2.138942
0.216351 -0.60006797 2.1431
0.23267899 -0.60006797 2.1431
0.248221 -0.602557 2.1429379
0.222857 -0.59672898 2.144043
0.233557 -0.59953803 2.1448071
0.25406301 -0.59983647 2.140573
0.222488 -0.590105 2.142941
0.239617 -0.59353298 2.1419611
0.21015801 -0.58588099 2.144779
0.203899 -0.60507399 2.1496041
0.24001101 -0.60436898 2.1483641
0.248013 -0.60244399 2.1464031
0.21472099 -0.59785998 2.1458321
0.231342 -0.59797901 2.145016
0.241146 -0.59904701 2.1453941
0.23044799 -0.59479898 2.146755
0.23744151 -0.59141999 2.1464438
0.218596 -0.58939302 2.1491539
0.207966 -0.60626853 2.1541841
0.226662 -0.60569102 2.152698
0.21206801 -0.6034587 2.1514082
0.22722401 -0.60363299 2.153718
0.20223799 -0.59881502 2.1519139
0.210805 -0.59619802 2.1502171
0.21877 -0.59903401 2.151618
0.224664 -0.59731197 2.1504841
0.22746551 -0.59927046 2.1514339
0.230987 -0.59532398 2.1501911
0.23720351 -0.59828997 2.1519971
0.199334 -0.592305 2.1545379
0.236635 -0.59289199 2.152802
0.20819999 -0.58929902 2.1549499
0.21254499 -0.58713299 2.1532021
0.201722 -0.608006 2.155663
0.225702 -0.60877597 2.1561079
0.240933 -0.60562998 2.157877
0.213222 -0.60114902 2.1551559
0.235259 -0.59517902 2.1594639
0.206191 -0.59247899 2.1557381
0.21513 -0.59317702 2.155093
0.23206399 -0.59339499 2.1599629
0.24416099 -0.59449703 2.157934
0.1966835 -0.61316699 2.1623721
0.204418 -0.611884 2.1636701
0.207434 -0.61122847 2.163116
0.221331 -0.61155701 2.1623709
0.238244 -0.611229 2.1610711
0.18880901 -0.60708499 2.1616931
0.20221999 -0.60977298 2.16082
0.213303 -0.60821903 2.1620431
0.221949 -0.60530502 2.1641531
0.199848 -0.60131299 2.1604841
0.202886 -0.60251802 2.161062
0.21027499 -0.603836 2.161381
0.225209 -0.60202599 2.1613891
0.19754949 -0.59571803 2.1629238
0.210085 -0.59528702 2.161438
0.22911599 -0.59844899 2.1647079
0.221064 -0.594612 2.163173
0.237977 -0.594284 2.1618741
0.192027 -0.615017 2.168401
0.166217 -0.61230099 2.1684799
0.182854 -0.61270398 2.168505
0.188171 -0.61122102 2.1651649
0.19724466 -0.61299664 2.1683259
0.200436 -0.612459 2.16539
0.224924 -0.614326 2.1655331
0.19289149 -0.60648549 2.1656024
0.20371699 -0.60717201 2.1656201
0.20725951 -0.60749853 2.1677866
0.18699101 -0.602283 2.1660371
0.211721 -0.60391998 2.1665909
0.222707 -0.60054702 2.1686089
0.225648 -0.60316598 2.1692481
0.183256 -0.596071 2.1688681
0.199892 -0.59647399 2.1688941
0.202225 -0.599078 2.166697
0.205494 -0.59524399 2.1665621
0.22051901 -0.59933603 2.169528
0.184448 -0.59375399 2.1662769
0.191635 -0.59002602 2.1675069
0.19931599 -0.59304202 2.169755
0.208186 -0.59483302 2.1684909
0.21133 -0.59320301 2.169173
0.16704699 -0.61784601 2.173017
0.1911635 -0.61706746 2.1711497
0.202573 -0.61716801 2.172297
0.178306 -0.61228001 2.1710911
0.180935 -0.61337 2.1724761
0.181225 -0.60799301 2.174356
0.18602601 -0.60768402 2.1703
0.192596 -0.60885 2.174412
0.20256101 -0.60768402 2.1703
0.209122 -0.60600799 2.1718299
0.18743999 -0.601394 2.174988
0.19250301 -0.60271001 2.1719389
0.214072 -0.60240102 2.1714821
0.189192 -0.598373 2.1700699
0.228753 -0.59988803 2.174454
0.187482 -0.59309 2.174902
0.19433799 -0.594226 2.1705389
0.213379 -0.62026799 2.175097
0.21837699 -0.62066799 2.1798241
0.189596 -0.61583698 2.1792991
0.194721 -0.61908901 2.1764669
0.21633101 -0.61568999 2.1774609
0.190617 -0.61183101 2.175426
0.159677 -0.60979098 2.1792531
0.17631701 -0.60995001 2.1793871
0.185921 -0.605546 2.1763949
0.19149999 -0.609056 2.1767061
0.19864249 -0.60601449 2.1779556
0.208975 -0.60527802 2.1790929
0.210155 -0.605914 2.1777539
0.16271 -0.60458899 2.1775761
0.17657299 -0.60003799 2.1770599
0.18478499 -0.60481602 2.175344
0.199058 -0.60044801 2.1751809
0.20243999 -0.60149902 2.1796279
0.176805 -0.59613901 2.1795449
0.206352 -0.59845102 2.1787989
0.166866 -0.59113598 2.1777921
0.176475 -0.59331101 2.179563
0.159217 -0.62409502 2.1837399
0.171314 -0.62251902 2.1800179
0.18291999 -0.62227398 2.1820757
0.162853 -0.61866498 2.1838341
0.172572 -0.61616701 2.1806071
0.204732 -0.61536503 2.1838479
0.17057601 -0.61157602 2.1842
0.18084949 -0.61152053 2.1840296
0.187828 -0.61108702 2.180474
0.17154001 -0.605775 2.1802621
0.190173 -0.60671699 2.181525
0.197504 -0.60898399 2.1825709
0.181334 -0.603194 2.184937
0.197521 -0.60053903 2.1801879
0.215028 -0.60447502 2.183099
0.16770799 -0.59938699 2.1827681
0.1895695 -0.59892297 2.1801629
0.21288 -0.59933901 2.1803911
0.17057601 -0.59493399 2.1842
0.20465299 -0.62525499 2.188468
0.154193 -0.62204802 2.187144
0.162259 -0.62422597 2.1895909
0.169273 -0.62319601 2.185971
0.17866801 -0.62107599 2.18606
0.201929 -0.62012601 2.1852551
0.14641599 -0.61792701 2.1883581
0.16351999 -0.616898 2.1869831
0.16534001 -0.61977297 2.1876919
0.14964999 -0.61315697 2.1894529
0.15488 -0.610838 2.188298
0.16369601 -0.61250001 2.1859169
0.17784449 -0.61337352 2.1863406
0.182004 -0.61263299 2.1856205
0.197604 -0.61128199 2.186898
0.17705999 -0.60744101 2.1850071
0.175813 -0.60432303 2.1877389
0.198478 -0.60377502 2.188185
0.161998 -0.59552097 2.1866059
0.17914701 -0.59712005 2.1861041
0.18353599 -0.59965402 2.1858039
0.201306 -0.599069 2.1870949
0.15138701 -0.63034397 2.1944621
0.1529195 -0.62473154 2.19169
0.187526 -0.62456203 2.193049
0.17234901 -0.61847299 2.194411
0.19072001 -0.61998099 2.1922259
0.168937 -0.61425698 2.191803
0.178747 -0.614806 2.191251
0.184458 -0.61334699 2.1926019
0.16489799 -0.60914898 2.1900821
0.16952799 -0.60836798 2.190413
0.180307 -0.605088 2.1906841
0.201304 -0.60906303 2.1917441
0.17205501 -0.60272503 2.190546
0.174649 -0.59939802 2.1922569
0.17601299 -0.59798002 2.192275
0.136833 -0.633533 2.19978
0.148569 -0.62857199 2.1980441
0.159824 -0.62918299 2.1963749
0.190928 -0.62984198 2.197113
0.12526999 -0.62304699 2.1991739
0.14030699 -0.620507 2.1977749
0.14547899 -0.62052703 2.1964481
0.1585425 -0.62197149 2.1979337
0.140256 -0.61910897 2.199795
0.14704999 -0.61708701 2.1990211
0.15323749 -0.61754698 2.1973491
0.172509 -0.61878699 2.198252
0.178654 -0.61771899 2.195111
0.18505201 -0.61664897 2.196043
0.154213 -0.61037302 2.1985681
0.16667999 -0.61348897 2.195025
0.147098 -0.60972601 2.1972289
0.164175 -0.605968 2.1996889
0.184076 -0.60821098 2.1959791
0.17991 -0.60097599 2.19766
0.18729299 -0.60368502 2.1954739
0.154921 -0.59874803 2.1982
0.140045 -0.63040298 2.2027299
0.150778 -0.63474602 2.201443
0.17191151 -0.62723351 2.2014236
0.131851 -0.62201899 2.2046025
0.140284 -0.62351102 2.2035451
0.176708 -0.62459701 2.2006049
0.167946 -0.61797303 2.2023239
0.155728 -0.61230165 2.2031028
0.18757901 -0.61365002 2.2003889
0.120946 -0.60916197 2.2032371
0.135906 -0.60514402 2.203882
0.16791533 -0.60795468 2.2029021
0.173282 -0.60830098 2.2038519
0.156462 -0.59927398 2.2032111
0.143557 -0.63659298 2.2051849
0.144778 -0.63427001 2.207077
0.148616 -0.63038701 2.2075131
0.15774751 -0.63176548 2.208704
0.177204 -0.63442999 2.2057581
0.1178725 -0.62888002 2.2081745
0.120853 -0.62641102 2.2065139
0.13834099 -0.62939453 2.2075648
0.154166 -0.62859046 2.206001
0.162696 -0.62921298 2.2089839
0.139219 -0.62333602 2.209743
0.164717 -0.62084198 2.2083199
0.1725 -0.62201703 2.205188
0.135694 -0.61559498 2.206677
0.14493801 -0.61741501 2.2072549
0.14531501 -0.61971498 2.20612
0.15629999 -0.61953598 2.205044
0.17385501 -0.61823702 2.209033
0.137016 -0.61184698 2.206527
0.145743 -0.61352402 2.209204
0.153139 -0.61158848 2.2072215
0.157003 -0.61313403 2.209018
0.16226 -0.61035299 2.2056489
0.12793 -0.60931402 2.209681
0.135911 -0.60917002 2.20767
0.15190101 -0.60510999 2.2091939
0.16866 -0.606507 2.2090211
0.17419501 -0.60760498 2.2087381
0.151821 -0.602741 2.2089579
0.16195899 -0.60231352 2.2084601
0.12864099 -0.63627201 2.2121789
0.139065 -0.63632798 2.2124
0.140273 -0.63524097 2.211349
0.13811 -0.63081402 2.2115641
0.142001 -0.63021201 2.2107711
0.152972 -0.63035202 2.2102771
0.12996601 -0.62952203 2.2135041
0.15994801 -0.62738401 2.2143331
0.15793 -0.62079501 2.212652
0.139065 -0.61947203 2.2124
0.150212 -0.61786199 2.2121551
0.15527099 -0.61708301 2.2115669
0.116425 -0.61436498 2.2114389
0.134882 -0.61007899 2.2143021
0.1370475 -0.61433947 2.2140565
0.14139199 -0.60747004 2.2122979
0.1469045 -0.60617101 2.21298
0.152972 -0.60657197 2.2111881
0.15909301 -0.60662103 2.2120171
0.17634299 -0.606287 2.210691
0.139065 -0.60261601 2.2124
0.116989 -0.64471197 2.219877
0.129528 -0.63554603 2.2198579
0.14432 -0.63787001 2.2164309
0.106591 -0.63488299 2.219739
0.115289 -0.63286602 2.2172999
0.148684 -0.633829 2.2173631
0.124291 -0.62146401 2.216125
0.14182749 -0.62314606 2.2194157
0.15137701 -0.621099 2.216882
0.16013101 -0.62282503 2.2176781
0.166536 -0.623685 2.2150609
0.12559199 -0.61518198 2.217629
0.148431 -0.61765301 2.215184
0.174374 -0.61516798 2.2177441
0.15610801 -0.611875 2.2181661
0.14770401 -0.60675204 2.2179546
0.16384199 -0.60685802 2.2173159
0.16702799 -0.60683697 2.2173569
0.121109 -0.646586 2.2231481
0.13075399 -0.64531499 2.2235329
0.137484 -0.64712501 2.2242291
0.118132 -0.64294851 2.2232699
0.12991799 -0.64230603 2.224225
0.13364001 -0.64178902 2.222158
0.149755 -0.64360398 2.223047
0.111818 -0.63802898 2.2211699
0.119647 -0.63553399 2.223464
0.128783 -0.63819098 2.2213061
0.103929 -0.63255697 2.2223859
0.106679 -0.633398 2.2242129
0.123752 -0.63362497 2.2239079
0.11601 -0.62734002 2.2207069
0.13138901 -0.62958503 2.2204659
0.150663 -0.62699097 2.220773
0.12732801 -0.62068051 2.2225766
0.15462001 -0.62372297 2.221082
0.117118 -0.61704898 2.224566
0.122614 -0.61602449 2.2230873
0.141057 -0.61677802 2.22385
0.14525799 -0.61753303 2.2206099
0.14796899 -0.61016399 2.223027
0.13236301 -0.60892397 2.220145
0.152125 -0.60671598 2.223073
0.156782 -0.60663199 2.2209539
0.14388999 -0.60495502 2.2200911
0.11956 -0.64980602 2.2298479
0.124083 -0.64657402 2.2276039
0.127369 -0.64740896 2.2272549
0.106038 -0.64047003 2.2268
0.117055 -0.64087999 2.228946
0.123004 -0.64047003 2.2268
0.10424 -0.63883698 2.2289441
0.109724 -0.63932103 2.228085
0.118165 -0.63982302 2.229255
0.13473201 -0.63753802 2.225709
0.116617 -0.63402599 2.2280011
0.13479 -0.63029802 2.2264841
0.112887 -0.62733299 2.225574
0.121587 -0.62956601 2.2295949
0.12784651 -0.62874496 2.2278709
0.133645 -0.62985802 2.2282519
0.137308 -0.62687349 2.2253246
0.14640599 -0.62741202 2.2263229
0.115274 -0.62119299 2.2275879
0.123004 -0.62350398 2.2268
0.141762 -0.62423801 2.226052
0.12705199 -0.616328 2.225024
0.1319 -0.61965603 2.2273779
0.108536 -0.612526 2.229521
0.126295 -0.61093301 2.229528
0.13087501 -0.61280799 2.2292891
0.136925 -0.61003399 2.2256839
0.143057 -0.61122 2.229599
0.097942002 -0.60711402 2.2278659
0.119853 -0.60962099 2.2256579
0.123004 -0.606538 2.2268
0.135608 -0.60963702 2.227329
0.121896 -0.60472101 2.2274759
0.087102003 -0.64891303 2.2343769
0.105833 -0.648009 2.231075
0.115516 -0.64674199 2.2320189
0.120947 -0.64547002 2.2344329
0.136031 -0.64819199 2.2316921
0.097250998 -0.64080101 2.230022
0.109329 -0.641545 2.233423
0.110059 -0.64015502 2.2313759
0.12066 -0.64306098 2.2341199
0.138189 -0.643677 2.2327271
0.099933997 -0.63565499 2.2335179
0.1242315 -0.63610351 2.2310476
0.087548003 -0.63116997 2.234669
0.1178535 -0.63318002 2.23154
0.132682 -0.63199902 2.2349679
0.092926003 -0.626917 2.2340851
0.099772997 -0.62634498 2.2337711
0.113239 -0.62546802 2.2327549
0.13645799 -0.62635797 2.2334311
0.107724 -0.62300098 2.2349091
0.116742 -0.62229198 2.2313659
0.122689 -0.619326 2.2328889
0.13722099 -0.61153901 2.2309589
0.125377 -0.60878497 2.232178
0.134726 -0.60903901 2.234134
0.084043004 -0.65069199 2.2378199
0.090062998 -0.65438801 2.239001
0.097678997 -0.64531499 2.2396359
0.1033174 -0.647277 2.2378128
0.090296 -0.63720101 2.2392509
0.103044 -0.63691002 2.237906
0.1009945 -0.63267702 2.2361379
0.104956 -0.627204 2.2375481
0.112741 -0.62509203 2.2359149
0.119215 -0.62815201 2.235137
0.107714 -0.62024301 2.239193
0.119222 -0.62257701 2.2357471
0.083104998 -0.61874503 2.23947
0.097131997 -0.61839497 2.2389691
0.100868 -0.61523002 2.2379351
0.129333 -0.615807 2.2382431
0.088601999 -0.61303198 2.238148
0.095306002 -0.61385202 2.2385981
0.112291 -0.610183 2.236316
0.11697 -0.613612 2.2366869
0.143647 -0.61074698 2.2365551
0.112903 -0.60801601 2.2360959
0.074043006 -0.6544615 2.2423801
0.075828999 -0.65480798 2.242331
0.085464999 -0.650038 2.2405021
0.111101 -0.65001702 2.2443681
0.119423 -0.65210301 2.244736
0.125012 -0.65332699 2.244509
0.087911002 -0.64671999 2.2403049
0.099010997 -0.64755601 2.243382
0.102273 -0.64636898 2.242039
0.089656003 -0.644669 2.2414
0.090079002 -0.63907099 2.2444699
0.118957 -0.63658702 2.243613
0.083586 -0.63283497 2.2443681
0.099731997 -0.63373101 2.2437949
0.100765 -0.63080102 2.241842
0.120251 -0.63072503 2.2400031
0.13153499 -0.63142502 2.2406459
0.106733 -0.62759203 2.2414
0.111148 -0.62878197 2.242208
0.130885 -0.628564 2.2412789
0.117976 -0.62307799 2.242727
0.13055199 -0.61812299 2.241827
0.13556699 -0.61612099 2.243299
0.100582 -0.61286402 2.241673
0.106733 -0.610515 2.2414
0.12840401 -0.61475199 2.243418
0.114885 -0.60931998 2.2403049
0.057774 -0.660999 2.2496829
0.083025999 -0.659747 2.2499709
0.087963998 -0.65905303 2.249958
0.108582 -0.65736598 2.248982
0.076136999 -0.65069401 2.2470551
0.093618996 -0.65035498 2.245712
0.110355 -0.65253299 2.246558
0.104028 -0.64615101 2.247586
0.081023 -0.637613 2.2453029
0.107843 -0.63541299 2.2485621
0.116292 -0.63542902 2.247509
0.093989998 -0.63302851 2.2470241
0.110825 -0.63250202 2.245198
0.116388 -0.63302898 2.2491241
0.101117 -0.629062 2.2493
0.111391 -0.62882501 2.246469
0.117854 -0.62584901 2.245698
0.097328998 -0.62174702 2.249058
0.115608 -0.62039399 2.2468879
0.079262003 -0.61895001 2.248431
0.096950002 -0.61538899 2.245651
0.117955 -0.61917001 2.2478967
0.121957 -0.61535197 2.2462821
0.1125815 -0.61372751 2.24773
0.067508504 -0.661035 2.2524025
0.070996001 -0.66197097 2.252609
0.068217002 -0.65569299 2.254586
0.073151 -0.657309 2.251523
0.088763997 -0.657745 2.2525671
0.093727998 -0.65547401 2.250843
0.10418 -0.65610701 2.2515991
0.078570999 -0.65263802 2.250587
0.088534996 -0.65316248 2.2531829
0.094485998 -0.652583 2.252701
0.105365 -0.653952 2.25402
0.053452998 -0.646828 2.2537601
0.062197 -0.64842999 2.251092
0.087291002 -0.64936399 2.251189
0.096161999 -0.64619797 2.2503591
0.078675002 -0.64494002 2.2539179
0.087044001 -0.64111149 2.2520256
0.105233 -0.64117402 2.2522571
0.111501 -0.64198798 2.2504101
0.074247003 -0.638753 2.2546511
0.084792003 -0.63702798 2.2540159
0.087463498 -0.63572848 2.2523315
0.091216996 -0.638354 2.252847
0.101049 -0.63943398 2.2543719
0.103883 -0.63395602 2.2534542
0.076580003 -0.62518799 2.250104
0.096325003 -0.62901002 2.250541
0.122085 -0.62943602 2.2513859
0.084476002 -0.62072301 2.254739
0.088705003 -0.62123299 2.2548511
0.091228999 -0.62398499 2.2544341
0.10361 -0.62277699 2.254797
0.1078655 -0.62393701 2.2525411
0.090264 -0.61887503 2.251632
0.101366 -0.61836201 2.2534449
0.1061925 -0.61693096 2.250797
0.098205 -0.61197299 2.251013
0.054724999 -0.66223902 2.259871
0.080706999 -0.66456503 2.2581029
0.088936999 -0.66011101 2.258462
0.094857 -0.66195399 2.257627
0.077863 -0.65766203 2.2571926
0.11143 -0.65048498 2.256551
0.073058002 -0.64892602 2.2562001
0.068802997 -0.64305401 2.2556231
0.074496999 -0.64405501 2.2559371
0.076976001 -0.64369297 2.257355
0.092666 -0.64387 2.2567654
0.084319003 -0.63922697 2.2574661
0.090172999 -0.63940001 2.2572341
0.103561 -0.63507402 2.2571919
0.049130999 -0.63265598 2.2578361
0.090248004 -0.63173598 2.2562001
0.107981 -0.63408202 2.25982
0.064456001 -0.62879801 2.2597229
0.092759997 -0.627536 2.2572491
0.14119899 -0.62746602 2.257107
0.101884 -0.624982 2.255533
0.104191 -0.61710101 2.25527
0.079361998 -0.66758603 2.264998
0.046246 -0.663252 2.261939
0.069231004 -0.65855598 2.26087
0.090868004 -0.658418 2.2618649
0.097326003 -0.65513098 2.2649851
0.043256 -0.65276802 2.2636011
0.050861999 -0.65426302 2.260483
0.050425 -0.64843398 2.263911
0.074363999 -0.64637297 2.2640259
0.078477003 -0.64740503 2.260098
0.091508001 -0.64576101 2.2609019
0.064906999 -0.64467102 2.2649331
0.075508505 -0.64104104 2.2612605
0.085804999 -0.64343798 2.261235
0.077266999 -0.63706899 2.2632589
0.070054002 -0.63163 2.2607379
0.072002999 -0.62605703 2.2638259
0.087895006 -0.627837 2.262362
0.090956002 -0.626499 2.2606959
0.079945996 -0.62488699 2.261591
0.099224001 -0.62181699 2.26175
0.116983 -0.621382 2.2648971
0.094590001 -0.61909401 2.262742
0.104532 -0.617679 2.263088
0.077716999 -0.61431402 2.2648089
0.081133001 -0.66654098 2.2662711
0.039526999 -0.66009599 2.2698741
0.054834001 -0.66165203 2.2695401
0.064612001 -0.66152501 2.2676361
0.067162 -0.66221601 2.265296
0.073363334 -0.66282529 2.2677591
0.043281 -0.65821999 2.267931
0.055978999 -0.65516597 2.2672811
0.069234997 -0.65507698 2.2694759
0.072867997 -0.65581799 2.269886
0.086649999 -0.65549898 2.2695019
0.056164 -0.65406102 2.2679031
0.067970999 -0.65049702 2.266572
0.078655005 -0.65031648 2.2673645
0.063345999 -0.64680302 2.269105
0.069232002 -0.649872 2.2679579
0.071692325 -0.64694631 2.2688134
0.072499 -0.64424902 2.269166
0.038934998 -0.63859701 2.267678
0.062921003 -0.63600099 2.267313
0.069656 -0.637667 2.269856
0.086928502 -0.63673449 2.2689328
0.093877003 -0.63872802 2.2682531
0.046124998 -0.63462901 2.2679501
0.060582001 -0.63078701 2.268996
0.073584005 -0.627235 2.2697144
0.084505998 -0.62801301 2.2672
0.090163998 -0.626845 2.2687919
0.065610997 -0.619205 2.2655389
0.097158 -0.61584401 2.2656879
0.104285 -0.61957997 2.2680981
0.117274 -0.61913598 2.2664621
0.054689001 -0.66755003 2.2743831
0.055957001 -0.668446 2.2704339
0.062983997 -0.66451401 2.2744889
0.045726001 -0.656703 2.273052
0.072843 -0.65832299 2.2701299
0.05156 -0.64280802 2.2720561
0.068861 -0.64196599 2.2709939
0.077192999 -0.64431798 2.272193
0.106178 -0.64019698 2.27139
0.063528001 -0.63807201 2.271373
0.073544003 -0.63593602 2.2711999
0.059530001 -0.63139099 2.2729139
0.074435003 -0.63415599 2.2728219
0.078777999 -0.63241804 2.2713156
0.074663997 -0.62708199 2.2742109
0.075191997 -0.626894 2.2700231
0.091394 -0.628066 2.2724731
0.101639 -0.625413 2.271806
0.049851 -0.62051898 2.2737241
0.070077002 -0.62025702 2.270236
0.086520001 -0.62192655 2.2703409
0.090428002 -0.622325 2.271522
0.102682 -0.623631 2.274359
0.056258 -0.61690199 2.2730601
0.073544003 -0.61863202 2.2711999
0.075104997 -0.61750603 2.274173
0.090847999 -0.61863202 2.2711999
0.029103 -0.67335898 2.278784
0.0625 -0.67181301 2.279918
0.066935003 -0.67042601 2.2780149
0.046246 -0.66747499 2.2788031
0.035622999 -0.66433102 2.2784171
0.049488001 -0.66157401 2.277858
0.061248999 -0.659105 2.279351
0.050873 -0.65213698 2.278192
0.064058997 -0.65493602 2.278192
0.051516999 -0.64187002 2.276762
0.091586001 -0.644692 2.2792871
0.047141001 -0.630449 2.2768321
0.079069003 -0.633147 2.2771561
0.059085999 -0.62564701 2.2761741
0.086294003 -0.62944299 2.2787149
0.055714 -0.615978 2.276722
0.065254003 -0.61655802 2.275676
0.073762 -0.61924899 2.276962
0.036370501 -0.67238152 2.2823555
0.042215001 -0.67288399 2.2834711
0.050432 -0.67177248 2.2821636
0.057112999 -0.666659 2.284915
0.064095996 -0.669644 2.282325
0.080490001 -0.66575402 2.2842159
0.032088999 -0.66126102 2.281641
0.052191999 -0.658961 2.28476
0.031381 -0.651366 2.2828751
0.062907666 -0.65337902 2.2815788
0.028762 -0.645172 2.2848959
0.044197999 -0.64717001 2.2829299
0.045069002 -0.649216 2.2826331
0.0572 -0.64294201 2.2830701
0.047056999 -0.63672501 2.282001
0.062638 -0.63642597 2.2811594
0.070288002 -0.63864601 2.283092
0.080247998 -0.63714403 2.280427
0.074721001 -0.63218999 2.2811069
0.039593998 -0.626495 2.2836239
0.047166001 -0.62706298 2.2807081
0.088088997 -0.62812501 2.2822559
0.046918001 -0.62282002 2.2833419
0.063630998 -0.623411 2.283679
0.062996 -0.61956 2.280472
0.080413997 -0.61972702 2.280612
0.033689 -0.675879 2.2877679
0.040713001 -0.67500699 2.2884929
0.056612998 -0.67500299 2.2862999
0.027965 -0.670443 2.288904
0.047695499 -0.67240351 2.2867565
0.061909001 -0.67107397 2.2869501
0.039499 -0.66579199 2.289197
0.038031999 -0.660981 2.2853241
0.053716 -0.66481799 2.2873349
0.057671499 -0.6631605 2.288142
0.038399 -0.657471 2.2872801
0.046227001 -0.65650803 2.2854991
0.056612998 -0.657583 2.2862999
0.056920499 -0.65447104 2.2883029
0.033684999 -0.64672601 2.2894239
0.037732001 -0.64811802 2.289916
0.040112998 -0.64773899 2.2862101
0.05271 -0.64696902 2.288188
0.056606501 -0.64867049 2.285331
0.065669 -0.64802003 2.285121
0.076994002 -0.64918703 2.287184
0.041901998 -0.64262301 2.289562
0.052616 -0.641433 2.2851429
0.056612998 -0.64016402 2.2862999
0.072591998 -0.64311999 2.2866735
0.027140001 -0.63840097 2.287333
0.040649999 -0.63685697 2.2874091
0.058637001 -0.63554001 2.2868941
0.039933 -0.63413298 2.2874119
0.056012999 -0.63056701 2.2859809
0.069456004 -0.63429999 2.2852359
0.070949003 -0.63347399 2.285624
0.052910998 -0.62983298 2.2875781
0.067743503 -0.626755 2.2876177
0.043241002 -0.62131202 2.28581
0.053040002 -0.62390602 2.2855251
0.088751003 -0.624955 2.2854099
0.032122001 -0.68121302 2.2911229
0.044234 -0.68293601 2.2907431
0.028304501 -0.6790545 2.2915494
0.031927001 -0.67634499 2.2939
0.046564002 -0.67510498 2.293859
0.065898001 -0.67024797 2.2921131
0.022567 -0.66608602 2.2945809
0.033059999 -0.66841501 2.2917111
0.023723001 -0.65747797 2.2933619
0.051564999 -0.65266597 2.2935541
0.062977999 -0.65035999 2.2917931
0.034584001 -0.64205903 2.2910891
0.055604 -0.63750499 2.2925329
0.073496997 -0.63261998 2.290153
0.022898 -0.62543601 2.2917919
0.037578002 -0.628739 2.2936251
0.080939002 -0.62966198 2.294354
0.035668001 -0.62109703 2.2918949
0.034492001 -0.68054098 2.2998581
0.04501 -0.68143898 2.2956481
0.045414001 -0.67612499 2.295135
0.027775001 -0.66695702 2.295224
0.025926 -0.66280502 2.2963669
0.036887001 -0.66242599 2.2957809
0.044729002 -0.66356403 2.296495
0.029409001 -0.65982002 2.296195
0.043412 -0.65832001 2.2966499
0.04558 -0.65859002 2.29532
0.023427 -0.65270197 2.299324
0.028709 -0.65360802 2.2956581
0.046126999 -0.653341 2.2961359
0.062401 -0.65368098 2.2950809
0.032563001 -0.64854097 2.299845
0.044447999 -0.645688 2.2973421
0.062290002 -0.64534301 2.2959709
0.019482 -0.64451301 2.2978201
0.045747001 -0.64105499 2.295506
0.065452002 -0.641469 2.2954111
0.058905002 -0.63711399 2.2980499
0.062008999 -0.62746698 2.296818
0.079851002 -0.62712097 2.2954471
0.045913 -0.62352002 2.295692
0.021864999 -0.68718898 2.301023
0.03971 -0.68844002 2.3005049
0.0178275 -0.6821475 2.3013685
0.026234999 -0.68488997 2.3008499
0.03122 -0.67913598 2.3007679
0.039457999 -0.67954999 2.3017001
0.038716666 -0.67027402 2.3023794
0.022886001 -0.66869801 2.304126
0.034917999 -0.66289401 2.3002429
0.039457999 -0.66201299 2.3017001
0.037461001 -0.65731299 2.3019879
0.047809001 -0.658176 2.302978
0.050716002 -0.65897101 2.30021
0.038998 -0.65223199 2.3020289
0.057064999 -0.65003598 2.303973
0.051638 -0.64608598 2.304112
0.048455998 -0.64157802 2.302233
0.054198001 -0.64067 2.3035059
0.040684 -0.63521999 2.302691
0.058079001 -0.63571799 2.3009601
0.028238 -0.63465703 2.3039081
0.055286001 -0.63224202 2.304697
0.066742003 -0.63433897 2.302844
0.073002003 -0.63039899 2.302943
0.041591998 -0.62610602 2.302243
0.056993999 -0.626939 2.3017001
0.027254 -0.68950701 2.3079891
0.012649 -0.68266499 2.3098769
0.019504 -0.68185502 2.308007
0.025258999 -0.68165398 2.3067851
0.026807001 -0.67836201 2.307153
0.017518001 -0.67293298 2.305124
0.023412 -0.671516 2.306757
0.043426 -0.66898602 2.3080161
0.022414001 -0.66413999 2.3078499
0.033980001 -0.66171598 2.30512
0.039728999 -0.66116202 2.305146
0.01317 -0.65867698 2.3092251
0.048213001 -0.65891403 2.3055651
0.021632999 -0.65372199 2.3074801
0.036341999 -0.65205997 2.3056979
0.040454999 -0.65154701 2.3097639
0.057535 -0.648269 2.3060889
0.034012001 -0.64091003 2.3052571
0.036883 -0.64364803 2.306211
0.045465 -0.641747 2.3078649
0.062971003 -0.636011 2.30932
0.034299001 -0.634592 2.305553
0.03757 -0.63408399 2.3064499
0.053912498 -0.63191849 2.3064766
0.035461999 -0.62916398 2.3081341
0.011608 -0.69316399 2.3109241
0.0047960002 -0.68888599 2.3107331
0.022531999 -0.68814701 2.312284
0.028269 -0.686104 2.3131011
0.028096 -0.68049198 2.310549
0.025927 -0.67773354 2.3119206
0.034164 -0.67695498 2.3139751
0.00098000001 -0.673473 2.3145421
0.026346 -0.67226398 2.311692
0.021098001 -0.66560501 2.314563
0.027985999 -0.66810501 2.3139529
0.023358 -0.66195899 2.3104219
0.023223 -0.654459 2.310127
0.027226999 -0.65007299 2.314126
0.029720001 -0.64610398 2.313844
0.018897999 -0.64057499 2.3141899
0.029209999 -0.64112502 2.312197
0.043598 -0.64431298 2.314384
0.046004001 -0.63901198 2.313693
0.052545 -0.63901597 2.3113329
0.020268001 -0.63338703 2.312984
0.045386001 -0.63175702 2.3142779
-0.0076779998 -0.69422001 2.3198209
-0.001214 -0.69406497 2.31814
0.021596 -0.69208097 2.317785
0.02207 -0.68415499 2.3173001
0.018123001 -0.67259002 2.3175526
0.021748001 -0.67418998 2.31828
0.018624 -0.66716498 2.3187721
0.031323999 -0.66526699 2.3185289
0.022113999 -0.661928 2.3177321
0.031601001 -0.65948403 2.31602
0.040562999 -0.65743399 2.316752
0.0376665 -0.64919299 2.3168197
0.039930001 -0.638538 2.318393
0.034453999 -0.63440597 2.3161099
0.037881501 -0.63148153 2.3170135
-0.00099199999 -0.69754303 2.3212121
0.001351 -0.69914001 2.3208239
0.008901 -0.69525701 2.323909
0.013192 -0.69406497 2.322566
0.016938999 -0.69253302 2.323621
0.021776 -0.69338602 2.3215959
0.0049910001 -0.68877602 2.320363
0.007528 -0.688227 2.3237009
-0.002997 -0.68488503 2.324924
0.015017 -0.68273097 2.323267
0.020756001 -0.67528802 2.3224621
0.013883 -0.66037798 2.32041
0.024010999 -0.65531999 2.3215139
0.034272999 -0.647358 2.322696
0.048246 -0.64435798 2.3207929
0.021365 -0.63964701 2.324327
0.036772002 -0.63800597 2.322741
0.052962001 -0.63247502 2.321625
0.024111001 -0.70328099 2.3280301
-0.020151 -0.69955403 2.328908
0.014193 -0.69655901 2.329392
-0.012556 -0.69189101 2.329504
0.0073580001 -0.68814898 2.3269105
0.0088679995 -0.68018001 2.3266289
0.012091 -0.68130702 2.3271811
-0.007344 -0.67062902 2.329025
0.013398 -0.67175001 2.3251071
0.019698 -0.667633 2.325603
0.028485 -0.66731101 2.3264921
0.034880001 -0.66531903 2.3267961
0.025407 -0.65814197 2.329211
0.017423 -0.65012199 2.3276391
0.021938 -0.65455002 2.3299911
0.013662 -0.64661503 2.3254721
0.024150999 -0.64837003 2.3283119
0.028654 -0.64953703 2.3266799
0.032113001 -0.648036 2.3291111
0.039613001 -0.63728303 2.327271
0.0078079998 -0.70667702 2.3338959
-0.010278 -0.70342702 2.3314359
0.022035001 -0.70089 2.332042
-0.0030040001 -0.69985998 2.3330929
0.0046720002 -0.69709897 2.3328049
0.022565 -0.69733697 2.332485
-0.013254 -0.69085997 2.334825
-0.0070639998 -0.69272101 2.331598
0.011287 -0.69080001 2.3306711
0.003544 -0.688636 2.332773
0.017007999 -0.68765104 2.3308311
0.021344 -0.68599802 2.3303461
0.019454001 -0.68329901 2.334101
-0.016906001 -0.67708403 2.333451
0.011202 -0.67900097 2.331152
0.017550001 -0.671345 2.331831
0.0045429999 -0.66629601 2.330693
0.0077169999 -0.66696697 2.331306
0.013426 -0.66955799 2.3335111
0.018577 -0.668715 2.3326609
0.0228105 -0.66106105 2.333977
-0.011691 -0.65637398 2.3331261
0.022593001 -0.649427 2.3345511
0.031374998 -0.645096 2.333817
0.041186001 -0.64389199 2.3329461
0.027595 -0.63712001 2.33077
0.020679001 -0.63185799 2.3316021
-0.0084950002 -0.71007299 2.339762
0.0049530002 -0.70391101 2.3364439
-0.022808 -0.69748795 2.3392229
0.004958 -0.69885898 2.339529
0.0027010001 -0.69074601 2.338711
-0.014578 -0.689623 2.335475
-0.00047200001 -0.68609798 2.3369119
0.0023719999 -0.68632102 2.3385041
0.005041 -0.689394 2.3362119
0.022290001 -0.68933499 2.33797
-0.007065 -0.68165302 2.3370471
-0.017601 -0.67660499 2.3389249
0.0056969998 -0.67789501 2.3356509
0.0022740001 -0.67211097 2.338527
0.016873 -0.66570801 2.3361599
0.021086 -0.66131598 2.3398099
0.018828001 -0.65812999 2.3361149
0.0099539999 -0.65304601 2.3368011
0.018866999 -0.65340698 2.3366921
0.031452 -0.65123099 2.3366261
0.014478 -0.64864397 2.336163
0.014964 -0.64252198 2.339972
0.022724999 -0.64256001 2.3354471
0.025154 -0.64177001 2.3391409
0.018189 -0.63443702 2.338547
-0.019564001 -0.70931101 2.3416591
-0.010689 -0.70176703 2.341023
-0.023511 -0.69683599 2.3447249
-0.013225 -0.69995397 2.340991
-0.0062850001 -0.69523501 2.344172
-0.0143855 -0.68740648 2.3436131
0.010643 -0.68956602 2.342114
-0.028310001 -0.682953 2.3428991
0.0039300001 -0.68063498 2.3404
0.0085319998 -0.68134302 2.340862
0.018035 -0.67922598 2.3412621
-0.002784 -0.67322445 2.3414879
0.0080415001 -0.6745345 2.3420815
0.010813 -0.67167002 2.342304
0.015453 -0.67035902 2.340121
-0.021949001 -0.66234899 2.3430259
0.002903 -0.66241002 2.3412721
0.006728 -0.66330099 2.3415949
0.014642 -0.66282201 2.3445809
0.0041780001 -0.65793198 2.344641
0.011049 -0.65536898 2.344116
0.023055 -0.65368402 2.340848
0.033944 -0.64499003 2.3400869
-0.023859 -0.714185 2.3490911
-0.0056170002 -0.71451497 2.349144
-0.001193 -0.71148401 2.347224
0.0044740001 -0.71144199 2.3491001
-0.024503 -0.70638502 2.349725
-0.013211 -0.70153898 2.3493609
-0.023863999 -0.69550699 2.3456991
-0.011496 -0.69542301 2.3471999
-0.0059290002 -0.69558102 2.348556
-0.0094569996 -0.69404298 2.349278
-0.000757 -0.69347203 2.3476169
0.0044740001 -0.69354397 2.3491001
-0.019617001 -0.68702102 2.3461919
-0.028011 -0.68214154 2.349282
0.005051 -0.68375999 2.3492999
0.023069 -0.683999 2.348978
-0.0069920002 -0.679133 2.349602
-0.00032200001 -0.67545903 2.3480101
0.004191 -0.675973 2.3493924
0.012001 -0.67697698 2.348021
0.022372 -0.67564601 2.3491001
0.005295 -0.66574103 2.3495629
0.0061960001 -0.66353202 2.3453181
0.010161 -0.66484398 2.349005
-0.0042429999 -0.65772301 2.3452909
0.011714 -0.65872502 2.348886
0.018131001 -0.65788299 2.3484299
0.0066229999 -0.65473497 2.3471222
0.0023320001 -0.64792401 2.349175
0.0077225002 -0.64767098 2.3474636
0.011249 -0.64641702 2.347899
0.023557 -0.64796197 2.3495021
0.023598 -0.64359498 2.3462596
0.018084001 -0.63772649 2.3471484
-0.029135499 -0.71613204 2.3512039
-0.022221001 -0.71661103 2.3524001
-0.028329 -0.70789802 2.3515041
-0.033767998 -0.70281202 2.354625
0.0048099998 -0.70102298 2.351105
-0.0041430001 -0.685848 2.3509591
0.004131 -0.68387401 2.3500199
-0.052728999 -0.67939699 2.354701
-0.0145525 -0.67852151 2.3508739
-0.0064349999 -0.66893297 2.354521
0.00073799997 -0.66746902 2.353339
0.006451 -0.66690898 2.351198
-0.017562 -0.66357201 2.3520005
-0.00049599999 -0.66131002 2.3536811
0.019257 -0.66274601 2.351599
0.0175665 -0.65284395 2.3524666
0.000734 -0.64063102 2.3505919
-0.0074450001 -0.71215099 2.3580301
-0.030412 -0.70550299 2.3591521
-0.0062919999 -0.70547199 2.3584371
-0.033149999 -0.70139098 2.355922
-0.025692999 -0.70009899 2.35569
-0.00868 -0.69604897 2.357784
-0.007274 -0.69413102 2.3582211
-0.037450001 -0.68758601 2.359962
-0.013135 -0.68604797 2.358557
-0.0081080003 -0.68730301 2.359175
-0.029165 -0.68358803 2.358979
-0.021681 -0.683658 2.3575521
-0.0071029998 -0.67611098 2.358412
0.022355 -0.67536598 2.356312
-0.028158 -0.67064899 2.3597269
0.001953 -0.67203403 2.356657
-0.01417 -0.66769499 2.3594351
-0.0099250004 -0.66913402 2.3599131
-0.018461 -0.66424698 2.3553209
-0.0043100002 -0.66054899 2.356848
0.0021629999 -0.65782797 2.35654
0.011089 -0.65826303 2.358748
0.019138999 -0.65824097 2.3591599
-0.002655 -0.65106499 2.356657
0.0021629999 -0.653799 2.355705
0.0031069999 -0.64823902 2.35884
0.0063470001 -0.64908397 2.358861
0.021418 -0.64713699 2.357368
-0.006761 -0.64007002 2.358794
-0.019489 -0.72002703 2.362082
-0.022307999 -0.71686798 2.3613579
-0.01932 -0.71587002 2.3634951
-0.027252 -0.71354502 2.361376
-0.030877 -0.70635003 2.3612909
-0.02438 -0.707353 2.3602271
-0.032850999 -0.70485902 2.3625131
-0.0274725 -0.69765002 2.363569
0.0099149998 -0.696603 2.360513
-0.026196999 -0.68918401 2.360965
-0.0076230001 -0.68122798 2.361496
-0.015248 -0.67507702 2.3610899
-0.011466 -0.67864799 2.3601151
0.0071655 -0.67819899 2.3629065
-0.019067001 -0.674335 2.363724
-0.013166 -0.67211699 2.362097
0.000138 -0.661897 2.3647089
0.0053249998 -0.65916598 2.364516
-0.015204 -0.649342 2.360312
-0.0066180001 -0.64649498 2.3619061
-0.002876 -0.64235306 2.3618736
0.011477 -0.64275599 2.3612421
-0.021921 -0.71803302 2.368346
-0.013517 -0.71637797 2.3654001
-0.016682001 -0.71056497 2.3691311
-0.042436 -0.70727497 2.3661461
-0.039912999 -0.70567501 2.3659761
-0.031342 -0.70600402 2.36602
-0.012885 -0.70552403 2.3685701
-0.041508 -0.70288599 2.3695951
-0.023390001 -0.70041901 2.3666589
-0.0057410002 -0.70071602 2.3675621
-0.027834 -0.69534498 2.3690691
-0.013517 -0.69835597 2.3654001
-0.035255 -0.69145203 2.365263
-0.023677999 -0.693169 2.367537
-0.0128415 -0.68767953 2.3675175
0.0055229999 -0.68738902 2.36818
-0.031539001 -0.68033397 2.3654001
-0.023678999 -0.68203902 2.3675289
-0.013517 -0.68033397 2.3654001
-0.0053329999 -0.68168402 2.3661201
-0.045058001 -0.678406 2.3650191
-0.039632 -0.67655402 2.3692329
-0.009451 -0.67972201 2.3674631
-0.027706001 -0.67041349 2.3654566
-0.0053119999 -0.67161399 2.368948
-0.012573 -0.66899103 2.3695819
-0.006943 -0.665344 2.3677471
0.0056790002 -0.66912198 2.368686
-0.023968 -0.66365898 2.3684001
-0.013517 -0.66231197 2.3654001
-0.005622 -0.66330397 2.366991
0.0039944998 -0.66233248 2.3658047
0.022528 -0.66231197 2.3654001
-0.022931 -0.65872699 2.3675809
-0.016558999 -0.65571201 2.3654151
-0.016443999 -0.65226102 2.3672409
0.0090910001 -0.650464 2.366981
-0.024257001 -0.64527899 2.3692701
-0.0059110001 -0.64492399 2.367861
0.002541 -0.64402497 2.3652525
0.012434 -0.64456803 2.366452
-0.039004002 -0.72083497 2.373358
-0.018181 -0.72195399 2.371763
-0.036601 -0.71635503 2.3744149
-0.025613001 -0.71686798 2.374234
-0.034153998 -0.71406651 2.37293
-0.021397 -0.70482898 2.3746109
-0.037152 -0.69611001 2.3746691
-0.046735998 -0.69347 2.3701861
-0.033555999 -0.69101298 2.3711431
-0.044293001 -0.68548602 2.3719261
-0.025269 -0.68057799 2.374619
-0.0089570004 -0.68359101 2.37041
-0.051036 -0.67966598 2.3742249
-0.031698 -0.67973697 2.372926
-0.027070999 -0.67676401 2.3708551
-0.046301998 -0.67165601 2.371634
-0.030825 -0.66886002 2.3704779
-0.012174 -0.666466 2.3732581
-0.0057890001 -0.65605599 2.3722429
0.001512 -0.65752298 2.374938
-0.017526001 -0.65253901 2.3716011
-0.012417 -0.65072399 2.3700881
-0.064099997 -0.64989901 2.37042
-0.051800001 -0.64581102 2.371613
-0.017917 -0.64872402 2.3720801
-0.010485 -0.64855599 2.370755
-0.0019650001 -0.6487475 2.3719201
-0.036015 -0.70800298 2.379236
-0.020923 -0.70611101 2.3797221
-0.041311 -0.70308 2.375422
-0.037581999 -0.69781601 2.3762951
-0.030440001 -0.691553 2.3770311
-0.024613 -0.68770403 2.377459
-0.037140999 -0.67608398 2.375886
-0.026815999 -0.67504102 2.378454
-0.031482 -0.67307001 2.3779149
-0.028713999 -0.67005301 2.3773141
-0.021729 -0.66989899 2.3757491
-0.0089729996 -0.66703999 2.379132
-0.041884501 -0.66226554 2.3796716
-0.015809 -0.66058701 2.3794019
-0.011675 -0.66430801 2.3783829
0.0088269999 -0.66397798 2.3763521
-0.028317001 -0.65747297 2.3780015
-0.032522999 -0.65458602 2.378799
-0.025272001 -0.65311098 2.378757
-0.010429 -0.65484899 2.3773949
-0.035797998 -0.72717798 2.381408
-0.036313999 -0.72375399 2.383234
-0.037866 -0.71505499 2.383949
-0.038722999 -0.70917302 2.382503
-0.018990001 -0.70251602 2.380491
-0.040270001 -0.69181597 2.3845079
-0.03951 -0.69138199 2.3825481
-0.031211 -0.692523 2.382921
-0.023848001 -0.688106 2.3808179
-0.018549001 -0.68425202 2.3808889
-0.045031998 -0.67693502 2.3802559
-0.030963 -0.67425197 2.3831871
-0.026773 -0.67010099 2.3819129
-0.012693 -0.67449498 2.3828599
-0.044367999 -0.665007 2.382931
-0.033128999 -0.66365099 2.3838651
-0.046861 -0.658638 2.381
-0.030716 -0.65598202 2.3834529
-0.027412999 -0.658539 2.3817816
-0.032209001 -0.65343201 2.380626
-0.01361 -0.64875698 2.3817999
-0.03083 -0.71007901 2.386246
-0.022019999 -0.70375198 2.3866661
-0.01794 -0.69642001 2.387444
-0.030672999 -0.69168401 2.386755
-0.024343001 -0.685875 2.3887441
-0.033358 -0.67906302 2.3878131
-0.020994 -0.67849201 2.389241
-0.048193999 -0.66952997 2.385987
-0.0094640004 -0.66517597 2.385776
-0.039533999 -0.66414398 2.3863709
-0.026255 -0.66326702 2.388931
-0.0064900001 -0.65719402 2.387259
0.0064019999 -0.65515703 2.3859701
-0.030359 -0.65489298 2.387774
-0.036148001 -0.70378101 2.3922639
-0.025589 -0.703574 2.3910761
-0.041544002 -0.68869603 2.39379
-0.038552999 -0.68186301 2.3930199
-0.044728 -0.671193 2.390276
-0.031214001 -0.66692799 2.3907659
-0.026665 -0.667997 2.3908229
-0.00697 -0.66720402 2.3916099
-0.035103001 -0.65122002 2.3946481
-0.012346 -0.65224302 2.391953
-0.037943002 -0.72530502 2.3968599
-0.029509 -0.69436097 2.3962879
-0.037053 -0.68851799 2.3976619
-0.022867 -0.68853498 2.398243
-0.02854 -0.68491501 2.398329
-0.033075999 -0.67746001 2.3993161
-0.024870001 -0.67362499 2.396183
-0.018211 -0.67057002 2.3980911
-0.012429 -0.66068703 2.3999641
-0.028271001 -0.65572602 2.3997819
-0.041191999 -0.65047598 2.396049
-0.037742998 -0.702815 2.4013231
-0.040305 -0.69507301 2.400377
-0.043251 -0.67694098 2.40148
-0.039151002 -0.67778802 2.401062
-0.041035 -0.67267698 2.4040511
-0.025691999 -0.67089403 2.4006071
-0.036642998 -0.660559 2.4023449
-0.047006503 -0.65773249 2.4032464
-0.025390999 -0.671682 2.408314
-0.022294 -0.66401303 2.407789
-0.039976999 -0.66740698 2.4115939
-0.036846001 -0.67478597 2.4151659
-0.038763002 -0.66403103 2.4199231
-0.041005 -0.66351902 2.422292
