# .PCD v0.7 - Point Cloud Data file format
VERSION 0.7
FIELDS x y z
SIZE 4 4 4
TYPE F F F
COUNT 1 1 1
WIDTH 1587
HEIGHT 1
VIEWPOINT 0 0 0 1 0 0 0
POINTS 1587
DATA ascii
1.017251 -0.025583001 0.98070002
0.89578199 -0.020738 0.98168999
0.94074732 -0.02193 0.98181701
0.975959 -0.020142 0.98192501
1.028707 -0.021495 0.98409599
1.497187 -0.020186 0.98170102
1.505989 -0.024324 0.98145902
1.5301369 -0.020452 0.98164099
0.98103398 -0.018503999 0.98039699
1.5222501 -0.017839 0.98157102
1.537635 -0.017819 0.98247802
1.547804 -0.018516 0.98045897
1.556492 -0.096955001 0.98516101
1.470747 -0.090150997 0.98795903
1.498516 -0.091174997 0.98667699
1.52487 -0.087379001 0.985982
1.545549 -0.087334998 0.98755199
1.554366 -0.085495003 0.98507297
1.5440614 -0.082692504 0.9891485
1.549268 -0.084046997 0.98701602
1.550187 -0.075920999 0.98539299
1.4829119 -0.070178002 0.98886299
1.490908 -0.067286 0.98545599
1.487255 -0.062751003 0.98637301
1.5525705 -0.062145501 0.988029
1.5426871 -0.058800999 0.98792601
1.5464081 -0.056520998 0.98820001
1.486172 -0.052080002 0.989905
1.5294729 -0.048080001 0.98654997
1.538929 -0.048509002 0.98942798
1.502511 -0.044181999 0.98525703
1.525933 -0.042381 0.98980802
1.533872 -0.040251002 0.98899502
1.535146 -0.044755001 0.98717999
1.553719 -0.042389002 0.98806
1.521029 -0.038817 0.98960799
1.555455 -0.037971001 0.98986399
1.568354 -0.039156001 0.98973399
0.91320503 -0.025157999 0.98689097
0.94069302 -0.026774 0.98661602
0.95176995 -0.026439998 0.98866105
1.500904 -0.026112 0.98848498
1.523566 -0.027401 0.98551297
1.534163 -0.025477 0.98578203
1.537872 -0.025429999 0.989667
0.89480603 -0.023700999 0.989389
0.90667099 -0.022748001 0.985654
0.9169665 -0.0243825 0.98879397
0.94172901 -0.023618 0.98760498
0.97398502 -0.023251999 0.98541701
0.987073 -0.023104001 0.98739898
1.07398 -0.024807001 0.98678201
1.547401 -0.101802 0.99103898
1.505464 -0.097727001 0.99206501
1.4877501 -0.088518001 0.99435103
1.5076441 -0.087819003 0.99028897
1.5491025 -0.088172503 0.99287701
1.466041 -0.075042002 0.99238098
1.493368 -0.075438 0.99208897
1.5114191 -0.077197 0.992549
1.548736 -0.075043 0.99256402
1.503109 -0.072947003 0.99456698
1.501549 -0.065909997 0.99393499
1.554291 -0.069615997 0.99334401
1.552573 -0.063947 0.99195302
1.499802 -0.055769 0.99120098
1.550262 -0.059827 0.991593
1.538672 -0.045302998 0.99286997
1.558387 -0.044369999 0.99376702
1.481436 -0.036874998 0.99435502
1.545857 -0.036254998 0.99070698
1.564449 -0.037314001 0.99264199
0.92343801 -0.031516001 0.99162799
0.93730003 -0.033576 0.99162
1.02011 -0.030277999 0.994798
1.52332 -0.031122001 0.99471498
0.90420699 -0.025525 0.99327201
0.90974301 -0.02661 0.99317199
0.92287701 -0.026257001 0.99207503
0.96004802 -0.026527001 0.99183702
0.97057498 -0.025516 0.99201298
0.99004197 -0.025800999 0.99465197
1.013311 -0.028012 0.99298602
1.0339659 -0.026560999 0.99407703
1.518388 -0.029607 0.99031401
1.5413539 -0.026574999 0.993478
1.5747319 -0.025401 0.994578
1.041943 -0.024749 0.99297702
1.532425 -0.02386 0.992387
1.493642 -0.105878 0.99845898
1.516495 -0.107096 0.99980003
1.489221 -0.098591998 0.99940598
1.526472 -0.095794998 0.99995601
1.4812775 -0.093426004 0.997244
1.53444 -0.094099998 0.99663299
1.531689 -0.086315997 0.99568099
1.458038 -0.080081001 0.99851602
1.499343 -0.081308998 0.99925101
1.549738 -0.084434003 0.99622601
1.538089 -0.071833998 0.99735701
1.543528 -0.072530001 0.99841303
1.547151 -0.070652001 0.99546897
1.538519 -0.067804001 0.99652898
1.543033 -0.062618002 0.99636
1.488219 -0.059700999 0.9975
1.4985729 -0.058074001 0.99884498
1.494136 -0.052450001 0.99890602
1.547545 -0.050037999 0.99603498
1.537923 -0.048158001 0.999798
1.544098 -0.047323 0.998285
1.5467139 -0.046201002 0.99733597
1.499945 -0.043917 0.99692398
1.519082 -0.043164 0.99625498
0.92445898 -0.031925999 0.99542898
0.97056103 -0.031006999 0.999345
0.99497199 -0.034504998 0.99789798
1.0061425 -0.032407001 0.99614346
1.013679 -0.034554001 0.99794698
1.5247411 -0.032995 0.99868298
1.530787 -0.03489 0.99917001
0.90091097 -0.028023001 0.995911
0.90775102 -0.029030001 0.99629098
0.96254301 -0.029691 0.99504298
0.96749401 -0.027771499 0.99587798
0.98140401 -0.029402001 0.99846101
1.0318559 -0.027155001 0.99720502
1.058548 -0.027662 0.995004
1.074797 -0.028829999 0.99947798
1.088197 -0.028641 0.99551499
1.513817 -0.026164999 0.995314
1.532407 -0.025139 0.996225
1.54934 -0.029953999 0.998514
1.4805501 -0.108638 1.003949
1.517251 -0.105109 1.002798
1.5087301 -0.103533 1.004751
1.475188 -0.095453002 1.003528
1.5218281 -0.097182997 1.003091
1.528967 -0.099985003 1.00295
1.540694 -0.098493002 1.002766
1.496943 -0.094053 1.000618
1.5402991 -0.088592999 1.001929
1.484073 -0.082855999 1.004817
1.492408 -0.079181001 1.004896
1.5250371 -0.075015999 1.002674
1.4816051 -0.072149999 1.001982
1.5168329 -0.073785998 1.0006649
1.541838 -0.072466999 1.00143
1.524972 -0.069661997 1.004724
1.475944 -0.058561001 1.001166
1.525066 -0.057728998 1.00327
1.541649 -0.058704 1.001896
1.546967 -0.056405 1.00431
1.513473 -0.047582999 1.004254
1.543462 -0.047219999 1.0027339
1.565124 -0.044565 1.001491
0.91231298 -0.035165001 1.002228
0.93733698 -0.037447002 1.003679
0.94783902 -0.036238998 1.0009249
0.95118201 -0.035076 1.004756
0.89912897 -0.034053002 1.004613
0.90935999 -0.034729999 1.003547
0.91865402 -0.031288002 1.004228
0.93277103 -0.034630999 1.0042239
0.94056898 -0.0339 1.002213
0.97343397 -0.032931 1.000937
0.99120498 -0.032033999 1.0047851
1.1290849 -0.031036999 1.002357
0.97387898 -0.029603001 1.0014441
1.527071 -0.027643999 1.000136
1.532299 -0.028174 1.001619
1.503845 -0.105039 1.00622
1.4554009 -0.103966 1.005901
1.4721839 -0.101371 1.0064369
1.512593 -0.101162 1.005458
1.4821 -0.097916998 1.0099601
1.528579 -0.097938001 1.006955
1.509515 -0.091006003 1.00899
1.4875799 -0.089174002 1.006502
1.470452 -0.080247998 1.007977
1.5242 -0.077468 1.005177
1.527763 -0.077272996 1.005381
1.494046 -0.074612997 1.008477
1.542984 -0.071914002 1.00729
1.468932 -0.062551998 1.0085371
1.487872 -0.064309001 1.009174
1.493222 -0.064891003 1.0064369
1.537788 -0.061012 1.00981
1.5399359 -0.055808999 1.005864
1.4692971 -0.050832 1.008927
1.531716 -0.050891001 1.005011
1.550751 -0.052599002 1.007152
0.95191401 -0.043618001 1.0094939
0.99686801 -0.040103 1.005722
1.499092 -0.04225 1.007219
1.508361 -0.041745 1.007654
1.543185 -0.040174 1.0080251
1.553809 -0.044342 1.005702
0.92004198 -0.037907001 1.009328
0.92824101 -0.036933001 1.009585
0.95875299 -0.035406999 1.0062751
0.98432499 -0.036169998 1.006831
0.98603898 -0.039709002 1.00652
1.004021 -0.037990998 1.00898
1.016219 -0.035286002 1.005942
1.0234935 -0.037248001 1.0077755
1.1092449 -0.037826002 1.007466
1.536723 -0.038093001 1.007427
0.90660602 -0.034453001 1.0061359
0.930866 -0.034490999 1.0066071
0.98538101 -0.033555001 1.0075279
0.99382699 -0.034999002 1.009773
1.022414 -0.032015 1.005028
1.0655791 -0.034201 1.008376
1.07932 -0.034265999 1.005288
1.505384 -0.034490999 1.009057
1.531195 -0.034687001 1.005129
1.5382415 -0.031379499 1.0075915
1.548056 -0.032046001 1.009346
1.489301 -0.115383 1.0149291
1.479926 -0.10601 1.012134
1.491522 -0.109458 1.0107991
1.464959 -0.101934 1.014788
1.474847 -0.101266 1.01263
1.490473 -0.102056 1.010865
1.520138 -0.103705 1.011438
1.474473 -0.092338003 1.011083
1.51008 -0.092174999 1.013533
1.449777 -0.088237002 1.011979
1.497571 -0.088170998 1.014835
1.501382 -0.088262998 1.0144089
1.5166893 -0.08050067 1.012041
1.533532 -0.083760001 1.013085
1.465716 -0.065041997 1.012427
1.478924 -0.067119002 1.010228
1.521086 -0.060444999 1.014129
1.535466 -0.055337999 1.010179
1.494254 -0.053385001 1.012648
1.518255 -0.053006999 1.013768
1.529174 -0.054873999 1.010505
1.463269 -0.046714999 1.014657
0.92858499 -0.042546 1.012127
1.046471 -0.040833 1.013334
1.485999 -0.041866999 1.010072
1.518913 -0.040771 1.011434
0.90957898 -0.035959002 1.011747
0.92150497 -0.036798 1.010619
0.93773901 -0.03647 1.012624
0.94710702 -0.039877001 1.0123
0.95786899 -0.036323 1.012924
0.96149898 -0.038518 1.012687
0.965105 -0.035333 1.0114551
0.98737001 -0.037510999 1.012138
0.99521703 -0.039409 1.012725
1.0019045 -0.036228999 1.011783
1.0366335 -0.03661 1.013752
1.054217 -0.035096999 1.011035
1.556282 -0.038331501 1.0126829
1.5373595 -0.034298502 1.0133575
1.4968414 -0.1179385 1.0180709
1.508072 -0.11745 1.019061
1.44714 -0.112122 1.019363
1.461549 -0.107568 1.0167021
1.498684 -0.109459 1.017905
1.5094579 -0.105973 1.015561
1.512951 -0.108361 1.017097
1.493699 -0.095740996 1.01925
1.4747781 -0.090273 1.017545
1.507974 -0.093538001 1.016209
1.460223 -0.086728998 1.019238
1.481707 -0.085414998 1.0152251
1.502098 -0.086732998 1.017629
1.475955 -0.081549004 1.017591
1.4771709 -0.070542999 1.019503
1.502535 -0.074914999 1.01818
1.5009381 -0.069944002 1.017246
1.505864 -0.069678001 1.01665
1.508327 -0.063615002 1.019925
1.51671 -0.063859001 1.015769
1.488076 -0.058371998 1.015117
1.536231 -0.059393998 1.018355
0.95905298 -0.051284999 1.019917
1.04089 -0.048023 1.017053
1.4609801 -0.049837001 1.016876
1.505657 -0.046227001 1.017078
0.93789798 -0.044617001 1.01993
0.9465605 -0.042500999 1.0178235
0.95113701 -0.041485 1.016704
0.95639402 -0.040394999 1.019604
0.971246 -0.043910999 1.0158809
0.97724599 -0.0428495 1.01703
0.99462599 -0.042826001 1.016763
0.99799198 -0.044323001 1.018935
1.006108 -0.042649001 1.01862
1.015251 -0.041264001 1.019804
1.04435 -0.041680001 1.018142
1.099876 -0.043283999 1.016508
0.94847202 -0.039662 1.018432
0.96190149 -0.0379025 1.0166435
1.030382 -0.038658001 1.018761
1.0726225 -0.0376365 1.016376
1.117011 -0.039781999 1.018602
1.529094 -0.038208 1.018929
1.543234 -0.036979001 1.017032
1.552053 -0.036336001 1.015133
1.480588 -0.117488 1.021291
1.492106 -0.116096 1.021541
1.437201 -0.114755 1.022402
1.450091 -0.111527 1.023284
1.455005 -0.11465 1.020493
1.513757 -0.110706 1.023872
1.440256 -0.109472 1.021528
1.457954 -0.109299 1.022467
1.496057 -0.109953 1.021215
1.449901 -0.103215 1.022735
1.4641089 -0.100972 1.020249
1.457041 -0.092785999 1.020954
1.505039 -0.090066999 1.021049
1.512701 -0.090194002 1.0219541
1.486544 -0.083315998 1.023019
1.50385 -0.082603 1.020995
1.50291 -0.079241998 1.024269
1.455487 -0.071524002 1.023687
1.460614 -0.070763998 1.022092
1.469629 -0.074537002 1.022957
1.486643 -0.074013002 1.021673
1.4912961 -0.071304001 1.023451
1.5128706 -0.067860499 1.0223595
1.526371 -0.069026999 1.023403
1.472636 -0.055670001 1.0237809
1.008953 -0.053877 1.023133
0.92858899 -0.04648 1.024356
0.97647703 -0.048716001 1.020643
1.0373009 -0.046176001 1.022185
1.080292 -0.049973 1.0215091
1.4897341 -0.049718 1.020034
1.532048 -0.049493998 1.021207
0.92974102 -0.043745998 1.023072
0.95920497 -0.042854 1.024241
0.96817398 -0.041393001 1.021215
0.980721 -0.041308999 1.0204051
0.98689002 -0.041847002 1.021077
0.99068302 -0.044254001 1.0223579
1.0021 -0.044445999 1.021871
1.0225821 -0.040638 1.0222294
1.083125 -0.041023001 1.023101
1.51441 -0.043618001 1.022877
1.469923 -0.114559 1.026844
1.4743609 -0.100749 1.029842
1.490953 -0.103471 1.0256439
1.500952 -0.104607 1.029722
1.441516 -0.096391998 1.0254411
1.44989 -0.099017002 1.025869
1.491985 -0.092803001 1.026258
1.502841 -0.093707003 1.0264
1.505854 -0.093711004 1.02731
1.443868 -0.087033004 1.029817
1.502346 -0.082244001 1.027384
1.46647 -0.076777004 1.0298311
1.498413 -0.073367998 1.02973
1.46981 -0.065181002 1.025223
1.4805731 -0.067074999 1.029659
1.497185 -0.066076003 1.029969
1.508616 -0.066951998 1.025184
1.514222 -0.068062 1.027522
1.450752 -0.056318 1.028137
1.464481 -0.058800001 1.028368
1.480522 -0.057595 1.028859
1.501189 -0.059234999 1.028299
1.515529 -0.055392999 1.02812
0.96713001 -0.053527001 1.028387
1.0333115 -0.0522075 1.0280371
1.454952 -0.054926999 1.028211
1.494831 -0.053114001 1.025349
1.5092191 -0.050251 1.026361
0.94429499 -0.046282001 1.02955
0.99675101 -0.048920002 1.026785
1.031558 -0.04504 1.026206
1.0361315 -0.047115996 1.0277425
1.5015759 -0.046831001 1.0283411
0.966663 -0.043274999 1.026668
1.035599 -0.044411998 1.027923
1.043884 -0.044117 1.0282919
1.053483 -0.044791002 1.025442
1.113603 -0.042985 1.027599
1.177524 -0.043265 1.028124
1.426631 -0.120914 1.0326051
1.434193 -0.120513 1.034801
1.438879 -0.120277 1.032825
1.456417 -0.123877 1.030144
1.473748 -0.124153 1.030499
1.4809361 -0.124446 1.034627
1.4300931 -0.115912 1.0327179
1.425729 -0.113933 1.03423
1.477327 -0.110959 1.033142
1.425228 -0.107655 1.034054
1.462881 -0.105371 1.034739
1.488672 -0.109023 1.031454
1.4839106 -0.102868 1.031767
1.489103 -0.09702 1.031877
1.506632 -0.095879003 1.034079
1.449995 -0.093209997 1.030499
1.46147 -0.093782 1.033662
1.470305 -0.090948001 1.033201
1.484025 -0.087502003 1.034765
1.489082 -0.085427001 1.030755
1.4447761 -0.083384 1.031244
1.477178 -0.081975996 1.031013
1.445259 -0.078005001 1.034948
1.485285 -0.076146998 1.034611
1.505264 -0.076683 1.03247
1.461935 -0.061905 1.034109
1.512785 -0.061315 1.033414
0.999879 -0.059163 1.031891
1.070974 -0.055401001 1.030503
0.96378702 -0.05105 1.030674
1.5057349 -0.0527105 1.0340265
1.512805 -0.052134 1.031213
0.938362 -0.048402503 1.031373
0.94809902 -0.046108998 1.030178
0.95301402 -0.048072003 1.0317326
0.97991699 -0.048623502 1.032233
0.98146498 -0.045685001 1.0312819
0.99922299 -0.048576001 1.0323271
1.000746 -0.049102001 1.030742
1.032451 -0.048794001 1.0348541
1.046544 -0.047667 1.033847
1.063733 -0.048896998 1.030275
1.105534 -0.047979001 1.030407
1.4636641 -0.048813 1.032854
1.518991 -0.048966002 1.034598
1.524213 -0.047207002 1.030143
1.538282 -0.049802002 1.032734
1.470103 -0.126269 1.038389
1.4757479 -0.128471 1.038084
1.4426939 -0.120108 1.037622
1.4598 -0.110406 1.0365959
1.449818 -0.10747 1.038372
1.433255 -0.104548 1.038903
1.461831 -0.098083004 1.0357826
1.468134 -0.084009998 1.0383919
1.496225 -0.081441998 1.03724
1.452297 -0.078974999 1.035646
1.4987561 -0.079061002 1.037523
1.437835 -0.07085 1.0369
1.439661 -0.067752004 1.03662
1.4711159 -0.065272003 1.039055
1.511972 -0.065881997 1.036695
1.440523 -0.062798999 1.039398
0.97173202 -0.055702001 1.038883
0.98071402 -0.055271 1.037958
1.044533 -0.056683999 1.037357
0.95849401 -0.050765999 1.0387371
0.968413 -0.054170001 1.036321
0.97296 -0.052873999 1.039322
0.98988903 -0.050652999 1.035899
1.0156291 -0.050967 1.036119
1.044408 -0.050673001 1.0356899
1.057489 -0.050923001 1.03977
1.170176 -0.050190002 1.0398411
1.4191591 -0.053746 1.037513
1.4746031 -0.050834 1.036299
0.97106999 -0.049578 1.037536
0.99208099 -0.049646001 1.038034
1.102285 -0.049520999 1.035217
1.167841 -0.048905998 1.03747
1.490519 -0.049548998 1.0389431
1.526543 -0.049107 1.037564
1.449687 -0.126874 1.0425839
1.419929 -0.122352 1.043907
1.472675 -0.115748 1.04205
1.451501 -0.113138 1.0446219
1.466468 -0.110926 1.0407929
1.435771 -0.105179 1.041484
1.480037 -0.109982 1.043111
1.492507 -0.106216 1.044129
1.4281369 -0.104381 1.042322
1.436807 -0.104095 1.0441689
1.472767 -0.100771 1.044507
1.4197381 -0.097865 1.041263
1.439767 -0.099691004 1.041759
1.483116 -0.097873002 1.042487
1.435542 -0.090752997 1.043889
1.4760031 -0.090383999 1.0425
1.493832 -0.091762997 1.040383
1.427631 -0.088818997 1.04498
1.456355 -0.088923998 1.04329
1.4557689 -0.083012 1.0401599
1.4981384 -0.081705004 1.0426215
1.455541 -0.077656001 1.040255
1.484465 -0.075112998 1.0422601
1.499172 -0.079503998 1.041208
1.464159 -0.074579999 1.040832
1.477098 -0.071533002 1.0438859
1.451234 -0.068139002 1.044438
1.000299 -0.063326001 1.044693
1.135996 -0.061611999 1.044777
1.4466341 -0.063138001 1.041765
1.4978271 -0.063171998 1.042985
0.95727301 -0.055011999 1.044017
0.966443 -0.057330001 1.040113
0.979074 -0.057902999 1.043326
1.0318356 -0.056830503 1.040822
1.037303 -0.055202 1.042495
1.071771 -0.059657998 1.043635
1.0904551 -0.057386 1.044634
1.149663 -0.056490999 1.0438679
0.97037101 -0.050755002 1.040122
0.991404 -0.052430999 1.041667
0.99834752 -0.052573502 1.0413876
1.002696 -0.053606 1.044786
1.034209 -0.054710001 1.041411
1.04302 -0.053296998 1.042402
1.102384 -0.054221999 1.042438
1.105507 -0.051959001 1.042751
1.22711 -0.051679 1.041389
1.482318 -0.054017 1.042024
1.512081 -0.053550001 1.040204
1.430618 -0.128433 1.0462869
1.461217 -0.125856 1.046719
1.419289 -0.12286 1.049141
1.469738 -0.124155 1.04633
1.441152 -0.117668 1.049836
1.41158 -0.112381 1.047034
1.416056 -0.114975 1.046615
1.468508 -0.113426 1.047599
1.47996 -0.109183 1.047632
1.431263 -0.090397999 1.045736
1.472837 -0.091480002 1.047483
1.42208 -0.088248998 1.049843
1.462592 -0.088490002 1.049076
1.4350311 -0.084486 1.046209
1.426755 -0.075617 1.049988
1.430428 -0.075120002 1.049264
1.476428 -0.078947999 1.0459239
0.99666899 -0.066621996 1.049034
1.489609 -0.069176003 1.048079
0.99481499 -0.060146999 1.049794
1.036568 -0.063041002 1.048264
1.095068 -0.064641997 1.049333
1.120808 -0.062125001 1.048705
1.449613 -0.061528999 1.0468481
1.481864 -0.064318001 1.049111
1.510587 -0.060231999 1.047189
0.96856099 -0.058274999 1.048968
0.97139901 -0.056816 1.046159
0.97702599 -0.055806 1.049052
1.007773 -0.055213999 1.047878
1.011632 -0.059548002 1.047863
1.0227225 -0.059233502 1.0484531
1.0272779 -0.059489001 1.049799
1.0536965 -0.056801498 1.0477785
1.095578 -0.055022001 1.045495
1.121582 -0.058104001 1.0495909
1.148551 -0.056005001 1.0498869
1.458014 -0.058212001 1.048463
1.498533 -0.056635 1.045451
0.98299754 -0.054116499 1.0463409
1.068434 -0.054177999 1.045694
1.072244 -0.053913999 1.046526
1.1050971 -0.052785002 1.04509
1.1581579 -0.054547001 1.046816
1.448204 -0.052881502 1.0481639
1.506307 -0.054513998 1.047943
1.4429049 -0.13023099 1.050054
1.428625 -0.129777 1.050185
1.4352961 -0.12869 1.0519609
1.436727 -0.121958 1.050023
1.452316 -0.121134 1.050082
1.404703 -0.115556 1.054415
1.454685 -0.115511 1.050951
1.424994 -0.112703 1.0523649
1.443171 -0.110718 1.051357
1.429539 -0.106172 1.05302
1.459187 -0.0977 1.051088
1.465799 -0.099899001 1.051102
1.473509 -0.097879998 1.053805
1.485462 -0.091673002 1.054267
1.43092 -0.088081002 1.050716
1.477559 -0.086722001 1.05352
1.4820369 -0.085685 1.0539221
1.43135 -0.079841003 1.051918
1.486711 -0.078919999 1.051044
1.422006 -0.073089004 1.0510581
1.487306 -0.071732 1.051765
1.062403 -0.065116003 1.052678
1.184525 -0.065640002 1.051627
1.430295 -0.069279999 1.050658
1.469503 -0.069523998 1.053708
1.489423 -0.067088999 1.050614
1.492169 -0.066481002 1.051945
0.96576297 -0.061170001 1.051964
0.97048497 -0.060846999 1.053237
0.97866601 -0.060713999 1.054552
0.98821402 -0.062891997 1.052973
0.99176002 -0.060010001 1.051972
1.0246921 -0.063557997 1.050084
1.066301 -0.064204 1.05059
1.101516 -0.060334001 1.050081
1.105918 -0.060004 1.0541101
1.138644 -0.061525501 1.052022
1.181407 -0.062740996 1.052762
1.200945 -0.062229998 1.053261
1.422248 -0.060835 1.05424
1.469813 -0.062546 1.05483
1.479848 -0.064799003 1.0537651
1.511611 -0.062337998 1.054379
0.970236 -0.059057999 1.050218
0.98185199 -0.059583001 1.051452
0.99220002 -0.058664002 1.052848
1.013311 -0.057567 1.051538
1.018441 -0.059041999 1.05423
1.033146 -0.058580998 1.054961
1.068146 -0.059246998 1.050029
1.07938 -0.057433002 1.051617
1.095615 -0.057050001 1.050947
1.110424 -0.058352001 1.051145
1.120446 -0.058649998 1.053077
1.217206 -0.05745 1.050949
1.223493 -0.056370001 1.052042
1.425313 -0.059487998 1.0546401
1.409766 -0.128792 1.055097
1.454682 -0.12784199 1.058212
1.45792 -0.125802 1.0593719
1.406883 -0.122295 1.059175
1.443218 -0.120443 1.059847
1.455716 -0.123059 1.0568531
1.401009 -0.118539 1.057236
1.446843 -0.117054 1.055097
1.42941 -0.112676 1.058508
1.452064 -0.113254 1.0590611
1.464252 -0.113146 1.057224
1.413299 -0.106793 1.056174
1.434675 -0.101344 1.058322
1.463306 -0.102968 1.059268
1.4193701 -0.096974 1.058443
1.420628 -0.096593998 1.0560009
1.426308 -0.098122001 1.056533
1.473053 -0.096339002 1.05822
1.4802361 -0.095078997 1.057477
1.424803 -0.090967 1.05747
1.465001 -0.093815997 1.055307
1.04302 -0.071686998 1.057483
1.455943 -0.071958996 1.057366
1.4667749 -0.074777 1.0555249
0.95993102 -0.067068003 1.057574
0.973391 -0.067561001 1.058773
1.000623 -0.067544997 1.057587
1.0158629 -0.069151998 1.059804
1.028343 -0.068356 1.0575645
1.046289 -0.065659001 1.0588861
1.056512 -0.069242001 1.0587
0.96236497 -0.061267 1.059822
0.989362 -0.063564003 1.059819
1.005497 -0.063323997 1.055575
1.0119849 -0.060991999 1.0584559
1.029721 -0.061406001 1.057423
1.032057 -0.061926335 1.0567484
1.057515 -0.060617 1.059121
1.063679 -0.061617501 1.0565104
1.10123 -0.060258999 1.057857
1.115202 -0.061563998 1.058365
1.13156 -0.061613001 1.05855
1.180912 -0.060031001 1.058301
1.425316 -0.063658997 1.059001
1.107585 -0.059822999 1.058167
1.159717 -0.059326001 1.05593
1.3855931 -0.136113 1.061552
1.410952 -0.13869099 1.06226
1.4133835 -0.132569 1.0636475
1.41976 -0.12977999 1.0647089
1.433834 -0.12878101 1.063426
1.454354 -0.125411 1.064332
1.4006619 -0.122254 1.061518
1.448392 -0.122869 1.061409
1.4610879 -0.122201 1.0611399
1.41931 -0.112653 1.064281
1.4018019 -0.106765 1.064515
1.440244 -0.100647 1.063325
1.448595 -0.102134 1.060931
1.407308 -0.090724997 1.063207
1.455984 -0.091624998 1.061638
1.413745 -0.081244998 1.06452
1.4161201 -0.081813 1.060253
1.421194 -0.082488999 1.061908
1.4589241 -0.084049001 1.060155
1.469123 -0.080223002 1.060385
1.482857 -0.080899 1.062983
1.420067 -0.075762004 1.061919
1.458774 -0.077077001 1.063857
1.472002 -0.075571999 1.064553
1.478416 -0.077129997 1.064405
1.008755 -0.070993997 1.063619
1.1093661 -0.073016003 1.064415
1.4421639 -0.070170999 1.061287
0.95058203 -0.067461997 1.064537
0.96213996 -0.066831499 1.062727
0.965087 -0.065047003 1.06394
0.97316599 -0.065086998 1.061015
0.979002 -0.067478001 1.064114
1.0159529 -0.069714002 1.064418
1.02987 -0.067933001 1.0612971
1.0409991 -0.068493001 1.064278
1.074466 -0.069903001 1.062191
1.098009 -0.069989003 1.063664
1.12482 -0.067860998 1.0640171
1.128803 -0.066917501 1.0608335
1.434043 -0.069882996 1.060691
1.479591 -0.066077001 1.061705
0.96247 -0.062206 1.060511
0.96877754 -0.062428501 1.061733
0.97915101 -0.062645003 1.061843
1.002551 -0.063074999 1.06024
1.007452 -0.063602999 1.061182
1.026001 -0.062950999 1.061464
1.076968 -0.061310001 1.0604171
1.085709 -0.063470997 1.061287
1.095391 -0.062913001 1.060109
1.1033783 -0.062947996 1.0620717
1.113222 -0.064782999 1.061497
1.149295 -0.061494 1.060426
1.1722425 -0.062027 1.0630485
1.405316 -0.140637 1.067946
1.382668 -0.130723 1.067089
1.422762 -0.13106699 1.067084
1.4247921 -0.128907 1.069198
1.390439 -0.124698 1.067439
1.399175 -0.124753 1.069689
1.442369 -0.120267 1.068345
1.447857 -0.11211 1.067197
1.451478 -0.113859 1.069925
1.442212 -0.106256 1.069895
1.448486 -0.109925 1.067076
1.409992 -0.10279 1.066267
1.445089 -0.100673 1.069504
1.458765 -0.102136 1.068117
1.414575 -0.097447999 1.06873
1.4165111 -0.097512998 1.065228
1.4235229 -0.096662998 1.065055
1.396722 -0.091236003 1.069855
1.392049 -0.089157 1.065688
1.4281991 -0.085020997 1.066808
1.456351 -0.088661 1.069288
1.033702 -0.077114999 1.0664769
1.153867 -0.078172997 1.066063
1.472942 -0.079921998 1.067063
1.4774491 -0.075434998 1.065356
1.48287 -0.078959003 1.067675
0.99304801 -0.070835002 1.067389
1.007035 -0.074745998 1.069524
1.0477711 -0.073734 1.0668777
1.08119 -0.072824001 1.0651619
1.085304 -0.073127002 1.068056
0.97000098 -0.066376001 1.066269
0.98109001 -0.066550002 1.069331
1.0052969 -0.069588996 1.065364
1.0129009 -0.067484997 1.067632
1.015925 -0.067259997 1.068805
1.026861 -0.069678001 1.067137
1.034542 -0.065488003 1.0650409
1.039777 -0.066697001 1.066934
1.048448 -0.066722997 1.069793
1.074357 -0.065047003 1.066056
1.075425 -0.067868002 1.068779
1.106226 -0.066955 1.067001
1.130586 -0.066921003 1.069241
1.171517 -0.065982997 1.068643
1.191238 -0.069155999 1.069939
1.41608 -0.066855997 1.067284
1.4252959 -0.065736003 1.069373
1.4520479 -0.0682 1.069207
0.95204598 -0.064667001 1.065992
1.078944 -0.064999998 1.066722
1.375493 -0.14251301 1.0726711
1.4182709 -0.14244799 1.073076
1.4147871 -0.139394 1.074633
1.428393 -0.138816 1.073584
1.366611 -0.131742 1.072777
1.392457 -0.130354 1.0748889
1.431767 -0.13247199 1.07315
1.394896 -0.120123 1.070708
1.422012 -0.121257 1.0728461
1.406859 -0.11572 1.071085
1.412349 -0.119673 1.074598
1.385958 -0.110007 1.071665
1.413331 -0.113578 1.073132
1.426477 -0.114865 1.074174
1.4451801 -0.110808 1.073275
1.411109 -0.10513 1.071905
1.454144 -0.107868 1.0711319
1.409839 -0.082243003 1.07318
1.410455 -0.081381001 1.072749
1.417636 -0.080649003 1.071602
1.433645 -0.084239997 1.071553
1.459198 -0.082846001 1.0709291
1.4624341 -0.084280998 1.071995
1.020638 -0.075753003 1.0700769
1.0368335 -0.078760996 1.0747826
1.060477 -0.075948998 1.071911
1.0769435 -0.076817006 1.0725789
1.091965 -0.076690003 1.071578
1.098143 -0.077337995 1.0728605
1.4494179 -0.075346999 1.070477
0.96447998 -0.070591003 1.070577
0.971264 -0.071834996 1.073288
0.98802602 -0.071138002 1.071394
0.99720401 -0.072350003 1.07171
1.001048 -0.071796998 1.0706609
1.006495 -0.072871998 1.072265
1.0359244 -0.072505504 1.073211
1.050445 -0.070524998 1.073285
1.0851589 -0.073264003 1.074876
1.10413 -0.071803004 1.071668
1.117739 -0.071802497 1.0721641
1.149904 -0.070752002 1.070083
1.213999 -0.070637003 1.07455
1.400977 -0.073228002 1.07477
1.418831 -0.07265 1.074019
0.93803 -0.066946 1.070444
0.95559698 -0.069931 1.071803
0.97806001 -0.069701999 1.074043
0.998276 -0.067892 1.0707231
1.011898 -0.0672905 1.070183
1.035207 -0.068403997 1.0702929
1.045157 -0.069449 1.071793
1.0616125 -0.067959502 1.0709115
1.092168 -0.069920003 1.071244
1.100227 -0.067087002 1.070158
1.108048 -0.066955999 1.07048
1.127746 -0.068396501 1.071396
1.184358 -0.069213003 1.072773
1.197396 -0.068990998 1.070069
1.245245 -0.066349998 1.070357
1.278736 -0.067459002 1.070249
1.4762861 -0.068715997 1.0737489
1.37509 -0.145987 1.079849
1.421248 -0.14556099 1.076605
1.389063 -0.142232 1.075166
1.398703 -0.141712 1.079365
1.4096709 -0.142646 1.07935
1.373556 -0.137995 1.079567
1.398908 -0.13961899 1.075662
1.430536 -0.137738 1.077668
1.436491 -0.13787401 1.079824
1.425904 -0.13499799 1.075843
1.370816 -0.127498 1.077065
1.3946871 -0.12525 1.079492
1.427647 -0.12957899 1.075756
1.415678 -0.123007 1.0770659
1.431334 -0.116974 1.075843
1.39263 -0.114085 1.077076
1.418242 -0.112622 1.077364
1.433919 -0.113381 1.0769759
1.4161251 -0.105244 1.079393
1.404346 -0.103929 1.079991
1.424505 -0.100858 1.078164
1.4358521 -0.104111 1.077118
1.381478 -0.095316 1.075891
1.400869 -0.099652 1.078118
1.441033 -0.096377999 1.076182
1.453279 -0.091127001 1.079011
1.385484 -0.089905001 1.079551
1.405484 -0.089400001 1.0779819
1.438114 -0.088091999 1.079947
1.024385 -0.082543999 1.07547
1.14413 -0.083846003 1.075462
1.008854 -0.076723002 1.075987
1.014178 -0.076287001 1.0768059
1.04194 -0.079079002 1.075184
1.071316 -0.075497001 1.076736
1.098151 -0.079320997 1.075261
1.127201 -0.076007999 1.0787081
0.94898999 -0.070891999 1.0760649
0.97662854 -0.074345499 1.076357
0.98664045 -0.071515501 1.076906
0.99245405 -0.073052004 1.0784299
1.004844 -0.073587999 1.077674
1.00818 -0.072663002 1.078975
1.021451 -0.072117001 1.075621
1.0556079 -0.07306733 1.0766964
1.061114 -0.074353002 1.0796371
1.071128 -0.073801003 1.0794621
1.1227405 -0.070752002 1.0767944
1.126925 -0.072994001 1.0763969
1.133703 -0.07141 1.078099
1.1371245 -0.072704002 1.0793605
1.159381 -0.072655998 1.078517
1.162123 -0.071935996 1.078986
1.406846 -0.074225001 1.079928
1.449396 -0.074353002 1.079308
1.1804529 -0.068752997 1.075619
1.451723 -0.069417998 1.0771739
1.391735 -0.14618599 1.08276
1.397994 -0.14909799 1.082592
1.410526 -0.14891499 1.083382
1.4030859 -0.14058299 1.083093
1.3761621 -0.135699 1.0815099
1.370894 -0.131703 1.083656
1.39776 -0.131311 1.082999
1.422501 -0.13244601 1.083661
1.3831151 -0.126278 1.082149
1.421262 -0.125862 1.083667
1.4263819 -0.121667 1.083841
1.4302 -0.124137 1.083056
1.375388 -0.116165 1.0818681
1.41977 -0.11851 1.084265
1.390465 -0.110882 1.083322
1.410943 -0.106776 1.0806119
1.4450361 -0.101917 1.080479
1.387549 -0.098555997 1.0824161
1.406902 -0.097374998 1.081556
1.420505 -0.098407999 1.082098
1.437993 -0.095872998 1.082721
1.447201 -0.093534999 1.0811239
1.078191 -0.085952997 1.080068
1.455641 -0.086882003 1.080772
1.005538 -0.082043998 1.0832289
1.014439 -0.081302002 1.083305
1.024475 -0.080674 1.084161
1.027146 -0.084354997 1.08303
1.052488 -0.083665997 1.082588
1.086205 -0.080283999 1.081939
1.165009 -0.081229001 1.083497
0.966308 -0.076523006 1.0841169
0.99638546 -0.075780503 1.08324
1.001375 -0.076105997 1.08383
1.008304 -0.079264998 1.083474
1.035297 -0.076742999 1.081766
1.040692 -0.075401001 1.083163
1.0547 -0.077244997 1.084936
1.058907 -0.079209 1.08448
1.065912 -0.075786002 1.080546
1.08304 -0.075704001 1.0812939
1.102685 -0.079113998 1.084374
1.116424 -0.077483997 1.084047
1.1277194 -0.07635767 1.0838283
1.1309609 -0.075360999 1.080138
1.141243 -0.07903 1.084831
1.1758569 -0.075997002 1.0844131
1.186113 -0.077682003 1.084098
1.223965 -0.075269997 1.082579
1.445417 -0.07519 1.080399
0.97714698 -0.073460504 1.0821824
1.0334716 -0.073624499 1.082485
1.043612 -0.074767999 1.083153
1.092869 -0.074352004 1.082149
1.114866 -0.073654003 1.0831029
1.1565239 -0.074984998 1.0805449
1.266927 -0.072548002 1.082114
1.39986 -0.073670998 1.08406
1.4007776 -0.152583 1.088575
1.379275 -0.148113 1.088666
1.38501 -0.149198 1.087662
1.369298 -0.137015 1.087845
1.384252 -0.13845401 1.0882601
1.360716 -0.133898 1.088185
1.397507 -0.13402 1.087286
1.392321 -0.12562799 1.087727
1.403743 -0.12630901 1.087216
1.429933 -0.12944899 1.085634
1.3834569 -0.121405 1.089637
1.423691 -0.123608 1.087518
1.4293571 -0.123048 1.089201
1.391914 -0.115409 1.089501
1.420766 -0.117167 1.086058
1.380026 -0.111454 1.086319
1.402848 -0.113285 1.085367
1.407923 -0.109787 1.085626
1.426249 -0.105114 1.086314
1.44073 -0.100074 1.08522
1.411692 -0.096336 1.085531
1.426999 -0.098981999 1.086889
1.033047 -0.090416998 1.088194
1.404886 -0.090644002 1.088133
1.02493 -0.086948 1.088847
1.033628 -0.089663997 1.0890189
1.076462 -0.087936997 1.08986
1.410239 -0.089230001 1.08594
0.994317 -0.080169 1.085497
1.0038151 -0.084801003 1.089658
1.023679 -0.080861002 1.085124
1.035574 -0.081999004 1.087496
1.043952 -0.080715999 1.0898089
1.057609 -0.081779003 1.087221
1.063431 -0.082658 1.0880769
1.069932 -0.084876999 1.087924
1.07945 -0.081178002 1.0880949
1.08161 -0.083075002 1.08612
1.099401 -0.082358003 1.08551
1.106433 -0.080317996 1.087692
1.136804 -0.081519999 1.0893511
1.394879 -0.083585002 1.08515
1.434026 -0.083655 1.087522
1.4482009 -0.082543001 1.0887495
0.97938395 -0.078692004 1.0885355
0.99097699 -0.078489996 1.085657
0.995157 -0.078574002 1.0857
1.004307 -0.077218004 1.085422
1.007401 -0.079566002 1.089612
1.018085 -0.077434003 1.087227
1.042098 -0.076967999 1.08512
1.0812449 -0.078675002 1.087891
1.13346 -0.078137003 1.0897779
1.141845 -0.079267003 1.086619
1.157982 -0.075452998 1.086991
1.1730075 -0.078465998 1.0874316
1.184927 -0.078909002 1.089853
1.207131 -0.078603998 1.087862
1.224401 -0.075672001 1.085073
1.390342 -0.079424001 1.085035
1.4532551 -0.077457003 1.086332
1.0645339 -0.074932002 1.085109
1.377328 -0.15224299 1.0938985
1.387255 -0.1538 1.092265
1.400856 -0.152835 1.093733
1.403946 -0.14545199 1.092003
1.345598 -0.143984 1.093058
1.373913 -0.141219 1.09303
1.359762 -0.136683 1.09307
1.403766 -0.13500801 1.093122
1.406901 -0.13277 1.091831
1.40251 -0.128859 1.0926239
1.364817 -0.122324 1.0920711
1.378666 -0.122831 1.0942971
1.396584 -0.124417 1.0912
1.3794 -0.116577 1.09249
1.387633 -0.117934 1.09243
1.416033 -0.11641 1.092369
1.36742 -0.112124 1.093961
1.414131 -0.112907 1.093749
1.420998 -0.110861 1.094533
1.4387439 -0.113121 1.094781
1.378376 -0.105876 1.094977
1.39443 -0.10858 1.093029
1.423425 -0.108521 1.091975
1.384214 -0.100401 1.091049
1.413636 -0.102021 1.092687
1.3981581 -0.096550003 1.0918159
1.079 -0.090479001 1.0937459
1.429783 -0.090429999 1.093327
1.014629 -0.087007001 1.092823
1.04628 -0.085022002 1.0936019
1.061908 -0.086802997 1.092386
1.068171 -0.085718997 1.093938
1.074046 -0.086465999 1.0943969
1.089349 -0.087531 1.093838
1.1205699 -0.086047001 1.090597
1.154735 -0.086516 1.0920089
1.156418 -0.087390997 1.09405
1.166133 -0.088150002 1.094959
1.171975 -0.089065 1.094975
1.438594 -0.089974999 1.091033
0.964306 -0.080812998 1.094999
0.98399103 -0.081102997 1.0918421
0.9855845 -0.0818725 1.0922761
0.99045098 -0.082668997 1.094022
1.004797 -0.083286002 1.091169
1.014022 -0.081635997 1.0915385
1.0431859 -0.082474999 1.093067
1.061381 -0.080099002 1.091206
1.085511 -0.081615999 1.094139
1.1059231 -0.081974 1.0916981
1.126771 -0.080399998 1.093524
1.1472135 -0.083084002 1.09278
1.15273 -0.083172001 1.0931
1.169807 -0.082935996 1.092106
1.214347 -0.081363998 1.093168
1.234306 -0.084475003 1.09488
1.397612 -0.081593998 1.092573
1.4051419 -0.080050997 1.093698
1.414533 -0.081950001 1.090021
1.117329 -0.079356 1.0920711
1.138955 -0.078543998 1.091493
1.256303 -0.078015998 1.090917
1.419462 -0.078331001 1.092103
1.440257 -0.079201996 1.091115
1.4494849 -0.077519 1.092786
1.334218 -0.152298 1.09869
1.34067 -0.15348899 1.099696
1.3691109 -0.154553 1.099856
1.381624 -0.152096 1.0967751
1.384389 -0.146936 1.097002
1.420884 -0.14982501 1.095589
1.350616 -0.14029799 1.099304
1.3706729 -0.144831 1.096676
1.379365 -0.144255 1.096858
1.3947901 -0.14136399 1.099808
1.395452 -0.1420885 1.098533
1.372556 -0.13664 1.097828
1.394367 -0.138698 1.097448
1.378967 -0.132953 1.09596
1.368107 -0.12542699 1.0994869
1.369863 -0.117894 1.097509
1.405988 -0.119739 1.096559
1.390082 -0.108252 1.0993069
1.397814 -0.109972 1.095081
1.416845 -0.109479 1.097367
1.422223 -0.108222 1.098578
1.375178 -0.102209 1.096319
1.429726 -0.100213 1.095247
1.022719 -0.095932998 1.097084
1.059145 -0.097050004 1.098451
1.3877256 -0.097355999 1.0958514
1.008 -0.090714999 1.098893
1.041705 -0.091765001 1.0956089
1.066072 -0.092381001 1.0974309
1.134003 -0.092717998 1.09583
1.212532 -0.090865001 1.098788
1.419392 -0.091008998 1.096191
0.966748 -0.089428 1.097303
0.99413198 -0.085423999 1.099084
1.00095 -0.085467003 1.099192
1.018411 -0.086461999 1.096948
1.026808 -0.088495001 1.095632
1.03429 -0.085459001 1.098748
1.0472175 -0.088605501 1.0984659
1.079224 -0.089950003 1.09773
1.080271 -0.085562997 1.096042
1.097082 -0.088708997 1.097711
1.1068835 -0.087893501 1.0971395
1.1541539 -0.086962998 1.099442
1.15908 -0.087522998 1.099921
1.379706 -0.085620001 1.0953
1.433918 -0.087405004 1.095665
0.99725097 -0.082767002 1.099084
1.009573 -0.083835997 1.097572
1.017805 -0.083448999 1.09623
1.027209 -0.082387 1.097466
1.038776 -0.082813002 1.096514
1.047446 -0.082934007 1.0967015
1.066901 -0.083302997 1.0973384
1.091363 -0.083549 1.09632
1.126551 -0.084129997 1.099262
1.1476949 -0.084760003 1.095245
1.15762 -0.084909998 1.097185
1.169984 -0.082649998 1.099548
1.203568 -0.084620997 1.099188
1.3932226 -0.081458002 1.096781
1.420079 -0.084582999 1.096802
1.365711 -0.156703 1.103166
1.3350919 -0.150105 1.103199
1.336699 -0.146946 1.1038311
1.376047 -0.14655399 1.101631
1.394347 -0.148862 1.102137
1.371545 -0.137512 1.1020989
1.37517 -0.13605 1.104822
1.394107 -0.13890401 1.103444
1.399497 -0.13560501 1.1033241
1.4138 -0.135105 1.104898
1.397156 -0.133205 1.102169
1.34594 -0.125283 1.103698
1.354247 -0.128482 1.102273
1.364702 -0.12892801 1.10409
1.374284 -0.12872601 1.102198
1.353856 -0.12084 1.100004
1.397006 -0.121102 1.102861
1.400226 -0.120356 1.102065
1.372923 -0.116707 1.1042579
1.413393 -0.111294 1.102628
1.373579 -0.106597 1.1013139
1.388962 -0.105711 1.104907
1.409565 -0.100374 1.101076
1.034436 -0.095104001 1.102463
1.123785 -0.097976997 1.104295
1.399318 -0.099908002 1.1035171
1.4069999 -0.099953003 1.103832
1.007895 -0.092456996 1.104056
1.017258 -0.091915332 1.1033274
1.025471 -0.091402002 1.102365
1.0496171 -0.092198998 1.100999
1.0792969 -0.092703998 1.102167
1.0839155 -0.091700494 1.1023045
1.1005369 -0.091674 1.100239
1.138347 -0.092834003 1.102826
1.1465831 -0.091920003 1.1030126
1.228277 -0.090024002 1.104172
1.373296 -0.090346001 1.100317
1.379558 -0.093461998 1.10445
1.3884391 -0.092511997 1.100062
1.391886 -0.093635 1.102947
1.416651 -0.092905 1.100895
0.98830903 -0.085935503 1.1047
1.00123 -0.087649003 1.100969
1.0122895 -0.086883999 1.1045445
1.0264893 -0.087932326 1.1016706
1.033917 -0.087840997 1.101204
1.035684 -0.088477001 1.104104
1.054893 -0.087624997 1.1037821
1.064653 -0.089537002 1.104593
1.073741 -0.089093 1.101315
1.0781984 -0.088281997 1.1014349
1.085125 -0.088376001 1.101715
1.10148 -0.088422999 1.10475
1.127571 -0.089325003 1.102788
1.204728 -0.087458998 1.103757
1.370957 -0.087840997 1.100149
1.4075021 -0.085533001 1.10111
0.97817802 -0.084821999 1.103627
1.051312 -0.084395997 1.1009851
1.155799 -0.084645003 1.10039
1.347978 -0.155562 1.108214
1.383198 -0.148128 1.107391
1.391984 -0.14685 1.108955
1.35744 -0.144747 1.1098191
1.36149 -0.142335 1.1069961
1.371999 -0.14390001 1.107833
1.350283 -0.13711099 1.1098289
1.370461 -0.130931 1.107668
1.378016 -0.131135 1.105582
1.389939 -0.129862 1.109485
1.4041409 -0.12955201 1.107355
1.381076 -0.121456 1.106781
1.387691 -0.123309 1.106238
1.369203 -0.113196 1.107538
1.3623019 -0.109634 1.105943
1.401589 -0.109912 1.1075211
1.417217 -0.105875 1.106467
1.0496221 -0.102598 1.107643
1.347949 -0.104998 1.106938
1.379154 -0.101686 1.106962
1.4156131 -0.100056 1.105225
1.020137 -0.098870002 1.108506
1.065001 -0.096138999 1.1098
1.077888 -0.099165 1.108731
1.08046 -0.097900003 1.109175
1.0937999 -0.096288003 1.109645
1.098852 -0.097171001 1.109529
1.161042 -0.096619003 1.109025
0.99055302 -0.091165997 1.107354
1.028263 -0.091209002 1.1051559
1.03394 -0.090857998 1.109874
1.0392959 -0.091774002 1.1074464
1.122563 -0.090866998 1.105396
1.129468 -0.092910998 1.109934
1.1465141 -0.091952004 1.107919
1.157777 -0.092073001 1.108309
1.171234 -0.09121 1.108349
1.369071 -0.091816001 1.105566
1.383581 -0.092087001 1.1074131
1.4150881 -0.093396001 1.107955
1.4276789 -0.091540001 1.107115
1.0006469 -0.089492001 1.107399
1.029 -0.086795002 1.107455
1.043708 -0.088298 1.106158
1.051662 -0.089396 1.1089031
1.0553319 -0.089969002 1.109621
1.078153 -0.088880002 1.10613
1.103786 -0.089665003 1.105045
1.112336 -0.087660998 1.105864
1.146577 -0.089339003 1.108744
1.154542 -0.088395 1.109342
1.16796 -0.089891002 1.1058
1.172354 -0.086341001 1.106787
1.184196 -0.087612003 1.105335
1.192903 -0.088283002 1.10796
1.2144229 -0.089245997 1.10694
1.221105 -0.087333001 1.10876
1.248884 -0.086916 1.105387
1.422798 -0.087718002 1.105619
1.331617 -0.160714 1.112093
1.360505 -0.16343901 1.110262
1.324586 -0.15622599 1.11334
1.352196 -0.15581299 1.110388
1.365353 -0.158659 1.111774
1.381374 -0.157498 1.110266
1.377473 -0.15027399 1.112746
1.391764 -0.15030099 1.111053
1.337893 -0.14868701 1.110998
1.340516 -0.146698 1.110424
1.3322655 -0.132809 1.112761
1.33584 -0.13168301 1.114818
1.343676 -0.13463999 1.112476
1.3608119 -0.13389 1.113627
1.371738 -0.132348 1.110381
1.402712 -0.13298801 1.111218
1.357268 -0.127967 1.110826
1.3669626 -0.120775 1.111634
1.387358 -0.124973 1.113156
1.390366 -0.120958 1.112335
1.406718 -0.120386 1.114208
1.3716429 -0.115333 1.114162
1.393569 -0.119268 1.111189
1.353047 -0.113599 1.114655
1.3629431 -0.112793 1.1115789
1.37683 -0.107002 1.110633
1.390247 -0.107195 1.112601
1.0254101 -0.100823 1.1124001
1.04529 -0.101268 1.112571
1.1135679 -0.103235 1.112761
1.1474545 -0.10258549 1.1123376
1.366879 -0.100461 1.1125571
1.409308 -0.1037 1.111491
0.99726301 -0.09601 1.110752
1.0039901 -0.096822999 1.112587
1.032812 -0.096932001 1.112011
1.038116 -0.095954999 1.1133651
1.0686386 -0.0974425 1.1125145
1.1014961 -0.097487666 1.1123117
1.105891 -0.097893 1.113358
1.1271794 -0.098130666 1.1109183
1.136721 -0.098866001 1.113061
1.148259 -0.095136002 1.113091
1.21814 -0.095928997 1.113957
1.364123 -0.097666003 1.112878
1.406523 -0.096997 1.11247
0.97987598 -0.094682999 1.113739
0.99066198 -0.092133999 1.112342
1.014068 -0.094160005 1.113651
1.0223401 -0.092866004 1.111849
1.055865 -0.09437 1.110319
1.0691741 -0.090810001 1.113745
1.076877 -0.094958 1.11301
1.1245331 -0.092734002 1.114273
1.178301 -0.094873004 1.114415
1.19511 -0.093553998 1.114347
1.225278 -0.093870997 1.114693
1.23713 -0.090836003 1.114009
1.372583 -0.092547998 1.114486
0.98936999 -0.088919997 1.111508
1.082073 -0.089001 1.1111211
1.193238 -0.088990003 1.110725
1.383338 -0.089982003 1.110984
1.374166 -0.16352899 1.116948
1.330394 -0.155687 1.118431
1.343022 -0.159407 1.1169339
1.3533829 -0.159971 1.116096
1.359099 -0.15292899 1.118795
1.363166 -0.152603 1.118786
1.382226 -0.15047701 1.118912
1.3525995 -0.14836401 1.1172585
1.3771549 -0.14681099 1.116064
1.346648 -0.140296 1.116384
1.359213 -0.13806 1.1192549
1.37661 -0.135877 1.117491
1.385271 -0.13304099 1.118627
1.351441 -0.12862 1.1180561
1.382498 -0.126691 1.117803
1.3452359 -0.121683 1.115134
1.386983 -0.12428 1.119748
1.3249691 -0.115482 1.1176029
1.3826865 -0.1175295 1.1198415
1.376091 -0.111115 1.115171
1.3807009 -0.113867 1.118369
1.067382 -0.105581 1.1199861
1.082184 -0.106051 1.117607
1.08707 -0.107797 1.116275
1.128897 -0.109711 1.116268
1.358876 -0.105582 1.118699
1.368926 -0.108167 1.118223
1.3810149 -0.10792 1.115027
1.03767 -0.1016345 1.1160004
1.087129 -0.104209 1.1184829
1.117009 -0.101959 1.118371
1.152367 -0.101535 1.117308
1.236544 -0.100985 1.117161
1.38764 -0.102931 1.119055
1.39719 -0.100084 1.118484
1.016475 -0.097778 1.116515
1.025725 -0.096982002 1.116377
1.040459 -0.099349998 1.1178271
1.056603 -0.095982999 1.116559
1.064481 -0.098401003 1.119357
1.070794 -0.096143998 1.118121
1.085353 -0.098357998 1.119377
1.104431 -0.09945 1.115399
1.112707 -0.097897999 1.117357
1.133901 -0.097319998 1.117413
1.148708 -0.098332003 1.117885
1.358436 -0.098012 1.115831
0.98919803 -0.094761997 1.1151839
0.99792498 -0.093863502 1.1184804
1.00211 -0.094249003 1.117479
1.0085139 -0.092509001 1.117815
1.029774 -0.091265999 1.115707
1.0479305 -0.093272001 1.1162086
1.22443 -0.094419003 1.117324
1.372877 -0.092125997 1.116742
1.4108599 -0.094089001 1.116883
1.214784 -0.089767002 1.115055
1.322564 -0.16793901 1.12449
1.303699 -0.16058899 1.124038
1.314079 -0.162347 1.123481
1.320331 -0.161404 1.121907
1.344046 -0.16385899 1.123669
1.36192 -0.1625215 1.123701
1.336257 -0.15636601 1.12348
1.326893 -0.154348 1.120111
1.330416 -0.153097 1.121543
1.376278 -0.15253299 1.12336
1.377076 -0.14789701 1.120976
1.322696 -0.140065 1.123919
1.333105 -0.140799 1.122679
1.337256 -0.143723 1.123346
1.341171 -0.144383 1.122308
1.359027 -0.14297201 1.1202919
1.3731 -0.14401799 1.122709
1.344813 -0.13337 1.124506
1.371269 -0.130593 1.123873
1.388863 -0.13229699 1.122865
1.396436 -0.121353 1.1215
1.343405 -0.1174795 1.1240671
1.352308 -0.118989 1.1218441
1.3550071 -0.118097 1.120084
1.380608 -0.111042 1.122867
1.0502729 -0.107215 1.121473
1.101478 -0.105742 1.1225441
1.107991 -0.106031 1.121585
1.1175644 -0.105499 1.121127
1.155951 -0.105089 1.12309
1.181017 -0.107083 1.124898
1.340189 -0.106256 1.1204391
1.399634 -0.105667 1.123517
1.017542 -0.101836 1.120051
1.038336 -0.104838 1.122898
1.041903 -0.101895 1.121605
1.048943 -0.103194 1.12323
1.050333 -0.100439 1.122684
1.062364 -0.100979 1.122574
1.068868 -0.1018725 1.1239409
1.092711 -0.103699 1.121267
1.095992 -0.10074 1.123901
1.111441 -0.102427 1.122967
1.1195461 -0.100623 1.123934
1.126873 -0.104603 1.122566
1.1657929 -0.103383 1.12291
1.201827 -0.10159 1.122188
1.3622611 -0.103956 1.120916
1.398914 -0.104281 1.121582
0.99493402 -0.098958999 1.122358
0.99814397 -0.099645004 1.124625
1.0098751 -0.096570998 1.124549
1.0113291 -0.098281004 1.1235271
1.024554 -0.098387003 1.120811
1.029104 -0.098903 1.123235
1.058286 -0.097685501 1.1222374
1.070327 -0.097076997 1.121448
1.122838 -0.097879 1.1218179
1.1383621 -0.095320001 1.124378
1.1489301 -0.096680999 1.1227109
1.18882 -0.099590495 1.123336
1.199891 -0.095147997 1.1208971
1.361451 -0.098277003 1.123708
1.370077 -0.095099002 1.1226389
1.375077 -0.098136999 1.124446
1.3836859 -0.096689999 1.124684
1.061101 -0.093630999 1.120252
1.157344 -0.094549 1.121011
1.177232 -0.093976997 1.1211309
1.34663 -0.17020801 1.1263371
1.307763 -0.16574199 1.12896
1.319826 -0.168993 1.126585
1.361938 -0.16815799 1.1253591
1.359694 -0.163094 1.1270061
1.360765 -0.16169301 1.127821
1.3094389 -0.15839601 1.127815
1.317549 -0.152612 1.129761
1.299527 -0.14639001 1.127823
1.309626 -0.147745 1.127681
1.338498 -0.148341 1.129665
1.346489 -0.14744601 1.125845
1.382352 -0.147934 1.126002
1.352442 -0.140922 1.128762
1.3245291 -0.139954 1.125317
1.356233 -0.13819601 1.127898
1.34769 -0.131579 1.1262389
1.392611 -0.13319799 1.128605
1.3185 -0.125782 1.127726
1.328625 -0.12610801 1.126905
1.336123 -0.12895501 1.1276129
1.353242 -0.122158 1.12667
1.35667 -0.123409 1.127075
1.370023 -0.123626 1.127591
1.119503 -0.115663 1.126611
1.395457 -0.115473 1.128037
1.059637 -0.111259 1.126209
1.072404 -0.110537 1.126779
1.086092 -0.111698 1.128942
1.093133 -0.113752 1.129691
1.345441 -0.112494 1.126294
1.375725 -0.112597 1.127506
1.0294549 -0.107225 1.125697
1.033915 -0.106276 1.128005
1.0441099 -0.105072 1.12502
1.04914 -0.108224 1.127152
1.0508749 -0.108229 1.126488
1.056378 -0.109206 1.1265661
1.086257 -0.107 1.1282851
1.1071 -0.105167 1.127149
1.11364 -0.107665 1.126056
1.120981 -0.105423 1.127527
1.127121 -0.105511 1.125999
1.247058 -0.10605 1.125921
1.0160739 -0.102034 1.129428
1.02654 -0.100459 1.129833
1.034694 -0.102708 1.128054
1.045943 -0.101199 1.129971
1.062323 -0.104921 1.127754
1.0674679 -0.101251 1.1264485
1.105461 -0.10335 1.126348
1.1263601 -0.104765 1.129702
1.133235 -0.103643 1.1266789
1.142365 -0.103308 1.1267411
1.159277 -0.102835 1.125433
1.1788321 -0.103592 1.129426
1.33776 -0.104925 1.127653
1.3485005 -0.1032565 1.126318
1.0071416 -0.099261999 1.1278119
1.012385 -0.097983003 1.126055
1.019127 -0.097783998 1.125787
1.066851 -0.099670999 1.1269701
1.071494 -0.098750003 1.128063
1.0831161 -0.097002 1.125921
1.100587 -0.098286003 1.1298749
1.389814 -0.099041 1.129146
1.32056 -0.172941 1.132218
1.343924 -0.17114601 1.130813
1.292763 -0.166217 1.133099
1.303573 -0.168468 1.1336221
1.336997 -0.16800401 1.13397
1.348516 -0.164115 1.133836
1.363011 -0.161529 1.132779
1.370581 -0.16187701 1.134166
1.320316 -0.15949699 1.132663
1.3489079 -0.158574 1.132585
1.351209 -0.15681399 1.13449
1.340925 -0.151768 1.134603
1.353523 -0.151016 1.13252
1.3365999 -0.148839 1.130634
1.331802 -0.143656 1.132935
1.360369 -0.14261 1.1330791
1.339372 -0.137215 1.131078
1.348423 -0.13806701 1.134352
1.369552 -0.138538 1.132995
1.305173 -0.13314401 1.131881
1.367877 -0.13353699 1.13308
1.347711 -0.12656 1.1342241
1.370858 -0.124672 1.130778
1.101263 -0.115566 1.1339231
1.364218 -0.119718 1.130198
1.370095 -0.119045 1.13199
1.045374 -0.112831 1.133146
1.0621715 -0.112721 1.133642
1.117025 -0.110341 1.132071
1.314303 -0.111498 1.131533
1.324145 -0.111417 1.1311311
1.331076 -0.113528 1.132918
1.365384 -0.114374 1.131681
1.014447 -0.105543 1.130996
1.022336 -0.1077895 1.1342754
1.0481369 -0.10956 1.131063
1.050994 -0.106857 1.131199
1.056911 -0.106902 1.1348619
1.061166 -0.107076 1.130998
1.068863 -0.107589 1.13483
1.093873 -0.1097565 1.1321859
1.109951 -0.106524 1.132237
1.137736 -0.109319 1.132319
1.1684685 -0.1074615 1.1337055
1.379365 -0.108645 1.1304801
1.39016 -0.109718 1.1317821
0.99368 -0.102345 1.134517
1.0149339 -0.10483 1.1317199
1.0201271 -0.100396 1.13107
1.037398 -0.104624 1.131542
1.042841 -0.1022375 1.133166
1.062632 -0.103391 1.134643
1.07578 -0.102043 1.134393
1.1296149 -0.104536 1.134364
1.155625 -0.102674 1.134596
1.18678 -0.104362 1.131848
1.198981 -0.104835 1.131645
1.206879 -0.102013 1.133834
1.008725 -0.099646002 1.1301
1.137748 -0.098915003 1.131462
1.292549 -0.097805001 1.130586
1.306774 -0.097819 1.130141
1.316206 -0.170435 1.137557
1.337077 -0.173696 1.13833
1.296883 -0.16658001 1.138607
1.3154171 -0.167813 1.13695
1.346609 -0.16702899 1.137936
1.2980371 -0.16327199 1.136122
1.3150491 -0.157527 1.138173
1.356777 -0.157801 1.135608
1.288591 -0.152018 1.136884
1.2991199 -0.15386599 1.137822
1.330011 -0.152128 1.1373889
1.358248 -0.152243 1.1367871
