# .PCD v0.7 - Point Cloud Data file format
VERSION 0.7
FIELDS x y z
SIZE 4 4 4
TYPE F F F
COUNT 1 1 1
WIDTH 1596
HEIGHT 1
VIEWPOINT 0 0 0 1 0 0 0
POINTS 1596
DATA ascii
1.44846 -0.069444999 0.82797098
1.49378 -0.068113998 0.82714301
1.497702 -0.067186996 0.82916099
1.542753 -0.13383099 0.83109498
1.545339 -0.131304 0.83438301
1.506547 -0.126314 0.83332002
1.525614 -0.125709 0.83112401
1.52279 -0.124667 0.83288598
1.516314 -0.113555 0.83133501
1.542748 -0.114069 0.83121699
1.490147 -0.10793 0.83256799
1.523262 -0.108595 0.83394003
1.5136369 -0.101234 0.83190697
1.522995 -0.100244 0.833345
1.478635 -0.099930003 0.83487499
1.490438 -0.099705003 0.83093101
1.506301 -0.099733002 0.83286297
1.513492 -0.098885998 0.83431798
1.506368 -0.091444001 0.833134
1.477353 -0.085621998 0.830154
1.491617 -0.089117996 0.83002198
1.501284 -0.086487502 0.83439249
1.516229 -0.089690998 0.83100897
1.507719 -0.083401002 0.83387297
1.449012 -0.075892001 0.83026701
1.463903 -0.079046004 0.83103698
1.491913 -0.076982997 0.83100498
1.4618526 -0.073859498 0.83427399
1.4664741 -0.071538001 0.83241099
1.488027 -0.070592999 0.83304602
1.451337 -0.069649003 0.833049
1.470888 -0.067571998 0.83052498
1.525388 -0.13749801 0.83980399
1.550503 -0.135573 0.83799201
1.567597 -0.13796601 0.83992201
1.522989 -0.13181999 0.83657402
1.5358649 -0.132608 0.83670199
1.505187 -0.128594 0.83640099
1.515222 -0.12718999 0.835482
1.526219 -0.124669 0.83582997
1.537079 -0.122264 0.83822203
1.487245 -0.11891 0.83571202
1.510553 -0.116467 0.83593899
1.528857 -0.118056 0.83880299
1.535864 -0.1176495 0.83809054
1.494223 -0.114262 0.83645201
1.498566 -0.112136 0.838597
1.5007811 -0.110631 0.83973199
1.526314 -0.114326 0.83824003
1.537864 -0.110767 0.83670402
1.467195 -0.105114 0.83784199
1.474576 -0.101482 0.83799797
1.499832 -0.100307 0.83575398
1.5159971 -0.10024 0.83957702
1.477574 -0.097947001 0.838323
1.489414 -0.093296997 0.83658099
1.493733 -0.091734998 0.83589602
1.4956321 -0.091968 0.83813202
1.5234489 -0.090112001 0.83726698
1.4890366 -0.0866405 0.83768654
1.458521 -0.082305998 0.83545297
1.484532 -0.083862998 0.837865
1.456184 -0.079708003 0.83640403
1.4753489 -0.076449998 0.83677202
1.48642 -0.079896003 0.83731699
1.467937 -0.074332997 0.83947098
1.476895 -0.071464002 0.83953702
1.503396 -0.070363998 0.83814901
1.454324 -0.069309004 0.83712399
1.551162 -0.144283 0.843099
1.5229545 -0.13577551 0.84226704
1.507486 -0.133148 0.84034997
1.527544 -0.132441 0.84428298
1.535978 -0.13206799 0.84001899
1.550545 -0.13427 0.84274
1.529582 -0.12766001 0.842641
1.4906321 -0.120657 0.84054297
1.526065 -0.121066 0.84292102
1.5346791 -0.124976 0.84157503
1.536785 -0.12274 0.84322
1.490787 -0.115703 0.84006798
1.554023 -0.117532 0.84239602
1.513114 -0.111675 0.84123498
1.505779 -0.109444 0.84454203
1.515862 -0.108698 0.84200698
1.520162 -0.108538 0.84335202
1.512375 -0.104807 0.84322202
1.482977 -0.094997004 0.84330398
1.483349 -0.087058 0.84017301
1.515505 -0.086635999 0.84393698
1.507311 -0.082272999 0.84280401
1.473714 -0.076955996 0.84163898
1.478873 -0.076820999 0.84126598
1.499259 -0.076820001 0.84337598
1.466867 -0.073810004 0.84459299
1.4726861 -0.07254 0.84091502
1.508881 -0.074422002 0.84066701
1.562948 -0.148202 0.84903198
1.560017 -0.14129101 0.84893203
1.584121 -0.14497399 0.84911102
1.5363981 -0.138961 0.84547102
1.5321624 -0.13314199 0.84845698
1.544245 -0.13228001 0.845815
1.506137 -0.120001 0.84637803
1.540454 -0.12385 0.84828001
1.498016 -0.115661 0.84713697
1.5108891 -0.117387 0.84739798
1.517293 -0.1169 0.84854698
1.52925 -0.116207 0.845608
1.5074379 -0.113578 0.845833
1.5291255 -0.1085255 0.849186
1.5313309 -0.109072 0.84878302
1.489489 -0.103686 0.84824902
1.5035011 -0.103352 0.84675199
1.520075 -0.104999 0.84995401
1.5294549 -0.100769 0.84767401
1.4890701 -0.095927998 0.84854501
1.497142 -0.097768001 0.84626901
1.518966 -0.099055998 0.84789801
1.5307029 -0.096035004 0.847022
1.4954541 -0.093253002 0.84689301
1.4679151 -0.089133002 0.848912
1.471632 -0.086906001 0.84561199
1.4774081 -0.088841997 0.84605098
1.483674 -0.081779003 0.84797698
1.5094711 -0.083793998 0.84812802
1.4574209 -0.075236998 0.84811503
1.485201 -0.077209003 0.84887499
1.5331711 -0.145413 0.854482
1.560434 -0.14695799 0.85225803
1.576039 -0.147122 0.85286099
1.534699 -0.142056 0.85443401
1.535051 -0.14230201 0.85394901
1.529676 -0.13796 0.85205197
1.539867 -0.137692 0.85308403
1.561008 -0.13713799 0.85440499
1.524006 -0.133994 0.85013998
1.5341769 -0.131844 0.852391
1.5394289 -0.132147 0.85304499
1.500026 -0.127483 0.854002
1.509012 -0.123769 0.854128
1.5183361 -0.124382 0.85061699
1.528828 -0.117309 0.850308
1.543384 -0.119537 0.85305798
1.5124969 -0.114367 0.85450703
1.483971 -0.108308 0.851457
1.530557 -0.106001 0.85176998
1.485085 -0.10426 0.85139
1.494233 -0.102333 0.85051298
1.501927 -0.098164 0.851789
1.505988 -0.096846998 0.85144299
1.522635 -0.099806003 0.854514
1.508935 -0.092729002 0.85112703
1.514106 -0.092405997 0.85087299
1.47284 -0.087370999 0.85012001
1.502983 -0.086843997 0.85493302
1.472255 -0.081047997 0.850061
1.475806 -0.082062997 0.85404003
1.480217 -0.084362 0.85491699
1.491272 -0.082103997 0.85012197
1.4794101 -0.078310996 0.85206097
1.508962 -0.079076998 0.85451698
1.6052051 -0.163592 0.85970998
1.5783401 -0.159457 0.85921001
1.593375 -0.151241 0.85662699
1.516082 -0.146659 0.856547
1.560858 -0.148828 0.85566002
1.586145 -0.14540499 0.85751098
1.562737 -0.143042 0.855259
1.575413 -0.139211 0.85680097
1.5254869 -0.13466901 0.85619599
1.50945 -0.127517 0.85963601
1.518051 -0.125741 0.856305
1.52905 -0.123691 0.855129
1.553317 -0.124635 0.85728502
1.517078 -0.118025 0.85926098
1.523002 -0.1188 0.85889399
1.528332 -0.115942 0.85889202
1.5370671 -0.117342 0.85609901
1.53746 -0.113809 0.85815901
1.5027165 -0.1089835 0.85876948
1.506556 -0.107583 0.85931402
1.511553 -0.105382 0.85994297
1.533879 -0.107279 0.85689503
1.496111 -0.101196 0.85890102
1.501511 -0.100569 0.856457
1.507856 -0.097989999 0.85503399
1.522097 -0.095045999 0.85940599
1.496448 -0.090236001 0.85756499
1.503387 -0.094140999 0.856058
1.514084 -0.088931002 0.85698599
1.491953 -0.082810998 0.85952902
1.511618 -0.083787002 0.85755599
1.523541 -0.081302002 0.85733998
1.618693 -0.169943 0.86449403
1.573819 -0.160786 0.86052901
1.582018 -0.163523 0.86232501
1.588189 -0.162889 0.862881
1.5709291 -0.15604199 0.86380702
1.589705 -0.159504 0.86307001
1.529479 -0.145153 0.86356002
1.546613 -0.14779601 0.86435997
1.554885 -0.146028 0.86056203
1.55901 -0.145344 0.86126
1.548813 -0.14149401 0.86238801
1.5521899 -0.14294299 0.86188501
1.538147 -0.13960899 0.86275399
1.535434 -0.13200399 0.86148798
1.554159 -0.130091 0.860874
1.555234 -0.133099 0.86173803
1.569932 -0.130292 0.860964
1.5284359 -0.125901 0.86285502
1.5566601 -0.12674201 0.86239302
1.528362 -0.122942 0.860228
1.553804 -0.122269 0.86477
1.493365 -0.115134 0.86491501
1.532984 -0.1173425 0.8627345
1.511284 -0.111267 0.86142999
1.5217021 -0.108421 0.86478698
1.521678 -0.10255 0.860596
1.527038 -0.100145 0.86076897
1.536222 -0.104804 0.86337602
1.477309 -0.095959 0.86237001
1.479382 -0.092817999 0.86271203
1.484755 -0.093111001 0.86004603
1.4899 -0.092528999 0.86242902
1.499048 -0.093313001 0.8646
1.484803 -0.087053001 0.86045998
1.510231 -0.086548001 0.86479503
1.52433 -0.089262001 0.86031997
1.5909774 -0.16576201 0.8685385
1.575194 -0.16383401 0.86677599
1.580462 -0.162478 0.86716002
1.610003 -0.164443 0.86640501
1.557601 -0.15869001 0.86572599
1.568491 -0.153658 0.86540401
1.598051 -0.152769 0.86680698
1.5420409 -0.148981 0.86712801
1.5586621 -0.149168 0.86657298
1.577545 -0.148866 0.86704302
1.536463 -0.144179 0.86773503
1.544591 -0.13895699 0.86929703
1.550265 -0.13908499 0.86916
1.565625 -0.137751 0.86644399
1.509421 -0.13431001 0.86746001
1.521697 -0.132736 0.868384
1.5280421 -0.13188899 0.86576301
1.55866 -0.13112301 0.865798
1.548903 -0.128307 0.86941099
1.51805 -0.121158 0.86671197
1.513317 -0.115165 0.86810201
1.530815 -0.117175 0.86582798
1.5439349 -0.115664 0.86747301
1.531951 -0.112199 0.867176
1.508581 -0.10567 0.86632597
1.546618 -0.107979 0.86563802
1.522486 -0.10004 0.865394
1.529888 -0.102404 0.866382
1.53315 -0.10101 0.86692101
1.527228 -0.099648997 0.86819702
1.530084 -0.098977998 0.86791801
1.5113209 -0.093778998 0.866741
1.5273041 -0.090706997 0.865511
1.492813 -0.089813001 0.86762398
1.500636 -0.084965996 0.86584502
1.616029 -0.175744 0.874174
1.612252 -0.17171399 0.87041003
1.610709 -0.169497 0.872091
1.564348 -0.16110399 0.87403703
1.569803 -0.155819 0.872136
1.615652 -0.158094 0.87385201
1.550499 -0.152917 0.874035
1.5766029 -0.15258899 0.87144351
1.591924 -0.154792 0.87107599
1.554615 -0.149452 0.87128103
1.566615 -0.145916 0.87089503
1.573576 -0.14881399 0.87108302
1.580974 -0.148046 0.873276
1.563657 -0.14292499 0.87469602
1.591814 -0.136158 0.87455201
1.531787 -0.133056 0.87201798
1.5314161 -0.12875199 0.87304002
1.539431 -0.128985 0.87190998
1.548403 -0.121967 0.87080801
1.561394 -0.123093 0.871185
1.5061105 -0.1170195 0.87303948
1.510594 -0.11453 0.87498999
1.552034 -0.114425 0.874479
1.568652 -0.110603 0.87030602
1.5335211 -0.105061 0.87004602
1.542104 -0.10663 0.87185103
1.487089 -0.102626 0.874762
1.518337 -0.101251 0.873887
1.5266244 -0.1027555 0.87052548
1.502223 -0.097779997 0.87123001
1.525918 -0.096017003 0.874259
1.492195 -0.092499003 0.87071902
1.505813 -0.093864001 0.87133998
1.514354 -0.093152002 0.87444401
1.522746 -0.091216996 0.87275499
1.529061 -0.090071999 0.873694
1.539919 -0.091321997 0.87399101
1.504787 -0.089152001 0.87391001
1.514528 -0.087791003 0.87088501
1.6358531 -0.18152 0.87730998
1.603828 -0.176094 0.87879503
1.618493 -0.177414 0.87696803
1.632037 -0.17760199 0.87778997
1.60223 -0.17095201 0.87999201
1.557174 -0.16860101 0.87544799
1.594901 -0.16524599 0.87784499
1.599337 -0.166108 0.87517601
1.644841 -0.16942 0.87943602
1.633641 -0.164379 0.87500697
1.596808 -0.159511 0.87585002
1.540475 -0.15115599 0.87516499
1.56844 -0.15131401 0.87783998
1.5748349 -0.15083501 0.878681
1.604968 -0.152961 0.87537199
1.573229 -0.14742699 0.87752098
1.602486 -0.14882199 0.87628502
1.533945 -0.137955 0.87713099
1.535334 -0.136547 0.87811601
1.5410395 -0.1373435 0.876068
1.550844 -0.13587901 0.877491
1.56414 -0.139982 0.87825501
1.571795 -0.137557 0.87879997
1.58577 -0.137834 0.87923998
1.570794 -0.132082 0.87546003
1.542774 -0.125476 0.87975103
1.502759 -0.12196 0.87837398
1.525231 -0.120905 0.87802798
1.538704 -0.122944 0.875844
1.558591 -0.121537 0.875705
1.519067 -0.119182 0.87610698
1.527243 -0.111263 0.87696397
1.541742 -0.113574 0.87972897
1.510613 -0.107647 0.87722802
1.486703 -0.102785 0.87582898
1.504665 -0.096974 0.87814403
1.523311 -0.099555001 0.87673098
1.541609 -0.096357003 0.87810498
1.65177 -0.187775 0.88166201
1.58709 -0.17558999 0.88234198
1.6028939 -0.17918199 0.88322401
1.6351449 -0.177908 0.88307899
1.5844181 -0.170451 0.88229048
1.599519 -0.174319 0.882765
1.633705 -0.17117099 0.88272101
1.564675 -0.16513 0.88170999
1.605311 -0.168614 0.88244402
1.579322 -0.161025 0.88264602
1.592317 -0.16230699 0.882649
1.562747 -0.158136 0.88278198
1.566501 -0.15714 0.88135499
1.567309 -0.152587 0.88387603
1.585566 -0.15459 0.881073
1.556857 -0.147496 0.88462901
1.587531 -0.144445 0.88361198
1.5982389 -0.136003 0.884188
1.559412 -0.131047 0.88125998
1.568584 -0.130215 0.88041198
1.517391 -0.122992 0.88022703
1.535553 -0.122546 0.880346
1.558477 -0.124144 0.88437498
1.566048 -0.121464 0.880211
1.524439 -0.117786 0.88167602
1.533691 -0.117467 0.88330603
1.543825 -0.1186035 0.88363552
1.523706 -0.113561 0.884377
1.500836 -0.108029 0.88332301
1.5318615 -0.10727701 0.88355148
1.55286 -0.106683 0.88325548
1.505579 -0.099202998 0.88025999
1.5168819 -0.099907003 0.88302201
1.529582 -0.096313 0.88193399
1.545409 -0.097726002 0.88316
1.49717 -0.094956003 0.881953
1.5085599 -0.092750996 0.88051701
1.515205 -0.093098 0.88066697
1.622718 -0.184277 0.88986897
1.661587 -0.180526 0.88747698
1.6143121 -0.17678601 0.88918
1.584673 -0.171727 0.88910598
1.589529 -0.165757 0.88723201
1.659737 -0.169659 0.88963503
1.5614851 -0.16403 0.88568997
1.587517 -0.164441 0.88779497
1.586535 -0.156881 0.88975197
1.617496 -0.159996 0.889229
1.571638 -0.150766 0.88947201
1.592079 -0.151127 0.88562
1.595461 -0.15416799 0.88910598
1.616479 -0.15441599 0.88673198
1.557337 -0.147835 0.88676095
1.546193 -0.14317299 0.88587803
1.553794 -0.14296 0.88608301
1.534773 -0.139714 0.88648701
1.554423 -0.137077 0.885764
1.561687 -0.138794 0.88890499
1.574512 -0.13632201 0.88709301
1.5659961 -0.132377 0.88788301
1.5296381 -0.12821101 0.88897401
1.537145 -0.126644 0.887954
1.556385 -0.12980799 0.885584
1.528627 -0.124113 0.88910401
1.544457 -0.12275 0.88835198
1.559451 -0.123039 0.88565999
1.5654711 -0.12056 0.88748199
1.520497 -0.110329 0.88982499
1.561867 -0.11356 0.88945502
1.496098 -0.109611 0.88928699
1.512015 -0.106067 0.88691998
1.535725 -0.109795 0.88735503
1.5405819 -0.106994 0.88577902
1.520093 -0.096504003 0.88725197
1.612717 -0.187024 0.892928
1.620209 -0.18851601 0.894647
1.553592 -0.17094199 0.89428198
1.555442 -0.172499 0.89435399
1.604986 -0.174953 0.89178997
1.6114454 -0.1725015 0.89215553
1.604846 -0.167408 0.89073199
1.638257 -0.165057 0.89134699
1.624063 -0.160638 0.89351201
1.578951 -0.157378 0.89251995
1.58766 -0.158314 0.89054102
1.605285 -0.158402 0.89356202
1.5980231 -0.153449 0.89288402
1.5571311 -0.14829251 0.89321804
1.58608 -0.145696 0.89039302
1.543596 -0.14485499 0.89264601
1.5593981 -0.143931 0.89224499
1.549185 -0.13004699 0.89302897
1.554446 -0.133864 0.892461
1.580443 -0.128106 0.89294398
1.54476 -0.123509 0.894988
1.5522079 -0.116178 0.89162499
1.591511 -0.119045 0.893004
1.5130841 -0.113248 0.89207101
1.535283 -0.111868 0.89034301
1.5533431 -0.10621 0.89376301
1.5374365 -0.102126 0.891379
1.53458 -0.098842002 0.89004701
1.5368 -0.099189997 0.89045203
1.601397 -0.18087099 0.897641
1.620245 -0.181417 0.89556003
1.626302 -0.18256301 0.89916998
1.625859 -0.17833599 0.89523399
1.536075 -0.17329399 0.89604598
1.586583 -0.171846 0.89849001
1.630541 -0.174844 0.89796299
1.567374 -0.169595 0.89717102
1.57434 -0.16511101 0.896137
1.5503269 -0.156866 0.89973003
1.578378 -0.15863 0.89555699
1.565708 -0.148699 0.89600998
1.581363 -0.147484 0.89595997
1.58969 -0.14514101 0.89700401
1.561569 -0.14106899 0.89527202
1.575201 -0.141316 0.89800501
1.584821 -0.136145 0.89606303
1.5886919 -0.137384 0.89822
1.609624 -0.137371 0.89528
1.541886 -0.13343 0.89772201
1.5492134 -0.1331355 0.89655
1.5552599 -0.127056 0.89871401
1.579843 -0.129085 0.89813799
1.531631 -0.121346 0.89904797
1.547261 -0.122344 0.89608198
1.567053 -0.12082 0.89689702
1.532411 -0.116069 0.89975101
1.549332 -0.118231 0.89783698
1.558764 -0.117326 0.89824402
1.512372 -0.110826 0.89752603
1.5208679 -0.113984 0.89576298
1.5373549 -0.109541 0.89924198
1.516485 -0.100536 0.89518797
1.528106 -0.103892 0.89964598
1.636526 -0.180825 0.90013099
1.5744441 -0.17820799 0.90036702
1.58311 -0.17409 0.90451503
1.59427 -0.170754 0.90406501
1.596169 -0.174229 0.90281302
1.569708 -0.163003 0.90481597
1.604666 -0.16068301 0.90246397
1.613389 -0.164372 0.90410799
1.5304511 -0.157565 0.90212399
1.5621525 -0.156398 0.90203452
1.597728 -0.159971 0.90223402
1.6319619 -0.15828 0.90228599
1.547664 -0.154815 0.90087497
1.597522 -0.15419701 0.90169799
1.609763 -0.151246 0.90104699
1.571211 -0.145714 0.90254998
1.585212 -0.14771301 0.90469998
1.595892 -0.14601199 0.901649
1.57932 -0.142038 0.90014702
1.597769 -0.142782 0.90344101
1.564366 -0.137648 0.90035999
1.590736 -0.138284 0.90332401
1.538085 -0.13098601 0.90265501
1.552296 -0.130722 0.903135
1.567552 -0.131007 0.90117902
1.5756235 -0.131915 0.90447104
1.556267 -0.12691 0.90237701
1.58173 -0.122732 0.90239602
1.525332 -0.118467 0.90081799
1.52192 -0.11168 0.90009201
1.561411 -0.112302 0.90256602
1.573355 -0.111768 0.90227598
1.563786 -0.104855 0.90108198
1.646681 -0.192232 0.906991
1.527814 -0.18144999 0.90950799
1.606257 -0.18223201 0.90752298
1.621057 -0.180259 0.90506202
1.546142 -0.179583 0.90872103
1.612885 -0.17530499 0.90561301
1.61816 -0.17732801 0.90943301
1.592856 -0.172304 0.90556401
1.581032 -0.167502 0.90588802
1.60026 -0.169045 0.90862
1.589448 -0.164672 0.90723902
1.594627 -0.164088 0.90675497
1.623197 -0.159563 0.90848202
1.556766 -0.151719 0.909697
1.5776221 -0.154439 0.905936
1.564972 -0.147797 0.909266
1.524827 -0.141836 0.90820199
1.561439 -0.14018799 0.90870798
1.541736 -0.138689 0.90746802
1.554134 -0.138648 0.90646899
1.555829 -0.12955201 0.90666902
1.604652 -0.125469 0.906865
1.5375791 -0.123686 0.90956497
1.543101 -0.121043 0.90774453
1.557815 -0.124956 0.90811503
1.5819221 -0.120601 0.90733302
1.523368 -0.116829 0.90913099
1.561849 -0.11506 0.907341
1.574836 -0.119878 0.90874898
1.550146 -0.110493 0.909563
1.573607 -0.112474 0.90588301
1.52441 -0.108321 0.90986001
1.5401 -0.107611 0.90640002
1.551584 -0.19361401 0.91311401
1.579537 -0.19305301 0.914864
1.596006 -0.193231 0.91143399
1.604871 -0.189395 0.91230702
1.63381 -0.186423 0.91022998
1.564216 -0.184689 0.91162699
1.5808491 -0.181385 0.91433102
1.635213 -0.18426999 0.91491598
1.562441 -0.179079 0.910613
1.600273 -0.172979 0.910294
1.608085 -0.167983 0.91083902
1.541093 -0.164234 0.91237402
1.576956 -0.157133 0.91267902
1.586484 -0.155175 0.91431302
1.5558079 -0.15245 0.91042697
1.570626 -0.14860401 0.91424
1.606534 -0.147328 0.912655
1.555959 -0.142298 0.910689
1.590198 -0.140986 0.912664
1.57411 -0.138624 0.91397899
1.564458 -0.133194 0.91361398
1.60262 -0.13478 0.91045099
1.5633661 -0.12661 0.91494203
1.5721051 -0.127196 0.91054201
1.5891629 -0.129054 0.910465
1.590252 -0.12716199 0.91332102
1.535808 -0.122563 0.91406101
1.55629 -0.124451 0.91411901
1.531378 -0.118553 0.913643
1.5630111 -0.113077 0.91174698
1.569056 -0.113569 0.91228902
1.606483 -0.198163 0.91503847
1.538887 -0.19170401 0.91901797
1.558544 -0.18542799 0.919236
1.5910521 -0.18100099 0.91689801
1.555349 -0.17798901 0.91847801
1.568416 -0.178278 0.91837102
1.597013 -0.172076 0.91877502
1.52219 -0.165721 0.91558599
1.5573215 -0.16792151 0.91788697
1.5402139 -0.16345701 0.91531402
1.570043 -0.164317 0.91556603
1.589536 -0.16017801 0.91586202
1.590019 -0.16353101 0.91891903
1.605561 -0.162094 0.91657901
1.593326 -0.155881 0.91934901
1.582808 -0.1517545 0.916408
1.535979 -0.14860199 0.91775
1.587858 -0.147304 0.91586798
1.549687 -0.136032 0.91761303
1.5768285 -0.13304201 0.91662502
1.549827 -0.128905 0.91831201
1.55624 -0.12754799 0.919604
1.5361789 -0.12473 0.91760302
1.550089 -0.118034 0.91806602
1.595477 -0.118314 0.91985601
1.581159 -0.202391 0.92273301
1.60116 -0.19261201 0.92186701
1.613291 -0.191517 0.92135501
1.5195529 -0.189605 0.92297
1.538693 -0.188225 0.92316002
1.5531451 -0.186497 0.92334199
1.5841269 -0.186336 0.920443
1.602854 -0.18740401 0.92291099
1.568575 -0.184425 0.921646
1.534181 -0.176595 0.92343998
1.5686229 -0.17955901 0.92421198
1.5728199 -0.17639901 0.92390698
1.583437 -0.172252 0.92036498
1.597656 -0.17455199 0.92270201
1.567763 -0.157722 0.92130101
1.5800689 -0.15533701 0.92138398
1.554744 -0.154278 0.92052698
1.516566 -0.14999101 0.921664
1.534286 -0.147331 0.92190701
1.557966 -0.148577 0.92061597
1.595373 -0.14763799 0.92014903
1.551064 -0.140277 0.92101902
1.570802 -0.140175 0.92084402
1.580112 -0.138045 0.92306298
1.530865 -0.13296901 0.92312503
1.563423 -0.133735 0.92460501
1.581089 -0.13052 0.92498201
1.599678 -0.130283 0.92120302
1.5484689 -0.12868901 0.92128098
1.5828739 -0.127775 0.92363
1.557704 -0.120674 0.92467898
1.567873 -0.122013 0.92172402
1.570832 -0.116372 0.92206103
1.557109 -0.202264 0.92936099
1.6049581 -0.202236 0.92959398
1.555663 -0.192316 0.92773402
1.576829 -0.185133 0.92681599
1.598351 -0.189413 0.92724103
1.570039 -0.18308701 0.92932498
1.590017 -0.18105499 0.92570198
1.5870349 -0.17527799 0.92761499
1.4972 -0.17491201 0.92566597
1.5150011 -0.173282 0.92664999
1.53186 -0.17160299 0.92501903
1.552436 -0.168598 0.927338
1.529475 -0.161486 0.92786098
1.549228 -0.16157199 0.92566401
1.582401 -0.15940399 0.92839801
1.562552 -0.150708 0.92615801
1.548973 -0.14986999 0.92738497
1.582931 -0.147193 0.92825103
1.598236 -0.148883 0.92754602
1.573982 -0.14011499 0.92725903
1.565304 -0.138197 0.92891598
1.577665 -0.136031 0.92701697
1.586816 -0.139063 0.927926
1.528358 -0.13120399 0.9285
1.564649 -0.123218 0.92900801
1.570905 -0.121106 0.92663503
1.589479 -0.211463 0.930489
1.5787699 -0.20269999 0.93367255
1.590824 -0.20162199 0.93054003
1.51349 -0.197877 0.93444097
1.528723 -0.198145 0.93020803
1.52774 -0.19460499 0.93228698
1.530075 -0.18832199 0.93089098
1.544919 -0.18993799 0.93383002
1.524017 -0.183035 0.93462902
1.530273 -0.17732599 0.932953
1.5568039 -0.179442 0.93416101
1.549415 -0.17054699 0.93457299
1.576636 -0.172728 0.93103498
1.562252 -0.167427 0.93032801
1.573169 -0.164039 0.93231899
1.509114 -0.157269 0.93319702
1.526745 -0.15597001 0.93039399
1.566103 -0.15974399 0.93295002
1.576234 -0.15738299 0.93072999
1.590441 -0.15970901 0.93309802
1.569805 -0.15428001 0.93048
1.5247689 -0.146377 0.93228298
1.543107 -0.145154 0.93284899
1.56206 -0.14628001 0.93262303
1.585953 -0.14243799 0.93055499
1.553262 -0.13806801 0.93233901
1.593051 -0.136742 0.93059802
1.527862 -0.13294099 0.93115699
1.5880851 -0.13247301 0.93058902
1.545362 -0.12883499 0.93234098
1.5605381 -0.122895 0.93339401
1.5737391 -0.120916 0.93181199
1.5242161 -0.198312 0.93616003
1.55417 -0.195004 0.93582898
1.558489 -0.199761 0.93506497
1.572197 -0.198282 0.93782699
1.5557719 -0.19183201 0.93968397
1.550011 -0.18761399 0.939574
1.563856 -0.189817 0.93825901
1.488995 -0.18301199 0.93903702
1.560272 -0.182708 0.93838298
1.522626 -0.17897201 0.93766302
1.550171 -0.17815 0.93646401
1.523999 -0.172023 0.938025
1.565035 -0.171875 0.93868297
1.519311 -0.167926 0.93905097
1.5627965 -0.16794699 0.93725801
1.5599051 -0.163413 0.938963
1.508305 -0.15814701 0.93512601
1.546329 -0.151769 0.93544102
1.5559289 -0.15042999 0.93901002
1.521631 -0.140338 0.93576998
1.575598 -0.142491 0.93687898
1.555061 -0.1371 0.93674999
1.520063 -0.13126799 0.93670398
1.562139 -0.131551 0.93756503
1.575844 -0.130854 0.93758303
1.567228 -0.12759501 0.93832302
1.601171 -0.217095 0.94023103
1.548311 -0.212651 0.941764
1.564759 -0.21115901 0.941019
1.5717191 -0.210878 0.94221199
1.518533 -0.2032795 0.943165
1.530768 -0.20309301 0.94093102
1.558376 -0.203638 0.94466001
1.575312 -0.203372 0.94221598
1.533267 -0.199108 0.94204402
1.562199 -0.19671801 0.94457603
1.4991291 -0.190016 0.94183803
1.551332 -0.18852299 0.94079602
1.583663 -0.18688899 0.94085801
1.507603 -0.18186399 0.940988
1.548063 -0.178175 0.943932
1.538219 -0.173282 0.942182
1.517512 -0.163339 0.94303799
1.524127 -0.16095801 0.940584
1.5667911 -0.164557 0.94306099
1.569145 -0.159119 0.94162703
1.514605 -0.152817 0.94347203
1.542789 -0.15384801 0.94325399
1.566461 -0.151605 0.94330698
1.550352 -0.14844701 0.94490802
1.502681 -0.142417 0.94120401
1.5593849 -0.14308999 0.94199401
1.56903 -0.14251401 0.94109499
1.573056 -0.140212 0.94080102
1.583226 -0.144866 0.94349301
1.520908 -0.139846 0.94294
1.540222 -0.134939 0.94354397
1.556358 -0.134837 0.94394499
1.536986 -0.128736 0.94003499
1.5788 -0.129135 0.94152302
1.57693 -0.217601 0.94841301
1.543386 -0.213972 0.946899
1.577005 -0.213664 0.94850302
1.555607 -0.209567 0.94738501
1.523543 -0.19737799 0.94601798
1.5528179 -0.195151 0.946805
1.496793 -0.193468 0.94790798
1.53947 -0.193754 0.94919902
1.524623 -0.18672501 0.94856203
1.571651 -0.187566 0.94525301
1.538376 -0.17949399 0.94609702
1.524363 -0.17436901 0.94908798
1.542914 -0.17296299 0.94978702
1.5008805 -0.166076 0.94806147
1.553102 -0.16977499 0.94911897
1.543191 -0.16205899 0.94565499
1.517922 -0.15572301 0.94515997
1.5576375 -0.157792 0.948102
1.555232 -0.152317 0.94878602
1.5123971 -0.147706 0.94841403
1.552726 -0.14847501 0.949247
1.517982 -0.14459001 0.94821602
1.509899 -0.13770799 0.94789398
1.570534 -0.13095 0.94912201
1.5073321 -0.212368 0.95326352
1.563634 -0.214495 0.95242
1.521084 -0.20811699 0.95307499
1.549796 -0.20458101 0.95242298
1.541899 -0.19966801 0.950809
1.48079 -0.191112 0.95240802
1.511515 -0.19233 0.953484
1.513392 -0.186341 0.95030701
1.546605 -0.18834201 0.95015198
1.5174659 -0.181079 0.953152
1.526692 -0.18253601 0.95065898
1.5427901 -0.18282899 0.95184499
1.549155 -0.17956699 0.95052397
1.557308 -0.17571101 0.95275402
1.499675 -0.171882 0.953596
1.509147 -0.174366 0.95024103
1.541955 -0.16134501 0.95203501
1.504441 -0.15925699 0.95466202
1.53152 -0.156626 0.950535
1.4944201 -0.150573 0.95466602
1.4958301 -0.149837 0.95408201
1.543341 -0.149399 0.95401698
1.511845 -0.139424 0.95229399
1.536164 -0.13715 0.95193601
1.559754 -0.139171 0.95429498
1.541731 -0.221772 0.95700097
1.552806 -0.21924099 0.95954698
1.565729 -0.215029 0.95890099
1.581049 -0.217658 0.95558
1.504755 -0.213809 0.95798701
1.510837 -0.21079101 0.95795202
1.542443 -0.213424 0.95671302
1.5092731 -0.209342 0.95757598
1.528627 -0.20818201 0.95685601
1.510123 -0.202604 0.95669401
1.548575 -0.20273 0.95531797
1.486287 -0.199589 0.958049
1.50369 -0.195916 0.95700902
1.536341 -0.19943 0.95703602
1.500206 -0.19044501 0.95532602
1.550794 -0.194509 0.95509499
1.52395 -0.18939599 0.95824802
1.525857 -0.18258201 0.95684701
1.5352 -0.183011 0.959162
1.555196 -0.18369401 0.95531201
1.475204 -0.17548899 0.958444
1.5063649 -0.178268 0.956236
1.54485 -0.175695 0.95638502
1.508278 -0.170708 0.95568299
1.520116 -0.16596401 0.95927399
1.5330189 -0.163222 0.95990002
1.552748 -0.16038699 0.956186
1.517748 -0.157968 0.95799398
1.535816 -0.15831301 0.95999902
1.5459321 -0.15684199 0.95985401
1.551628 -0.145456 0.95795703
1.499735 -0.14414801 0.95908397
1.556496 -0.143204 0.95503902
1.568709 -0.14142799 0.95837098
1.5467529 -0.13746801 0.957537
1.529896 -0.22550599 0.96417898
1.498232 -0.217465 0.96377701
1.519598 -0.217437 0.96155697
1.517011 -0.206434 0.96114397
1.535867 -0.20703401 0.96402502
1.552412 -0.20829 0.96105301
1.478929 -0.20281599 0.964077
1.5508161 -0.20238499 0.960262
1.500167 -0.19746201 0.96151602
1.556509 -0.19966801 0.96262801
1.504158 -0.19371 0.962951
1.5148571 -0.191378 0.96162498
1.5207289 -0.187806 0.96315098
1.4818341 -0.18498801 0.96224898
1.498984 -0.18080699 0.96143001
1.50464 -0.17648099 0.96253699
1.5213259 -0.178552 0.96230602
1.494319 -0.17443199 0.96187299
1.5261641 -0.171629 0.96357399
1.5018851 -0.16357701 0.96046197
1.511389 -0.16477901 0.96028602
1.5502 -0.16108599 0.96299702
1.503163 -0.155075 0.96105802
1.512332 -0.153989 0.96382499
1.4974051 -0.148886 0.964688
1.535848 -0.14451601 0.96013802
1.546424 -0.14339 0.96486801
1.545122 -0.13773 0.96073103
1.48937 -0.13433301 0.96068597
1.484219 -0.217251 0.96621197
1.494185 -0.21996801 0.96819001
1.517951 -0.217923 0.96999002
1.5086 -0.21183801 0.96634799
1.518779 -0.211079 0.96590602
1.475409 -0.20001701 0.96629798
1.517433 -0.20351499 0.96872997
1.472585 -0.199212 0.96577901
1.523106 -0.197102 0.96781898
1.492586 -0.19132 0.96521902
1.504311 -0.194344 0.96650302
1.525732 -0.194692 0.96824902
1.4742531 -0.187801 0.96847099
1.503558 -0.186327 0.96553302
1.526687 -0.185752 0.96778703
1.494066 -0.18121301 0.96909201
1.529296 -0.18488701 0.96717399
1.4990439 -0.178077 0.96832699
1.5220129 -0.175924 0.96525502
1.5178879 -0.172693 0.96629101
1.530828 -0.17461801 0.96790397
1.494278 -0.16569699 0.96585202
1.528501 -0.166355 0.96751499
1.5379236 -0.16273999 0.96635604
1.487296 -0.158573 0.968274
1.505313 -0.14848 0.96741998
1.513541 -0.14939301 0.96789002
1.511133 -0.14156701 0.96689999
1.547922 -0.140072 0.96908998
1.498049 -0.139442 0.966434
1.5357831 -0.23282699 0.97401398
1.557199 -0.232274 0.97323799
1.529408 -0.228946 0.97034901
1.488749 -0.22229899 0.97362298
1.5093679 -0.22195899 0.97256601
1.531121 -0.22491699 0.97347099
1.492134 -0.216493 0.97315401
1.525407 -0.21742401 0.97285002
1.509315 -0.21222501 0.97381097
1.522902 -0.211069 0.97424299
1.457854 -0.20927501 0.97159499
1.489704 -0.205276 0.97241598
1.479138 -0.201721 0.97155201
1.481115 -0.201975 0.97002602
1.512722 -0.201588 0.97061002
1.545457 -0.19535699 0.97171497
1.5079401 -0.19453651 0.97355497
1.51213 -0.194548 0.97419602
1.530038 -0.187793 0.97354901
1.4669991 -0.18358999 0.97181499
1.486553 -0.175137 0.97230202
1.469576 -0.172787 0.97286499
1.496992 -0.170049 0.97437203
1.508629 -0.174639 0.97017598
1.491315 -0.169736 0.97066498
1.49393 -0.162444 0.97370303
1.531837 -0.161512 0.97103399
1.472928 -0.155784 0.97065002
1.492484 -0.157856 0.97197098
1.5141571 -0.15743899 0.97388101
1.5185195 -0.15873301 0.97312355
1.489572 -0.15058801 0.97027302
1.5430911 -0.14646199 0.973239
1.4815404 -0.142702 0.97458601
1.538761 -0.14390799 0.97059
1.522491 -0.233999 0.97924501
1.483212 -0.22696149 0.97836149
1.520805 -0.226695 0.97868198
1.491297 -0.223621 0.97745597
1.518945 -0.21743 0.979105
1.465274 -0.211831 0.97833103
1.507862 -0.213899 0.97551602
1.46438 -0.207313 0.97915
1.468829 -0.209216 0.97519702
1.490316 -0.205908 0.979958
1.46811 -0.20141201 0.97712302
1.491691 -0.20308299 0.97692001
1.449864 -0.194708 0.97543401
1.485224 -0.190585 0.97664201
1.510152 -0.19028801 0.97902501
1.475143 -0.185517 0.97794998
1.505846 -0.185738 0.979662
1.486922 -0.18301301 0.97621101
1.502154 -0.181949 0.97694498
1.519204 -0.18259101 0.978944
1.466874 -0.176507 0.97658998
1.497786 -0.177898 0.97505301
1.5222501 -0.170344 0.97731203
1.461413 -0.16796701 0.97785199
1.536554 -0.168823 0.97641701
1.487965 -0.16496401 0.976668
1.516456 -0.164774 0.97628897
1.48052 -0.15895499 0.97938502
1.5024019 -0.15790001 0.97872603
1.54119 -0.157647 0.97678602
1.4888149 -0.14681099 0.97907799
1.521801 -0.149699 0.97586697
1.5306865 -0.1476915 0.97628903
1.550934 -0.237453 0.98131698
1.53534 -0.234029 0.98018903
1.492415 -0.22532 0.98054302
1.50885 -0.226759 0.98077798
1.496011 -0.22231901 0.98077703
1.444474 -0.21599001 0.98211801
1.503475 -0.21703701 0.981058
1.519186 -0.21874 0.98098999
1.45445 -0.209628 0.98004001
1.462817 -0.20786899 0.980802
1.468063 -0.208538 0.98053598
1.48307 -0.19810501 0.98173201
1.470046 -0.191909 0.98180902
1.502658 -0.190211 0.980968
1.4621201 -0.185344 0.98415601
1.48981 -0.185445 0.98097098
1.499675 -0.180298 0.98326403
1.459476 -0.179187 0.98398501
1.50201 -0.179423 0.98338097
1.505481 -0.17801701 0.982485
1.468977 -0.170662 0.98223197
1.522965 -0.17307501 0.98368198
1.481035 -0.167 0.98275799
1.4624209 -0.16190501 0.98079002
1.4912601 -0.161451 0.983603
1.479408 -0.157028 0.98146302
1.490427 -0.153772 0.98321098
1.481865 -0.148715 0.98424399
1.524452 -0.14809699 0.981475
1.4906141 -0.235387 0.98788399
1.473044 -0.23228499 0.98859501
1.467661 -0.22640599 0.98500198
1.514819 -0.22772799 0.98690498
1.518539 -0.22794101 0.987957
1.420351 -0.222681 0.98893398
1.488784 -0.223809 0.98994702
1.43009 -0.21743201 0.98842001
1.4535465 -0.2182125 0.98766994
1.506326 -0.215003 0.985291
1.476838 -0.211339 0.98625302
1.489326 -0.21498001 0.98551202
1.494432 -0.213044 0.98730201
1.450889 -0.20924699 0.98501599
1.503013 -0.209397 0.98549598
1.439827 -0.201068 0.986485
1.500887 -0.201318 0.98595899
1.497346 -0.199738 0.985295
1.449402 -0.19419999 0.98534501
1.4575915 -0.19167849 0.98720598
1.462218 -0.192636 0.98703802
1.504396 -0.190047 0.98580998
1.4855109 -0.18647 0.98540503
1.463989 -0.175777 0.98933101
1.512676 -0.170489 0.98963797
1.488176 -0.167291 0.98831898
1.498971 -0.169889 0.98871499
1.515205 -0.155801 0.98745
1.529433 -0.15598001 0.98707801
1.4722739 -0.151154 0.98766798
1.475149 -0.150986 0.98930502
1.5108989 -0.153624 0.98732197
1.509568 -0.14718799 0.98531502
1.51302 -0.14726301 0.985107
1.478533 -0.23716199 0.99455702
1.502627 -0.239364 0.99146497
1.4839 -0.23220301 0.99179399
1.490014 -0.23462901 0.99215698
1.499001 -0.225168 0.99152303
1.430638 -0.224393 0.99423498
1.5096951 -0.222533 0.99119902
1.456175 -0.215413 0.99252099
1.460717 -0.21706 0.994775
1.474452 -0.21937799 0.99390602
1.461671 -0.21033899 0.99203402
1.488582 -0.212815 0.993707
1.502038 -0.214091 0.99122202
1.415732 -0.20785201 0.99327397
1.477954 -0.205295 0.991611
1.4932785 -0.20627651 0.9905135
1.425076 -0.202104 0.99369103
1.434386 -0.200645 0.99472702
1.446312 -0.202456 0.99433601
1.487216 -0.196079 0.99115449
1.444387 -0.193082 0.99312299
1.470865 -0.19488201 0.99417698
1.470173 -0.182053 0.99106997
1.476554 -0.181949 0.99050403
1.485503 -0.18061601 0.990807
1.453208 -0.17606699 0.99122298
1.458088 -0.177358 0.99416602
1.483744 -0.176181 0.990583
1.497171 -0.17920201 0.99186099
1.456129 -0.169276 0.99118799
1.479331 -0.169857 0.993891
1.49272 -0.16599 0.99328399
1.469244 -0.163468 0.99265301
1.497844 -0.1614905 0.9925735
1.513986 -0.16156501 0.99278301
1.479582 -0.15418001 0.99172199
1.5220439 -0.24532899 0.99710298
1.4832309 -0.24117801 0.998151
1.4612221 -0.23533399 0.99991298
1.502454 -0.237965 0.99531502
1.473595 -0.23339 0.99542898
1.483775 -0.23256201 0.99778599
1.489277 -0.228576 0.99767298
1.453734 -0.222075 0.99993998
1.460575 -0.21743201 0.99748498
1.426212 -0.209879 0.99840999
1.462901 -0.20970599 0.99769002
1.4819469 -0.205213 0.996943
1.464083 -0.202902 0.99704701
1.483907 -0.204108 0.99627101
1.437984 -0.19541 0.99583399
1.468468 -0.19959199 0.99579501
1.4965709 -0.197455 0.99605
1.449376 -0.18558601 0.99510401
1.492157 -0.1870715 0.99584448
1.480896 -0.181108 0.99793297
1.44996 -0.175464 0.99764901
1.430532 -0.171225 0.99521798
1.465693 -0.16736101 0.995296
1.4700381 -0.165793 0.999277
1.49559 -0.16383401 0.999614
1.457932 -0.15964501 0.99685198
1.450139 -0.153209 0.99822098
1.492095 -0.154039 0.99776697
1.5193141 -0.24943399 1.003256
1.487594 -0.243843 1.003642
1.496121 -0.242043 1.004734
1.449469 -0.23705199 1.0047719
1.491654 -0.239159 1.002009
1.420195 -0.23047701 1.0043139
1.424399 -0.22871 1.00422
1.446797 -0.22767 1.002143
1.4574389 -0.226403 1.003204
1.4709049 -0.22842 1.000581
1.478308 -0.229498 1.003005
1.421037 -0.224656 1.0008169
1.431785 -0.224208 1.002012
1.437539 -0.220228 1.003657
1.4807971 -0.22374099 1.002305
1.447958 -0.21868999 1.001495
1.4920731 -0.212672 1.001896
1.502751 -0.20819999 1.0011899
1.4350621 -0.203143 1.004438
1.454872 -0.201158 1.001276
1.495226 -0.20142201 1.001667
1.421786 -0.195366 1.0025851
1.482402 -0.196202 1.002193
1.425142 -0.192507 1.001902
1.471035 -0.190896 1.001523
1.486232 -0.191707 1.0002105
1.435243 -0.18604501 1.003129
1.440298 -0.18644001 1.001804
1.459603 -0.18821099 1.001273
1.481359 -0.1859 1.002277
1.445003 -0.184167 1.004594
1.437885 -0.176916 1.00123
1.464893 -0.178424 1.0021009
1.479239 -0.166116 1.00181
1.491685 -0.168193 1.002755
1.452625 -0.16164249 1.0000865
1.4903229 -0.16269299 1.002244
1.4400229 -0.15555701 1.0038919
1.464013 -0.15931 1.00113
1.464761 -0.24319801 1.0057451
1.397063 -0.23231199 1.009012
1.458882 -0.232555 1.00754
1.460304 -0.232086 1.009953
1.496619 -0.233843 1.007915
1.453371 -0.225582 1.0090131
1.445875 -0.224076 1.00951
1.465794 -0.224271 1.008648
1.415769 -0.21596301 1.008489
1.4639831 -0.21684401 1.008033
1.4766411 -0.21773601 1.007163
1.419752 -0.213788 1.008586
1.440783 -0.21165299 1.0096101
1.456652 -0.213521 1.0071191
1.416023 -0.20932899 1.006088
1.447805 -0.20573799 1.0078059
1.422622 -0.20421 1.007465
1.4577709 -0.195582 1.008445
1.464076 -0.197303 1.0089999
1.4564331 -0.19367 1.006398
1.449026 -0.185256 1.007777
1.490129 -0.185513 1.006603
1.4173599 -0.18085299 1.006759
1.480783 -0.18158001 1.005273
1.44969 -0.178204 1.0061001
1.478436 -0.176321 1.009528
1.486938 -0.176157 1.006845
1.434285 -0.170424 1.009271
1.455122 -0.17352 1.005499
1.483459 -0.17107201 1.005278
1.474084 -0.168439 1.008377
1.450642 -0.158829 1.009725
1.484395 -0.249066 1.011703
1.457672 -0.2429215 1.012562
1.486432 -0.24165501 1.014184
1.400401 -0.235323 1.010898
1.409753 -0.236561 1.014394
1.4234461 -0.237884 1.014444
1.3966711 -0.230848 1.011831
1.439217 -0.228719 1.012637
1.424197 -0.22306401 1.01229
1.392081 -0.21708301 1.014248
1.454403 -0.219752 1.0143811
1.459149 -0.21582399 1.0145119
1.465553 -0.21768101 1.011207
1.450714 -0.21090101 1.012058
1.442384 -0.20789 1.011928
1.411343 -0.20145001 1.012664
1.431591 -0.204274 1.01064
1.468932 -0.20404699 1.013941
1.477465 -0.196981 1.011973
1.411008 -0.194002 1.011358
1.4286799 -0.187059 1.012799
1.488414 -0.18875401 1.0121109
1.4327996 -0.17843151 1.0122905
1.464115 -0.176496 1.011436
1.4776797 -0.17781265 1.0114681
1.439417 -0.16854399 1.01063
1.44318 -0.16935401 1.014279
1.445551 -0.169773 1.012694
1.473958 -0.165848 1.014258
1.4437 -0.162136 1.013132
1.458921 -0.161966 1.010025
1.523749 -0.25838101 1.019347
1.489599 -0.25218999 1.019339
1.457845 -0.24626 1.0152071
1.453002 -0.241514 1.015273
1.439926 -0.237431 1.019295
1.459199 -0.23770501 1.018676
1.423635 -0.232254 1.015293
1.429141 -0.234841 1.0195529
1.449488 -0.231371 1.016048
1.426167 -0.22962999 1.015775
1.4536951 -0.225381 1.019299
1.407521 -0.22109801 1.0191031
1.4545079 -0.222785 1.0184391
1.4022 -0.217473 1.0173301
1.413972 -0.214458 1.019421
1.439115 -0.210169 1.019249
1.4403321 -0.209602 1.0151891
1.447526 -0.20968001 1.015514
1.452253 -0.203693 1.018082
1.457112 -0.202548 1.017875
1.469506 -0.202911 1.0165401
1.429176 -0.198386 1.017343
1.43477 -0.195637 1.017078
1.424826 -0.194793 1.018326
1.436798 -0.192267 1.017965
1.406917 -0.18693601 1.016839
1.425643 -0.18832 1.017622
1.434955 -0.186359 1.017709
1.458691 -0.186497 1.0196919
1.460616 -0.18778899 1.018328
1.4059941 -0.178675 1.016629
1.4678515 -0.1784355 1.0180964
1.4264489 -0.165666 1.015413
1.463688 -0.16771699 1.018937
1.4299231 -0.161957 1.015011
1.462518 -0.25276101 1.022428
1.443727 -0.24541099 1.0208499
1.390426 -0.241643 1.02188
1.3994629 -0.24176151 1.0245194
1.451064 -0.243597 1.020238
1.388068 -0.23949 1.021329
1.424312 -0.237156 1.021456
1.414799 -0.233236 1.024861
1.451474 -0.23118 1.020841
1.460744 -0.229112 1.023451
1.417475 -0.221982 1.021858
1.406595 -0.219891 1.02229
1.425112 -0.216434 1.02124
1.453629 -0.219671 1.020187
1.407899 -0.21413299 1.022061
1.419713 -0.21358401 1.023823
1.4461631 -0.210852 1.023677
1.4009 -0.207534 1.022743
1.417824 -0.20726299 1.02087
1.401955 -0.20122699 1.023755
1.452832 -0.20411301 1.024861
1.44399 -0.1954 1.0209121
1.4245 -0.18337201 1.021737
1.470571 -0.182751 1.021893
1.428756 -0.179621 1.024545
1.4312119 -0.176645 1.024001
1.481602 -0.176085 1.022555
1.441288 -0.168825 1.022756
1.435405 -0.25432599 1.0296299
1.4481 -0.25035399 1.0257519
1.4179569 -0.247016 1.029609
1.435897 -0.24613599 1.0265909
1.388692 -0.24464101 1.026217
1.426782 -0.241881 1.029423
1.390366 -0.23958901 1.026431
1.418097 -0.239847 1.02756
1.4338 -0.23529799 1.025926
1.423412 -0.232403 1.028906
1.433802 -0.23465601 1.027585
1.394884 -0.228131 1.028648
1.383086 -0.224261 1.026565
1.418269 -0.22091 1.029754
1.43325 -0.22204199 1.028085
1.430804 -0.210141 1.025604
1.4468991 -0.21135101 1.029079
1.411505 -0.20607901 1.029273
1.4125381 -0.20121901 1.027285
1.4191515 -0.202501 1.028756
1.407637 -0.198493 1.027721
1.432356 -0.196263 1.028989
1.4460911 -0.195539 1.025826
1.400419 -0.19030599 1.02837
1.453526 -0.191294 1.025492
1.3969409 -0.185899 1.029026
1.450242 -0.188252 1.027717
1.4623719 -0.188085 1.0259171
1.43655 -0.17888699 1.0291409
1.415943 -0.17178699 1.0255539
1.43726 -0.17106301 1.028044
1.454644 -0.171331 1.026252
1.467652 -0.17149 1.028545
1.4198231 -0.168357 1.026131
1.447394 -0.16824999 1.028096
1.4456871 -0.257328 1.031583
1.438121 -0.251322 1.0346349
1.4520479 -0.25494501 1.0302629
1.390023 -0.240527 1.034748
1.4232579 -0.239004 1.0321341
1.426574 -0.239521 1.033594
1.3713109 -0.23446999 1.034152
1.444029 -0.230818 1.030184
1.394105 -0.225465 1.030522
1.399677 -0.226509 1.030687
1.402784 -0.226973 1.034487
1.438001 -0.22979 1.030619
1.384501 -0.223857 1.033317
1.4080729 -0.21924099 1.0344959
1.437057 -0.216969 1.031351
1.444684 -0.218933 1.0310071
1.390458 -0.213618 1.032822
1.431151 -0.21076 1.031756
1.453661 -0.214393 1.032761
1.4175299 -0.203256 1.0324661
1.413258 -0.197537 1.03187
1.4192491 -0.197184 1.032428
1.434755 -0.197942 1.031065
1.409889 -0.19250999 1.031494
1.440239 -0.194019 1.034409
1.430208 -0.189299 1.030702
1.3919261 -0.170572 1.034296
1.447392 -0.174805 1.033914
1.424495 -0.25732899 1.037014
1.429001 -0.257543 1.0369411
1.366762 -0.246198 1.039134
1.4123549 -0.248989 1.039057
1.422704 -0.24829701 1.035156
1.4269609 -0.242487 1.039284
1.423924 -0.239149 1.036063
1.374092 -0.23143899 1.038882
1.411986 -0.231114 1.037024
1.42931 -0.23388501 1.036691
1.385875 -0.226411 1.038511
1.399349 -0.228295 1.036333
1.411762 -0.22388101 1.0358599
1.427817 -0.22279951 1.0368075
1.417039 -0.216602 1.037486
1.39503 -0.211587 1.035054
1.392902 -0.208451 1.036152
1.426574 -0.206654 1.0368741
1.426946 -0.20412201 1.036005
1.3903821 -0.196666 1.03942
1.440102 -0.197322 1.038859
1.446515 -0.192403 1.03521
1.423228 -0.18881799 1.039819
1.413301 -0.18122999 1.0394109
1.42154 -0.182607 1.0375465
1.425596 -0.182356 1.038728
1.431702 -0.18235999 1.039645
1.439257 -0.183211 1.036059
1.405257 -0.1767845 1.0368625
1.409723 -0.174757 1.037251
1.443372 -0.17395601 1.037558
1.455238 -0.173259 1.0352941
1.435843 -0.26115099 1.041761
1.378425 -0.254812 1.044632
1.397315 -0.25081 1.042269
1.404442 -0.25223699 1.042611
1.384061 -0.24833 1.041031
1.4166501 -0.247444 1.041694
1.421963 -0.246352 1.04211
1.360932 -0.240518 1.044171
1.4028876 -0.24388501 1.0423834
1.377983 -0.233665 1.04206
1.387825 -0.233163 1.042726
1.4160759 -0.23301899 1.043882
1.416803 -0.222957 1.040181
1.420646 -0.2212 1.041226
1.36911 -0.21621101 1.044118
1.380015 -0.21970201 1.042902
1.406015 -0.215211 1.044438
1.431765 -0.218229 1.040836
1.393584 -0.212612 1.042745
1.419879 -0.211199 1.044103
1.378636 -0.208124 1.040203
1.402868 -0.20725501 1.0423485
1.4054281 -0.20791601 1.04416
1.437894 -0.206686 1.041173
1.431181 -0.202823 1.040087
1.3993829 -0.198631 1.041635
1.4245189 -0.198428 1.041923
1.446578 -0.199674 1.04207
1.387887 -0.193124 1.041423
1.428488 -0.186397 1.042755
1.385735 -0.18174399 1.043787
1.443455 -0.184038 1.040007
1.425522 -0.179636 1.042294
1.449785 -0.17768 1.043336
1.4365439 -0.26589599 1.046155
1.370079 -0.25384599 1.045963
1.38425 -0.25415 1.048422
1.4017396 -0.2486805 1.0469744
1.388999 -0.241235 1.0489841
1.417268 -0.243434 1.046333
1.365857 -0.239456 1.048184
1.37577 -0.23741201 1.046533
1.4056979 -0.236982 1.049024
1.3765996 -0.2323015 1.0477176
1.402182 -0.23021001 1.048177
1.409583 -0.23370799 1.046198
1.356532 -0.226091 1.048321
1.407186 -0.22501899 1.048009
1.417222 -0.225315 1.045707
1.382745 -0.217995 1.0478876
1.394346 -0.212019 1.046966
1.423292 -0.213567 1.048452
1.375589 -0.20518801 1.0470769
1.410349 -0.20691 1.048228
1.415012 -0.209445 1.04504
1.420374 -0.20767801 1.045269
1.364128 -0.200983 1.049355
1.410666 -0.200801 1.046066
1.37277 -0.19239201 1.047089
1.39884 -0.193747 1.046562
1.419899 -0.191265 1.045663
1.4216599 -0.193514 1.046502
1.425092 -0.18645699 1.048447
1.39493 -0.184029 1.045835
1.433305 -0.183292 1.0486391
1.4401979 -0.180692 1.045559
1.3828731 -0.177797 1.046693
1.367982 -0.260896 1.054711
1.417573 -0.26459599 1.050194
1.36106 -0.25774699 1.052093
1.3809429 -0.25905299 1.05006
1.413183 -0.25644699 1.053879
1.4238679 -0.25722101 1.051664
1.368278 -0.25171801 1.052763
1.390331 -0.25091499 1.053934
1.411697 -0.253454 1.0549999
1.350551 -0.246565 1.05419
1.411991 -0.249938 1.051888
1.365097 -0.238617 1.051199
1.398436 -0.235549 1.0525
1.411458 -0.23702499 1.052004
1.391027 -0.23496 1.050508
1.3952165 -0.232076 1.0521204
1.416682 -0.234891 1.0532219
1.397766 -0.227819 1.05269
1.361238 -0.224627 1.052524
1.370044 -0.221835 1.052901
1.371593 -0.21737701 1.0530419
1.3904541 -0.215933 1.052336
1.409449 -0.217741 1.052608
1.413659 -0.208507 1.051106
1.425528 -0.206668 1.051053
1.354391 -0.204092 1.050357
1.380345 -0.203026 1.0504709
1.390174 -0.19781899 1.050751
1.4022375 -0.1976175 1.052458
1.394622 -0.191249 1.053766
1.399093 -0.19195101 1.05246
1.409126 -0.19322599 1.052848
1.413662 -0.19386899 1.05494
1.431105 -0.19444001 1.051339
1.359146 -0.185755 1.0545909
1.375697 -0.188104 1.0548379
1.3860019 -0.18362001 1.054536
1.4042929 -0.185 1.054646
1.433603 -0.182428 1.050892
1.439495 -0.184955 1.05138
1.361084 -0.261024 1.05828
1.3768719 -0.261612 1.056769
1.3815629 -0.26135799 1.0577255
1.389569 -0.26282999 1.055256
1.367071 -0.25609201 1.057793
1.388819 -0.25513199 1.056109
1.3935291 -0.259987 1.058812
1.352493 -0.246406 1.05659
1.355881 -0.245777 1.059166
1.355235 -0.24212299 1.058931
1.374987 -0.243044 1.058238
1.377914 -0.241449 1.056906
1.399091 -0.243844 1.05945
1.394749 -0.235121 1.057606
1.3461519 -0.23213901 1.05834
1.41111 -0.23201901 1.056421
1.357023 -0.22669999 1.0586801
1.3601151 -0.223389 1.056435
1.400526 -0.224343 1.059604
1.417978 -0.220318 1.055015
1.384738 -0.219111 1.058748
1.388325 -0.216469 1.059729
1.365146 -0.211272 1.057156
1.400642 -0.21284799 1.058042
1.4117584 -0.2124745 1.0564945
1.364318 -0.206258 1.059269
1.402864 -0.205506 1.0567141
1.374987 -0.202629 1.055626
1.384423 -0.19014999 1.055976
1.403895 -0.190863 1.056275
1.394074 -0.183406 1.059267
1.416373 -0.182905 1.057
1.411828 -0.274214 1.063966
1.357406 -0.25731301 1.061771
1.391865 -0.258241 1.063025
1.397171 -0.25670901 1.061643
1.340171 -0.25261199 1.064209
1.383549 -0.25030199 1.064042
1.352628 -0.247421 1.063092
1.356102 -0.245795 1.063516
1.376564 -0.246462 1.063297
1.387259 -0.241179 1.0637209
1.376647 -0.23747499 1.061303
1.383872 -0.238902 1.063838
1.405336 -0.23619901 1.061465
1.346805 -0.23093501 1.062916
1.351263 -0.230948 1.063506
1.392907 -0.230299 1.063871
1.384023 -0.228531 1.0602961
1.3918149 -0.221929 1.062039
1.341753 -0.217712 1.062489
1.389021 -0.21785399 1.062068
1.410797 -0.21867301 1.061031
1.39144 -0.21213301 1.061208
1.3554845 -0.208764 1.0628614
1.370307 -0.20938601 1.061522
1.404439 -0.20690399 1.060483
1.366465 -0.201133 1.0616879
1.4028209 -0.202463 1.061334
1.36072 -0.196759 1.061331
1.384455 -0.199806 1.060573
1.390626 -0.199104 1.0619349
1.403818 -0.19764701 1.0649951
1.419292 -0.195107 1.06127
1.375067 -0.189248 1.063597
1.383413 -0.27216199 1.068944
1.377947 -0.26843101 1.066238
1.38893 -0.26957101 1.066198
1.3675931 -0.26427701 1.069481
1.3833261 -0.26310101 1.067867
1.382997 -0.25097701 1.065096
1.356462 -0.245801 1.065275
1.3869539 -0.24645901 1.0682859
1.394683 -0.249659 1.06567
1.360835 -0.24063 1.0661891
1.3821861 -0.241329 1.065611
1.335772 -0.238186 1.0683579
1.35112 -0.23056699 1.0687521
1.367529 -0.22632 1.067909
1.392511 -0.22867601 1.068114
1.372475 -0.22327501 1.065087
1.3878551 -0.222596 1.067355
1.404953 -0.220604 1.066509
1.366892 -0.210621 1.068818
1.401037 -0.214616 1.0674959
1.394555 -0.208441 1.067018
1.37845 -0.203262 1.066988
1.381646 -0.202571 1.069297
1.394097 -0.20067801 1.068076
1.404911 -0.202455 1.068839
1.385113 -0.196446 1.069726
1.398566 -0.195904 1.0674241
1.406015 -0.19895799 1.066815
1.358592 -0.190681 1.0656379
1.412783 -0.192478 1.069319
1.385141 -0.18627501 1.0658391
1.38214 -0.27066001 1.0744489
1.348594 -0.266785 1.072531
1.35209 -0.26820201 1.070596
1.376002 -0.26586699 1.071411
1.344069 -0.261049 1.072419
1.3967071 -0.26425901 1.070496
1.3297909 -0.25865999 1.074228
1.337574 -0.257705 1.073086
1.3647521 -0.25629601 1.073772
1.346742 -0.25253266 1.0713407
1.371991 -0.252422 1.074415
1.3696229 -0.2490685 1.071831
1.391091 -0.245436 1.071605
1.341288 -0.237268 1.074488
1.376426 -0.239124 1.074935
1.347705 -0.23321849 1.0714995
1.3707629 -0.23047601 1.070994
1.3776211 -0.234512 1.071404
1.361539 -0.228903 1.0741481
1.377412 -0.226889 1.073742
1.380374 -0.226872 1.07277
1.398679 -0.22246 1.071043
1.346138 -0.215339 1.073989
1.36027 -0.215746 1.072572
1.377409 -0.216602 1.070199
1.387745 -0.219942 1.074119
1.3571219 -0.214606 1.073217
1.363076 -0.211025 1.0745929
1.385195 -0.20830899 1.071578
1.350278 -0.202843 1.0714099
1.382614 -0.201924 1.070057
1.36138 -0.195207 1.074774
1.364449 -0.193561 1.0720725
1.379423 -0.193956 1.070609
1.388585 -0.19253799 1.074432
1.366756 -0.27142501 1.078807
1.335662 -0.26850301 1.0797859
1.377506 -0.26967299 1.076583
1.358947 -0.26293001 1.075639
1.332785 -0.25809401 1.077237
1.346414 -0.25788999 1.0789731
1.347108 -0.25297299 1.075833
1.361215 -0.252417 1.079259
