# .PCD v0.7 - Point Cloud Data file format
VERSION 0.7
FIELDS x y z
SIZE 4 4 4
TYPE F F F
COUNT 1 1 1
WIDTH 1600
HEIGHT 1
VIEWPOINT 0 0 0 1 0 0 0
POINTS 1600
DATA ascii
2.2958291 -0.57126701 1.355374
2.2351379 -0.56050003 1.357453
1.176867 -0.43727249 1.3582695
1.2043996 -0.43853998 1.3578025
1.169613 -0.431541 1.359786
1.171808 -0.43458399 1.359197
1.18694 -0.43455201 1.355379
1.169462 -0.426386 1.3552279
1.1803505 -0.4278385 1.3556581
1.174366 -0.41670501 1.3555731
1.196635 -0.41756201 1.3572789
1.163399 -0.41011101 1.355413
1.1668479 -0.41246599 1.357543
1.176025 -0.41236299 1.359697
1.189574 -0.41220599 1.356163
2.3158219 -0.62812901 1.3640161
2.2741129 -0.62294501 1.363917
2.3332641 -0.61482698 1.363732
2.201441 -0.60371202 1.3645101
2.3245261 -0.60350001 1.360486
2.2308371 -0.59485799 1.364383
2.232749 -0.58425498 1.360413
2.340368 -0.58122098 1.364987
2.2024629 -0.55385602 1.361318
1.177163 -0.440698 1.363134
1.17428 -0.438784 1.363354
1.177266 -0.43802899 1.360447
1.157851 -0.43434599 1.363029
1.1714129 -0.43373001 1.36459
1.1538121 -0.42905 1.360061
1.156736 -0.42972901 1.360958
1.180231 -0.42535701 1.362646
1.1687551 -0.42011499 1.3617899
1.173382 -0.42318201 1.361941
1.154122 -0.41580901 1.363273
1.165235 -0.41664299 1.363757
1.186654 -0.418354 1.36492
1.150708 -0.41429099 1.3630019
1.174789 -0.412848 1.361743
1.175402 -0.41286701 1.3628041
1.165701 -0.40564701 1.364382
2.2233379 -0.61184198 1.367754
2.293992 -0.61497301 1.367099
2.330862 -0.60637498 1.3683161
2.226738 -0.58925599 1.365696
2.226944 -0.56449902 1.365679
1.181262 -0.44006801 1.368443
1.1435781 -0.436876 1.369561
1.145224 -0.43697599 1.367571
1.1586015 -0.43797749 1.3676929
1.1643111 -0.43630901 1.367653
1.1726495 -0.4357565 1.3680456
1.181065 -0.43812501 1.368813
1.1425655 -0.43315148 1.3671684
1.149189 -0.432836 1.368908
1.1615421 -0.43054599 1.36839
1.1682515 -0.43276751 1.3676026
1.178737 -0.43286401 1.365473
1.186559 -0.432035 1.366501
1.147702 -0.42684501 1.367027
1.143082 -0.42359 1.369365
1.156011 -0.424041 1.368686
1.1707439 -0.422261 1.3659334
1.178919 -0.424512 1.365046
1.1949199 -0.42080799 1.365689
1.199169 -0.42369401 1.3659739
1.176582 -0.41940799 1.367275
1.195128 -0.41951701 1.366444
1.1761866 -0.412065 1.3679875
1.1899461 -0.412554 1.367083
1.1935641 -0.41431499 1.365478
1.168615 -0.40788001 1.366419
1.1862119 -0.409848 1.36628
2.2957649 -0.63196802 1.370494
2.219837 -0.62121898 1.3710901
2.218338 -0.618011 1.373939
2.2175341 -0.59208602 1.373019
2.3423221 -0.58732599 1.37357
2.1950409 -0.58316302 1.370523
2.2763319 -0.58180797 1.371752
2.2205589 -0.56899399 1.371524
2.2211399 -0.55569202 1.374063
1.172281 -0.44710201 1.372494
1.1463211 -0.44243401 1.37299
1.17163 -0.44472301 1.3740849
1.190497 -0.44201201 1.372504
1.1589479 -0.43561801 1.37045
1.135116 -0.431052 1.3749551
1.152912 -0.433786 1.3746639
1.169328 -0.43170899 1.3731689
1.1897939 -0.43116501 1.370532
1.163088 -0.42970499 1.373273
1.1715339 -0.42556801 1.370862
1.182183 -0.42506501 1.3737119
1.186294 -0.42970401 1.370145
1.1399 -0.422021 1.373232
1.153762 -0.422548 1.373263
1.1638891 -0.422052 1.371842
1.165661 -0.42189601 1.372877
1.1380171 -0.41847199 1.37059
1.1636634 -0.41763902 1.372407
1.166913 -0.419635 1.3721761
1.144631 -0.41199699 1.370031
1.1617351 -0.408595 1.3736449
1.165484 -0.409987 1.373286
2.299196 -0.63792098 1.379486
2.255048 -0.63289899 1.379958
2.187618 -0.61247098 1.379728
2.3077459 -0.61356199 1.3761081
2.1761351 -0.60540098 1.37805
2.2923839 -0.60690397 1.377311
2.2149889 -0.60163599 1.37593
2.2121589 -0.59774899 1.3797669
2.2856679 -0.59778899 1.379077
2.3248529 -0.59752399 1.37585
2.211729 -0.57232898 1.3782851
2.1886411 -0.56261498 1.376536
1.14847 -0.445041 1.379272
1.174332 -0.449561 1.378423
1.140658 -0.440795 1.379173
1.146665 -0.443351 1.378798
1.1628035 -0.44218951 1.377908
1.165298 -0.44001999 1.37512
1.15803 -0.437682 1.378175
1.178461 -0.432156 1.375294
1.175315 -0.42926401 1.376852
1.1502481 -0.42023101 1.3762749
1.15853 -0.42197499 1.3754359
1.16769 -0.421083 1.375502
1.172379 -0.42258599 1.378242
1.1647069 -0.41655499 1.377528
1.1667166 -0.41902199 1.377839
1.196092 -0.417045 1.378948
1.149042 -0.411239 1.378212
1.158321 -0.41440201 1.3777519
1.1627949 -0.410622 1.37879
1.165906 -0.410438 1.3785909
2.2716069 -0.62514198 1.383883
2.3106 -0.625386 1.381058
2.208123 -0.619672 1.38036
2.313612 -0.61634201 1.383783
2.3228481 -0.59147102 1.380603
2.21014 -0.58205301 1.380769
2.1724949 -0.57755899 1.3815891
1.172676 -0.45086199 1.383882
1.178354 -0.44685999 1.384056
1.1620545 -0.44179401 1.3821454
1.16624 -0.44468501 1.382979
1.172317 -0.44071701 1.380455
1.138849 -0.43870899 1.38283
1.156863 -0.43845099 1.381959
1.163993 -0.439064 1.38033
1.157042 -0.43028101 1.3847049
1.172469 -0.431685 1.380262
1.138503 -0.42733899 1.380976
1.142288 -0.428453 1.382769
1.153048 -0.429122 1.383119
1.1578 -0.426907 1.384654
1.166106 -0.42950001 1.381415
1.184595 -0.42713499 1.3802381
1.159592 -0.424714 1.381819
1.166765 -0.422499 1.380686
1.190835 -0.42310899 1.380825
1.194159 -0.41642401 1.3800761
2.3044701 -0.64082199 1.38691
2.203759 -0.62650502 1.388011
2.1482251 -0.61829698 1.385734
2.202318 -0.59991598 1.385625
2.29967 -0.59899497 1.3882
2.2838459 -0.59139401 1.389382
2.316443 -0.58022201 1.387967
2.2059801 -0.57748801 1.385595
1.1362979 -0.45147899 1.387278
1.154162 -0.45026499 1.388199
1.167673 -0.453385 1.3890949
1.144092 -0.44661501 1.387356
1.159164 -0.448524 1.389325
1.1430659 -0.44156924 1.3867543
1.173196 -0.44091401 1.3898391
1.1490459 -0.438786 1.38714
1.142727 -0.43080199 1.387004
1.1677605 -0.43246001 1.387519
1.139118 -0.42838299 1.38924
1.152985 -0.42833 1.38644
1.157114 -0.42619401 1.3874485
1.160836 -0.42810851 1.3892629
1.135727 -0.42386201 1.385788
1.146402 -0.42471099 1.38948
1.153803 -0.42290801 1.388052
1.1608109 -0.42031601 1.3850369
1.1427799 -0.417373 1.385347
1.166527 -0.417988 1.388085
1.181832 -0.416908 1.386312
1.188102 -0.41715601 1.387778
1.1443861 -0.414931 1.3898571
1.149977 -0.41457 1.385727
2.2911839 -0.62346798 1.3914829
2.246649 -0.61764002 1.391835
2.1975801 -0.60624301 1.393839
2.2736399 -0.60863602 1.391118
2.279989 -0.60263097 1.394681
2.1942921 -0.58882999 1.392316
2.166378 -0.58339697 1.390282
2.3064611 -0.58019203 1.393406
2.263397 -0.57910901 1.390358
2.174818 -0.57137299 1.391755
1.1715 -0.458424 1.393712
1.147763 -0.45345601 1.394245
1.155269 -0.45005399 1.390165
1.150113 -0.44663599 1.3908319
1.168463 -0.44606301 1.393477
1.147521 -0.44441301 1.394217
1.133209 -0.436542 1.3903
1.165556 -0.437255 1.391495
1.140231 -0.43307 1.390056
1.156829 -0.43097201 1.392252
1.17234 -0.431907 1.391555
1.135154 -0.42958599 1.3943419
1.137159 -0.41851801 1.392664
1.14794 -0.41897801 1.3947051
1.151324 -0.41851801 1.392943
1.163074 -0.419301 1.39388
1.14969 -0.414509 1.39381
2.2882769 -0.635764 1.398085
2.296582 -0.62615299 1.399003
2.1832919 -0.61519003 1.3990231
2.187103 -0.60774702 1.398231
2.2633541 -0.60810602 1.395758
2.2073669 -0.59465897 1.395058
2.228667 -0.56515503 1.395152
2.1907091 -0.56040299 1.396157
1.14773 -0.457535 1.398043
1.1599931 -0.45921999 1.398394
1.1706311 -0.45958301 1.399096
1.175644 -0.455594 1.399299
1.1469541 -0.45043099 1.395384
1.15194 -0.4515655 1.3964081
1.1591409 -0.45291999 1.396739
1.1672651 -0.45060501 1.3986191
1.144118 -0.44587201 1.398056
1.148995 -0.446758 1.39806
1.167438 -0.449238 1.3999
1.1435615 -0.43604249 1.3992525
1.1492826 -0.43798336 1.3969917
1.162149 -0.438162 1.396425
1.1825351 -0.43591499 1.395556
1.14194 -0.432273 1.399878
1.153458 -0.433218 1.396024
1.1429 -0.42925999 1.398576
1.1514935 -0.4273105 1.3975916
1.1610384 -0.421058 1.3966606
2.2876 -0.650365 1.401985
2.24968 -0.63513899 1.400388
2.1345191 -0.62698197 1.400823
2.2596791 -0.62865198 1.403615
2.1480689 -0.61268902 1.401374
2.2831709 -0.60901499 1.4034801
2.1673961 -0.60068101 1.400959
2.2382491 -0.60238099 1.403711
2.178443 -0.59560698 1.403862
2.151922 -0.59181899 1.404236
2.181298 -0.58798999 1.403497
2.291594 -0.584427 1.400292
2.2753091 -0.57588398 1.401454
1.189032 -0.465505 1.402748
1.1523275 -0.46069449 1.4031949
1.159987 -0.463943 1.401866
1.163717 -0.46204701 1.4041049
1.14985 -0.45768601 1.40057
1.158543 -0.45722601 1.401179
1.1449701 -0.454348 1.401325
1.159686 -0.454099 1.404933
1.143492 -0.449954 1.4003201
1.145396 -0.448443 1.403738
1.13359 -0.440227 1.401665
1.145072 -0.44338101 1.4003969
1.155196 -0.44382 1.4029011
1.165872 -0.44329399 1.401441
1.137131 -0.43823099 1.404676
1.14202 -0.43921801 1.401976
1.149534 -0.43535799 1.400079
1.153492 -0.43755299 1.403021
1.162184 -0.435076 1.403959
1.143243 -0.42741433 1.4038776
1.182801 -0.42597401 1.402423
1.138146 -0.42045 1.403375
1.140867 -0.42280999 1.400818
1.156625 -0.422939 1.403754
1.139763 -0.41867301 1.4017
1.151002 -0.41884601 1.400599
2.2503109 -0.63430899 1.405498
2.2280011 -0.62755603 1.4075249
2.2800109 -0.61875802 1.409994
2.183002 -0.61473697 1.40791
2.255101 -0.59107101 1.407634
2.293925 -0.59108001 1.405084
2.2721021 -0.58796197 1.406774
2.160995 -0.58013201 1.406973
2.212692 -0.57198697 1.406791
2.175494 -0.56823403 1.4087631
2.1852219 -0.56571901 1.405495
1.189006 -0.47394001 1.408564
1.157111 -0.46634701 1.405354
1.168669 -0.467287 1.409001
1.157304 -0.4578405 1.4081376
1.168031 -0.45772099 1.409405
1.1517451 -0.45270199 1.4094729
1.183266 -0.450149 1.4099081
1.144439 -0.447624 1.408865
1.147029 -0.445591 1.405928
1.152859 -0.44553301 1.409368
1.14614 -0.44247499 1.405625
1.164768 -0.44480699 1.406778
1.1696301 -0.44064099 1.406798
1.137417 -0.43732899 1.408305
1.143149 -0.43613601 1.406327
1.14387 -0.43056601 1.408922
1.161926 -0.433824 1.405856
1.127833 -0.428247 1.409912
1.139034 -0.42665201 1.407421
1.1558321 -0.42813599 1.4078
1.160243 -0.42816401 1.409169
1.134042 -0.423594 1.407298
1.147843 -0.42218599 1.409304
2.211297 -0.64611799 1.4106621
2.2547431 -0.63660198 1.4125741
2.1289649 -0.62557298 1.412416
2.132977 -0.62045598 1.413878
2.1435919 -0.62033403 1.41241
2.167444 -0.62196702 1.410569
2.241497 -0.61824799 1.4121619
2.2886939 -0.61148399 1.411097
2.2503369 -0.595963 1.414276
1.165133 -0.47050801 1.413939
1.1780005 -0.47412199 1.4132459
1.144479 -0.46523699 1.410861
1.152292 -0.46986499 1.4106261
1.166116 -0.46834001 1.414763
1.138021 -0.46301499 1.414523
1.151017 -0.46028799 1.4125201
1.16255 -0.462955 1.4135134
1.172933 -0.46432799 1.414542
1.145754 -0.457697 1.414284
1.1541409 -0.45332199 1.410133
1.1523155 -0.44246548 1.4117645
1.1496201 -0.43608999 1.4128309
1.141147 -0.43321899 1.413805
1.153968 -0.43445799 1.414551
1.158905 -0.430031 1.4144599
1.1634305 -0.4275465 1.4143965
1.151325 -0.42458501 1.413363
1.156978 -0.422355 1.410004
2.2710781 -0.65975797 1.416829
2.2281001 -0.64496702 1.416613
2.1208141 -0.63566601 1.415912
2.2360899 -0.63893098 1.4198821
2.0947289 -0.62526202 1.416885
2.104836 -0.62583899 1.416835
2.2424221 -0.62007898 1.41731
2.2196691 -0.61242002 1.419306
2.124155 -0.60614401 1.417217
2.153573 -0.60943902 1.416177
2.162595 -0.60238397 1.415409
2.1660831 -0.59582102 1.416103
2.2561619 -0.58630198 1.4173239
2.196717 -0.57881802 1.41843
2.1706431 -0.57421303 1.419567
1.179607 -0.47766301 1.415916
1.183731 -0.47432399 1.417393
1.162475 -0.46701199 1.416905
1.18432 -0.468353 1.418458
1.149842 -0.464802 1.415493
1.166669 -0.461968 1.4167629
1.146426 -0.45634201 1.41835
1.1726685 -0.45854652 1.4189315
1.1476409 -0.45105699 1.417335
1.162238 -0.452575 1.417954
1.142784 -0.44943699 1.415071
1.150641 -0.44678101 1.41704
1.17364 -0.44709301 1.4166141
1.148294 -0.44270101 1.4184
1.134428 -0.43513399 1.416083
1.139029 -0.437563 1.41716
1.1454411 -0.43731099 1.419176
1.145113 -0.43262401 1.418676
1.1775 -0.43479201 1.417068
2.234611 -0.64382702 1.420297
2.184428 -0.63771099 1.421232
2.1132419 -0.63229603 1.423871
2.203238 -0.62953901 1.422273
2.246978 -0.62216097 1.424479
2.233314 -0.60135698 1.423937
2.271745 -0.601753 1.421904
2.255486 -0.59792 1.421693
2.1193449 -0.586716 1.422019
2.1471729 -0.58889103 1.422191
2.157747 -0.58280098 1.420249
2.2179849 -0.58311301 1.4249049
2.1602781 -0.57606399 1.421369
1.1963191 -0.48663551 1.4232726
1.1824991 -0.48452899 1.423882
1.170603 -0.47677499 1.422869
1.175871 -0.475373 1.422842
1.202251 -0.47930801 1.423122
1.150418 -0.47127599 1.42206
1.1752191 -0.47114301 1.424347
1.157063 -0.46622899 1.423714
1.160118 -0.466268 1.422115
1.159286 -0.45988601 1.422206
1.177965 -0.458967 1.424553
1.145291 -0.45032901 1.424413
1.1504101 -0.453697 1.420125
1.1574435 -0.45200253 1.4218946
1.139679 -0.445072 1.422269
1.156563 -0.44798899 1.4211445
1.160982 -0.44649601 1.423088
1.166919 -0.44937599 1.4220411
1.137816 -0.44022799 1.42321
1.153964 -0.4442305 1.422385
1.177436 -0.44290799 1.422146
1.1570835 -0.4373365 1.4240251
1.1478865 -0.432762 1.4226556
1.1680779 -0.431766 1.4239939
1.149999 -0.42958799 1.424301
2.179781 -0.65441102 1.429987
2.2385769 -0.646029 1.4272209
2.219986 -0.62821901 1.428288
2.2345331 -0.60584903 1.429123
2.1508679 -0.60365099 1.428709
2.1622441 -0.60296798 1.42781
2.1081221 -0.594917 1.4278359
2.1145351 -0.56728798 1.42682
1.183315 -0.48514301 1.429369
1.192028 -0.488397 1.427115
1.1687396 -0.48176551 1.4276545
1.1982599 -0.48344401 1.429078
1.1678489 -0.477575 1.4284149
1.170278 -0.477072 1.426013
1.167305 -0.471147 1.427138
1.134228 -0.46592101 1.425668
1.155383 -0.468959 1.429238
1.167438 -0.46147299 1.425964
1.171383 -0.46009901 1.426913
1.1574249 -0.45161998 1.4295025
1.178417 -0.45347601 1.426193
1.145 -0.44363499 1.4284199
1.155005 -0.44240701 1.429256
1.168045 -0.44259101 1.425712
1.151193 -0.43859699 1.429931
1.1448489 -0.434728 1.425338
1.1525691 -0.43184501 1.428184
1.155295 -0.431025 1.429414
1.160905 -0.434423 1.429539
1.150324 -0.42848599 1.427591
2.254786 -0.669007 1.431444
2.1721051 -0.65502399 1.432265
2.176471 -0.653799 1.434347
2.1421559 -0.647551 1.43451
2.0904989 -0.63419199 1.430674
2.2267821 -0.62970501 1.432019
2.2014389 -0.622298 1.434657
2.2277939 -0.62166899 1.431766
2.13975 -0.61819798 1.4313951
2.1121271 -0.60862702 1.431605
2.123008 -0.60866398 1.432143
2.2113371 -0.59728301 1.431087
2.1450629 -0.58389503 1.433975
2.156065 -0.58270699 1.433638
2.2476611 -0.58336598 1.433691
1.204123 -0.49222201 1.430294
1.22017 -0.49208501 1.430293
1.190513 -0.48881799 1.433512
1.1813411 -0.48320699 1.432477
1.18541 -0.48272201 1.433761
1.167762 -0.475903 1.43435
1.197998 -0.47647199 1.4334871
1.16311 -0.47216901 1.434909
1.17668 -0.470101 1.431717
1.185972 -0.473342 1.434665
1.164432 -0.46645099 1.434279
1.1695859 -0.46937799 1.434739
1.171388 -0.466369 1.434859
1.157153 -0.46091199 1.432825
1.156381 -0.45976901 1.431385
1.169657 -0.45581499 1.4317271
1.162812 -0.454561 1.432893
1.1679519 -0.45341101 1.432611
1.16558 -0.447916 1.431761
1.172199 -0.44361001 1.431713
1.180339 -0.444316 1.430571
1.139616 -0.43861499 1.432579
1.1523041 -0.43744501 1.432688
1.1645451 -0.43952501 1.4321131
1.165779 -0.43705401 1.433241
1.172514 -0.4386 1.4339271
1.1332265 -0.43173301 1.4308009
2.212857 -0.64903402 1.435864
2.102793 -0.63599002 1.438886
2.1561799 -0.63966697 1.436155
2.2065561 -0.63251102 1.437453
2.130898 -0.61593902 1.438502
2.2118721 -0.61146998 1.4399641
2.222373 -0.61260402 1.4361449
2.239213 -0.60772002 1.436385
2.1168799 -0.58857203 1.437923
2.225131 -0.58446598 1.435712
2.0988121 -0.57401103 1.438275
1.179144 -0.492037 1.437315
1.1850899 -0.49287701 1.435781
1.172538 -0.48674649 1.4373685
1.178727 -0.486754 1.435923
1.183796 -0.486303 1.439847
1.187688 -0.48248199 1.439417
1.194018 -0.48385599 1.437819
1.170481 -0.47728601 1.4382499
1.179782 -0.47617501 1.437194
1.19818 -0.47724301 1.438082
1.177487 -0.47301701 1.437717
1.1780081 -0.4672845 1.438843
1.192435 -0.46781999 1.4359159
1.162428 -0.462282 1.4367075
1.176201 -0.46107599 1.436657
1.149708 -0.45724499 1.437404
1.161621 -0.459454 1.4353271
1.1708601 -0.455672 1.4395519
1.141942 -0.452815 1.436233
1.15249 -0.44786102 1.437587
1.160442 -0.443995 1.437047
1.13959 -0.43357301 1.436715
2.259624 -0.67482901 1.440389
2.222641 -0.65531301 1.441643
2.0761621 -0.64254498 1.444512
2.171802 -0.63793999 1.441469
2.0927091 -0.61959201 1.440128
2.2189529 -0.61558402 1.443741
2.087899 -0.60016298 1.444929
2.12605 -0.59635597 1.443341
2.2266431 -0.591618 1.440935
2.12695 -0.57710099 1.443422
2.1107531 -0.568479 1.443702
1.220463 -0.50069898 1.441422
1.198742 -0.49976501 1.4432451
1.204555 -0.49903101 1.441929
1.2084121 -0.496411 1.442881
1.187022 -0.492623 1.442822
1.196445 -0.49318498 1.442075
1.210279 -0.488729 1.443763
1.183543 -0.48232999 1.440415
1.186956 -0.48036599 1.444895
1.182572 -0.477193 1.4410014
1.164296 -0.47274199 1.444918
1.173018 -0.47497001 1.4441381
1.1892411 -0.472029 1.4435771
1.162352 -0.46584201 1.442645
1.165624 -0.46731201 1.442062
1.168892 -0.46053401 1.4441479
1.175966 -0.46076301 1.441003
1.179917 -0.45828599 1.442215
1.156041 -0.45035601 1.443961
1.1708989 -0.45312601 1.4436005
1.18661 -0.452196 1.442755
1.158201 -0.44515201 1.4416699
1.157272 -0.44456899 1.441187
1.162125 -0.44128501 1.440959
1.1597 -0.437235 1.440074
2.263289 -0.67765498 1.44748
2.185993 -0.66413498 1.448254
2.2039039 -0.66243201 1.4492249
2.187731 -0.64021099 1.445103
2.1679051 -0.63599902 1.445605
2.134083 -0.63288403 1.445925
2.204633 -0.63191903 1.447646
2.125927 -0.626957 1.446613
2.0590761 -0.62123197 1.4468729
2.1745951 -0.623097 1.449911
2.108551 -0.61708701 1.446097
2.1931729 -0.60728103 1.446345
2.2482679 -0.60456699 1.446909
2.129848 -0.59172499 1.446581
2.2069581 -0.594392 1.4466259
2.0830879 -0.58073503 1.449731
1.185115 -0.49811 1.448575
1.1949199 -0.49581999 1.446569
1.1963935 -0.4992215 1.4479125
1.183171 -0.49371099 1.4489909
1.196375 -0.49333999 1.445902
1.207523 -0.49307299 1.4498301
1.1836261 -0.485385 1.446438
1.173733 -0.481976 1.44561
1.180158 -0.484332 1.44698
1.1888371 -0.48427099 1.447816
1.169157 -0.478109 1.446104
1.169577 -0.47301501 1.446352
1.179077 -0.46529201 1.449989
1.188213 -0.468393 1.445029
1.1716599 -0.46089101 1.446064
1.192237 -0.46226501 1.445869
1.183475 -0.45634499 1.449989
1.1624399 -0.45191601 1.445176
1.174237 -0.45147601 1.445835
1.144033 -0.44553101 1.44557
1.168952 -0.446527 1.44517
1.186584 -0.44579101 1.449159
1.165041 -0.44124299 1.447387
1.173862 -0.44323099 1.449765
1.1476765 -0.43959498 1.4474555
2.1513309 -0.66367102 1.4501801
2.149261 -0.65661502 1.4511811
2.1900959 -0.65896499 1.451584
2.1362851 -0.64942002 1.451905
2.2149949 -0.64109302 1.453367
2.0769861 -0.62631601 1.451583
2.1204369 -0.61931199 1.453922
2.223166 -0.61737001 1.450848
2.1195271 -0.606408 1.4526269
2.102423 -0.596995 1.451877
2.241822 -0.59538198 1.450253
2.2315011 -0.59443802 1.4544441
1.205296 -0.50918102 1.45439
1.212146 -0.50891 1.454976
1.215343 -0.50697303 1.45408
1.205955 -0.50128198 1.451391
1.218294 -0.50133997 1.450156
1.23392 -0.50147301 1.450711
1.194387 -0.49545601 1.4519891
1.221534 -0.49809301 1.452545
1.1864154 -0.49242002 1.453095
1.19213 -0.49246201 1.450071
1.192863 -0.48908401 1.451558
1.211532 -0.485686 1.453794
1.181195 -0.480497 1.45117
1.189202 -0.48405701 1.454807
1.1914644 -0.4780615 1.450685
1.1776839 -0.471688 1.454262
1.158182 -0.46003899 1.452953
1.163731 -0.462394 1.4546191
1.167309 -0.463186 1.452352
1.156942 -0.45578 1.45094
1.163352 -0.450542 1.452442
1.182407 -0.45293 1.452238
1.165833 -0.44876501 1.454412
1.186293 -0.44728601 1.453656
1.164875 -0.44383699 1.452216
2.2682159 -0.68326998 1.456296
2.2310801 -0.66389501 1.457557
2.061825 -0.65089798 1.4583499
2.172852 -0.64947098 1.459273
2.1780131 -0.64766401 1.459736
2.1567991 -0.627415 1.455182
2.190778 -0.62141401 1.455721
2.150393 -0.61767602 1.459329
2.072176 -0.60688698 1.456385
2.2111249 -0.60146302 1.4554631
2.1146319 -0.59955603 1.459187
2.184907 -0.59226501 1.458032
2.113127 -0.585859 1.45864
2.0962961 -0.57690197 1.457656
1.234255 -0.51666301 1.458396
1.2285089 -0.51226002 1.4563709
1.245276 -0.51097101 1.455657
1.179554 -0.50544202 1.458607
1.203917 -0.50636703 1.455386
1.205605 -0.507083 1.456825
1.226149 -0.50999099 1.457202
1.186132 -0.50372303 1.4578871
1.204604 -0.499578 1.458637
1.1912889 -0.486687 1.458094
1.177462 -0.48192701 1.457206
1.18659 -0.48247001 1.458365
1.180788 -0.47607699 1.45794
1.186983 -0.47840199 1.459872
1.179846 -0.470465 1.455112
1.196807 -0.47014701 1.459689
1.174971 -0.466506 1.455403
1.175368 -0.468371 1.459518
1.197132 -0.46532899 1.457846
1.186529 -0.46172601 1.455153
1.148451 -0.452447 1.4585609
1.173359 -0.453529 1.458227
1.179747 -0.453334 1.456062
1.181605 -0.44591901 1.459779
2.247164 -0.68669599 1.4617471
2.2123671 -0.67074603 1.464892
2.140558 -0.66803801 1.463717
2.072608 -0.65152401 1.4638931
2.111026 -0.64689898 1.461262
2.142839 -0.646025 1.461341
2.1411879 -0.641949 1.4625961
2.181941 -0.64199603 1.463266
2.1121049 -0.63571501 1.461831
2.055748 -0.63097203 1.464082
2.0612619 -0.633039 1.463039
2.094094 -0.62550998 1.4600509
2.224777 -0.61505401 1.4628021
2.076185 -0.60456502 1.461836
2.215461 -0.60303998 1.462662
1.236272 -0.52020401 1.462913
1.2170219 -0.51744699 1.463695
1.209743 -0.513354 1.462595
1.187615 -0.50066799 1.46206
1.206539 -0.503326 1.460181
1.212364 -0.50181901 1.462284
1.198123 -0.49706 1.462513
1.184669 -0.493386 1.461238
1.206483 -0.49307299 1.461096
1.2202621 -0.494311 1.464512
1.228613 -0.486431 1.462518
1.1807081 -0.480138 1.4617831
1.215395 -0.48282799 1.4602
1.217424 -0.47819701 1.463131
1.183484 -0.472294 1.463045
1.205785 -0.470238 1.4616849
1.193172 -0.46732101 1.462693
1.1744061 -0.46034899 1.4634531
1.175366 -0.46079749 1.4628284
1.2012939 -0.46392801 1.462788
1.169432 -0.456514 1.463697
1.171742 -0.45798999 1.462085
1.170766 -0.45126551 1.4630976
1.166115 -0.44673201 1.463814
1.174603 -0.44624299 1.462176
1.162963 -0.44412699 1.460471
2.154494 -0.67449301 1.469698
2.132102 -0.66584802 1.4658099
2.0348461 -0.65608102 1.466499
2.050349 -0.65919203 1.469692
2.142344 -0.65904802 1.4698581
2.223433 -0.64967501 1.46928
2.0668509 -0.63192803 1.469117
2.154362 -0.63306701 1.465676
2.2316699 -0.62601799 1.466885
2.105705 -0.61516702 1.467845
2.1723101 -0.61239398 1.4681931
2.087966 -0.60541701 1.465831
2.22051 -0.60583699 1.466413
1.281425 -0.52879399 1.468165
1.211242 -0.51876098 1.468974
1.2282391 -0.51889497 1.466184
1.209092 -0.512968 1.467528
1.21896 -0.51408303 1.46613
1.221455 -0.51297802 1.465397
1.231009 -0.51058698 1.466431
1.194438 -0.50758201 1.469728
1.2368 -0.50663197 1.469519
1.189151 -0.50076097 1.467836
1.213034 -0.503802 1.4697371
1.1804481 -0.49202901 1.466076
1.185675 -0.49412 1.46813
1.19267 -0.48844299 1.46962
1.198741 -0.487378 1.4670351
1.178727 -0.47968799 1.469061
1.198001 -0.47654349 1.4667295
1.20082 -0.477236 1.4672149
1.171753 -0.47014299 1.465421
1.181051 -0.472478 1.4666589
1.2063251 -0.471174 1.465839
1.174557 -0.46735501 1.4698679
1.1811039 -0.46772099 1.4681849
1.187328 -0.46913099 1.466038
1.17187 -0.445871 1.465355
2.252491 -0.69234401 1.470596
2.2395179 -0.67247701 1.473471
2.047488 -0.65925002 1.472188
2.131346 -0.65691 1.472195
2.181251 -0.657722 1.474823
2.0455389 -0.639763 1.474494
2.1700339 -0.63119298 1.471218
2.188483 -0.63461602 1.472315
2.1331151 -0.62728298 1.4740109
2.0610931 -0.61233199 1.47434
2.1670439 -0.60222501 1.472952
2.2100739 -0.60460901 1.470214
2.216481 -0.59779203 1.474686
2.089505 -0.59032798 1.471274
2.099304 -0.59461802 1.473858
1.311366 -0.53990197 1.472836
1.337023 -0.53757 1.474106
1.272103 -0.52668202 1.471624
1.258078 -0.523543 1.4709229
1.2759939 -0.52403599 1.473474
1.255607 -0.51661402 1.471851
1.1970561 -0.51025498 1.471095
1.2491651 -0.51092899 1.474918
1.203734 -0.50982398 1.472683
1.235211 -0.50753301 1.473364
1.204289 -0.50440699 1.472581
1.219605 -0.50386101 1.474581
1.204231 -0.49575701 1.473083
1.225222 -0.495029 1.474378
1.233896 -0.499374 1.4715019
1.214811 -0.490289 1.4713629
1.181906 -0.488884 1.470274
1.203398 -0.48638999 1.470305
1.207333 -0.48757148 1.4722614
1.20456 -0.483854 1.473541
1.212454 -0.482371 1.4711421
1.190207 -0.47081301 1.4709719
1.18041 -0.466454 1.474774
1.175511 -0.46248701 1.4749531
1.1951571 -0.46139801 1.473334
1.211518 -0.462354 1.470065
1.166044 -0.458359 1.473635
1.183285 -0.455452 1.4702981
1.190942 -0.45936999 1.473107
1.200341 -0.456092 1.47368
2.2556031 -0.69527799 1.477661
2.1973031 -0.67977703 1.478914
2.077091 -0.65000701 1.4753979
2.1240909 -0.65129501 1.477137
2.13254 -0.65135199 1.475204
2.0982821 -0.64447403 1.477049
2.162529 -0.629116 1.47655
2.2016411 -0.62536198 1.478416
2.078505 -0.61668801 1.477981
2.146436 -0.61676002 1.477096
2.073509 -0.61383998 1.479785
2.2239649 -0.61168802 1.478698
2.055336 -0.59273499 1.479563
2.093612 -0.58762997 1.477059
1.3373539 -0.54112399 1.475895
1.2629009 -0.53391898 1.477568
1.22725 -0.527834 1.479362
1.2497129 -0.52564698 1.478088
1.258399 -0.52753001 1.475998
1.2159081 -0.52037102 1.475543
1.23181 -0.52239954 1.476372
1.236038 -0.52156103 1.478924
1.25516 -0.52100599 1.477077
1.221864 -0.51518899 1.4752769
1.236864 -0.51997298 1.478308
1.219058 -0.51327902 1.478592
1.2054991 -0.50690699 1.477237
1.191646 -0.500193 1.47939
1.2006741 -0.50134897 1.479596
1.215677 -0.50123501 1.477391
1.188611 -0.49545601 1.478076
1.197363 -0.487627 1.4788671
1.1802649 -0.48405901 1.4764251
1.200933 -0.480073 1.476208
1.1761971 -0.47710001 1.478489
1.1875105 -0.47887349 1.477008
1.200567 -0.47257099 1.478166
1.2079605 -0.47456899 1.4784075
1.172785 -0.46599099 1.476885
1.183512 -0.46071401 1.478073
1.1938629 -0.46195599 1.4760115
1.208488 -0.46295199 1.479133
1.1752239 -0.45704001 1.476498
1.185403 -0.455064 1.475502
2.1391521 -0.67484301 1.482353
2.034626 -0.66591501 1.481148
2.086082 -0.66585797 1.484243
2.0973361 -0.668459 1.482637
2.1460021 -0.656847 1.480858
2.123497 -0.64070702 1.48349
2.1344819 -0.642874 1.481186
2.051759 -0.63969499 1.481621
2.2157869 -0.63545501 1.481003
2.091882 -0.62392497 1.483063
2.073657 -0.59710503 1.48282
2.106149 -0.58792597 1.481681
1.280964 -0.54149401 1.482955
1.263067 -0.53596598 1.480279
1.2679549 -0.53643501 1.4843839
1.234097 -0.53102899 1.484189
1.25109 -0.53372103 1.480889
1.246276 -0.52609903 1.482336
1.241601 -0.52095401 1.482819
1.214739 -0.51512098 1.483718
1.226794 -0.51861602 1.481241
1.233897 -0.51977098 1.4829921
1.198854 -0.51180798 1.482633
1.227585 -0.51064098 1.481874
1.22656 -0.50459999 1.480755
1.2491699 -0.50493902 1.484109
1.198016 -0.498061 1.480921
1.2430969 -0.495635 1.482869
1.2103159 -0.49288601 1.482075
1.229028 -0.49216101 1.481073
1.2269861 -0.48792699 1.484429
1.205865 -0.47709301 1.4817261
1.219434 -0.47947201 1.482324
1.198647 -0.47311199 1.481902
1.182173 -0.46753299 1.48434
1.222123 -0.467347 1.484596
1.17497 -0.45633799 1.483114
2.1297109 -0.68410099 1.485086
2.247957 -0.681059 1.4893841
2.03315 -0.66760302 1.486027
2.042424 -0.66705799 1.488901
2.2318721 -0.65825701 1.485194
2.0700691 -0.65135598 1.485846
2.0298159 -0.646487 1.485949
2.0651801 -0.64235502 1.487959
2.1969459 -0.64292902 1.487982
2.0660391 -0.632191 1.489665
2.094388 -0.63388199 1.489715
2.0626571 -0.623465 1.489527
2.20436 -0.61953503 1.4855551
2.153964 -0.61131603 1.487808
2.174262 -0.61143202 1.489887
2.1889949 -0.61461002 1.485719
2.0854819 -0.60337698 1.489076
2.138509 -0.60045302 1.488517
2.0673821 -0.59374702 1.485564
1.2631476 -0.5415985 1.487399
1.244405 -0.53737003 1.485996
1.25073 -0.53512502 1.4867131
1.269971 -0.53577203 1.487482
1.29283 -0.539132 1.4898289
1.238073 -0.530213 1.488091
1.255271 -0.53258502 1.486703
1.233681 -0.524988 1.48803
1.243161 -0.52452701 1.486467
1.221498 -0.51600099 1.487649
1.232424 -0.51651198 1.489035
1.212065 -0.51462901 1.485707
1.2168649 -0.51142102 1.485427
1.2209535 -0.50836998 1.4866171
1.228156 -0.50371301 1.489197
1.230935 -0.50418299 1.48567
1.199756 -0.49505299 1.4855011
1.2135791 -0.49553701 1.48864
1.221646 -0.49591699 1.489869
1.186236 -0.49013099 1.487685
1.209764 -0.490493 1.485752
1.217791 -0.49420801 1.4881785
1.194693 -0.48756301 1.48747
1.221537 -0.48847401 1.485474
1.196609 -0.482703 1.48897
1.222845 -0.476789 1.488782
1.186413 -0.47255999 1.486095
1.191172 -0.47476301 1.487003
1.170488 -0.465316 1.486704
1.204651 -0.46509999 1.488678
1.2008899 -0.46222401 1.486367
1.205593 -0.46337199 1.48979
2.1623261 -0.69447798 1.494437
2.0985229 -0.68389398 1.494398
2.1896501 -0.66597301 1.490373
2.1109779 -0.66101801 1.490203
2.1311409 -0.66029 1.49368
2.08446 -0.65323299 1.492267
2.0366671 -0.64746201 1.4941241
2.2001369 -0.64474797 1.494907
2.137511 -0.63920099 1.4920191
2.1402211 -0.636347 1.490682
2.1515241 -0.635077 1.490204
2.059052 -0.622262 1.493739
2.2081411 -0.62123501 1.492727
2.0620091 -0.61302698 1.493484
2.0903621 -0.61441803 1.4936531
2.1934171 -0.60824698 1.490198
2.0578079 -0.60388201 1.494367
2.154074 -0.59824997 1.494182
1.313096 -0.55051398 1.493452
1.266435 -0.54252648 1.4928675
1.278792 -0.54473501 1.490016
1.2864619 -0.544249 1.49393
1.3114409 -0.54103398 1.4902689
1.2567155 -0.53937697 1.4933364
1.270617 -0.53877801 1.49156
1.2331445 -0.52531099 1.4923694
1.26421 -0.52656698 1.493413
1.222921 -0.52329397 1.490271
1.239282 -0.52122903 1.490206
1.262085 -0.52065498 1.492444
1.247048 -0.51995599 1.490665
1.2235481 -0.51322299 1.492588
1.228429 -0.51094103 1.494905
1.245736 -0.51400501 1.4934779
1.2093 -0.50500399 1.492058
1.233602 -0.50683999 1.491249
1.204829 -0.50038803 1.492131
1.206202 -0.50242901 1.4941061
1.199668 -0.495516 1.493095
1.205561 -0.485291 1.491089
1.213993 -0.48735601 1.49356
1.2250071 -0.48839301 1.493032
1.194013 -0.483199 1.493764
1.2146651 -0.48037699 1.4905519
1.216397 -0.48124 1.491672
1.223197 -0.48058501 1.493735
1.237028 -0.48034099 1.4908201
1.203851 -0.47975099 1.494112
1.210294 -0.47965199 1.491854
1.206389 -0.47368601 1.490325
1.2165149 -0.472348 1.490193
1.213647 -0.46391499 1.490271
2.2292919 -0.68737298 1.496226
2.0188129 -0.67595601 1.4998651
2.0670471 -0.67489499 1.498902
2.1212931 -0.66660601 1.496151
2.0443499 -0.66095102 1.496021
2.053591 -0.65678501 1.4957
2.0819161 -0.65886098 1.496169
2.103754 -0.65009302 1.498381
2.1148441 -0.65252298 1.496437
2.040355 -0.64163601 1.499928
2.078059 -0.63268399 1.498281
2.0309091 -0.62786603 1.499348
2.152545 -0.62646699 1.4951971
2.189235 -0.62902099 1.499527
2.0689859 -0.62304699 1.4970061
2.1417279 -0.624475 1.497849
2.1965909 -0.60552102 1.497188
2.1412821 -0.59724897 1.499139
2.0863371 -0.594953 1.4975899
2.0529599 -0.58429903 1.499207
1.3207721 -0.55315298 1.4971631
1.2444201 -0.53125501 1.4994791
1.247685 -0.53161001 1.499771
1.250053 -0.53371698 1.496038
1.258963 -0.53342801 1.496436
1.263851 -0.531784 1.497506
1.2653029 -0.53297001 1.49843
1.288933 -0.53403902 1.495254
1.2439359 -0.52894402 1.497229
1.232604 -0.52004099 1.496477
1.2164479 -0.516352 1.495092
1.2660379 -0.51714599 1.496932
1.2169009 -0.509417 1.498197
1.215746 -0.50416797 1.495936
1.226241 -0.50114 1.496743
1.233956 -0.50494802 1.495805
1.2422476 -0.50257897 1.4986095
1.2276551 -0.49603701 1.499658
1.2410409 -0.49802601 1.4977371
1.220506 -0.49074501 1.496299
1.2363009 -0.49300399 1.499477
1.215708 -0.48119399 1.497864
1.204123 -0.477247 1.498868
1.1865799 -0.47453499 1.4973969
1.1907459 -0.470503 1.4973691
1.203804 -0.47355801 1.499055
1.208703 -0.471187 1.49912
1.2371891 -0.472803 1.498174
1.1849819 -0.4619 1.495139
1.1926171 -0.46093699 1.49587
2.1328471 -0.69483 1.504436
2.1032979 -0.67793202 1.500302
2.089783 -0.670524 1.504957
2.1748829 -0.674972 1.5041029
2.24031 -0.666839 1.501107
2.0507231 -0.650778 1.501913
2.2054081 -0.65124297 1.503649
2.0778899 -0.63939703 1.500107
2.046808 -0.63024199 1.501074
2.129019 -0.62155497 1.50318
2.132148 -0.62168097 1.502097
2.1434381 -0.61825103 1.5017869
2.0716591 -0.61213499 1.504294
2.200495 -0.60701501 1.50445
2.0631821 -0.60329098 1.5022711
1.26772 -0.55164498 1.503957
1.274352 -0.55348498 1.5039279
1.261149 -0.545784 1.504889
1.268384 -0.54291153 1.5020205
1.2770391 -0.54407704 1.502671
1.25615 -0.535245 1.5009429
1.247901 -0.53118348 1.5022135
1.251636 -0.52965701 1.500653
1.239426 -0.522255 1.502787
1.244117 -0.521366 1.504541
1.2388361 -0.51351798 1.50353
1.25824 -0.51032501 1.500053
1.210909 -0.50635999 1.503386
1.227134 -0.50986898 1.504863
1.234831 -0.50802201 1.5023741
1.2177711 -0.50129801 1.500901
1.256215 -0.504875 1.500505
1.20386 -0.49488699 1.500398
1.209994 -0.49233499 1.504223
1.2108589 -0.48884401 1.501731
1.220059 -0.48576799 1.504452
1.23769 -0.48878399 1.502874
1.208029 -0.48226401 1.504362
1.18827 -0.47134399 1.502028
1.210797 -0.471138 1.500057
1.217876 -0.4721005 1.5009999
1.2105269 -0.46775201 1.504195
2.185755 -0.70753902 1.5064501
2.0279789 -0.66642302 1.506333
2.1142349 -0.669424 1.50787
2.037112 -0.66221303 1.505554
2.070637 -0.661991 1.507486
2.021574 -0.65522897 1.506628
2.035809 -0.65660298 1.507781
2.1231301 -0.64573598 1.505007
2.1296229 -0.64495897 1.505203
2.044595 -0.63068497 1.507692
2.192549 -0.63063598 1.506541
2.1582921 -0.61630899 1.509199
2.04196 -0.610659 1.505913
2.144619 -0.61015999 1.506617
2.1338141 -0.60813999 1.5092371
2.0769911 -0.604913 1.509824
2.078656 -0.59675002 1.508086
1.314009 -0.562621 1.506853
1.3048609 -0.550156 1.505505
1.28241 -0.54634798 1.505652
1.257602 -0.54426599 1.506099
1.263449 -0.54055703 1.509729
1.269405 -0.54240501 1.508069
1.289843 -0.54256302 1.50831
1.239409 -0.53156 1.5090671
1.250017 -0.530999 1.5074019
1.264354 -0.53117198 1.50618
1.23864 -0.52618003 1.507861
1.244931 -0.528983 1.506412
1.249378 -0.52728152 1.5091195
1.228045 -0.52026403 1.505813
1.234224 -0.52094698 1.507686
1.237666 -0.51591599 1.505469
1.242046 -0.51516098 1.505029
1.259444 -0.51982898 1.506181
1.243733 -0.514687 1.508834
1.259109 -0.51499999 1.505868
1.237018 -0.50475901 1.509778
1.210881 -0.49553999 1.5061229
1.237114 -0.498988 1.509681
1.2090549 -0.48638999 1.506323
1.2131445 -0.4895075 1.507184
1.234912 -0.48936799 1.506567
1.250344 -0.489095 1.5085649
1.2377549 -0.484624 1.506245
1.198653 -0.467076 1.507254
2.059715 -0.68689603 1.512408
2.0729909 -0.68105501 1.5107189
2.095562 -0.662018 1.511447
2.0843711 -0.65932798 1.513037
2.1406729 -0.650024 1.511536
2.2085121 -0.653265 1.510699
2.023984 -0.64710802 1.51024
2.0642359 -0.64144301 1.513499
2.070173 -0.64084601 1.510319
2.0158169 -0.63563299 1.511852
2.0309601 -0.63701999 1.51262
2.1326799 -0.63632798 1.510466
2.1743441 -0.63836497 1.51329
2.121757 -0.63406998 1.512754
2.0573659 -0.62544698 1.514436
2.066112 -0.62153298 1.514167
2.0953071 -0.62305999 1.514719
2.047966 -0.611121 1.514878
2.1240749 -0.607014 1.513512
2.120528 -0.60390902 1.514341
2.1353519 -0.60142499 1.513371
2.065259 -0.59158701 1.510307
1.310882 -0.56104499 1.5107059
1.292846 -0.55682999 1.513392
1.295691 -0.55993199 1.514982
1.2971475 -0.550915 1.5115335
1.2873009 -0.54686803 1.514846
1.302578 -0.54943949 1.5117846
1.26308 -0.5423165 1.5135374
1.26838 -0.54105699 1.512484
1.257782 -0.53569502 1.512032
1.261291 -0.53689098 1.514865
1.276497 -0.53045398 1.5137711
1.2462389 -0.52614701 1.510247
1.258341 -0.51515597 1.513647
1.233639 -0.510351 1.511124
1.238863 -0.51368898 1.5143631
1.222268 -0.50833899 1.5141259
1.2381819 -0.50901598 1.513043
1.231397 -0.50288802 1.5137089
1.24572 -0.501647 1.513721
1.205369 -0.49636799 1.51168
1.221665 -0.499697 1.513249
1.238642 -0.49834201 1.513617
1.253076 -0.49881801 1.5129499
1.2045515 -0.4810825 1.51328
1.2101589 -0.48338601 1.510251
1.232182 -0.482815 1.514333
1.208397 -0.47736701 1.513604
1.216943 -0.47717601 1.511436
1.246299 -0.47784299 1.513333
1.213876 -0.47039601 1.512161
1.228843 -0.47407401 1.514518
1.989278 -0.68480903 1.519606
2.0730121 -0.68423301 1.5164419
2.0434501 -0.67911601 1.5158319
2.07428 -0.67848903 1.5194401
2.124428 -0.67733598 1.515501
1.974853 -0.67386597 1.516333
2.0116079 -0.67189503 1.516644
2.020633 -0.667642 1.515408
2.0064831 -0.66299599 1.519132
2.0199599 -0.66338003 1.519327
2.1903961 -0.66042 1.517381
2.0362661 -0.65920001 1.515867
2.081897 -0.65411299 1.516255
2.1151199 -0.63118303 1.5163341
2.0578361 -0.62089401 1.5195121
2.0261121 -0.61743701 1.51746
2.1849611 -0.61652499 1.518175
2.0533409 -0.60598201 1.518374
2.025022 -0.60471898 1.51701
2.0620511 -0.60222 1.518016
1.2933969 -0.56683499 1.519434
1.315701 -0.56781298 1.519875
1.3455679 -0.56860602 1.51758
1.352059 -0.56976098 1.517938
1.298611 -0.564551 1.5187629
1.286575 -0.55711365 1.5169083
1.282233 -0.5508725 1.5160785
1.281307 -0.54399103 1.5183049
1.302006 -0.54418498 1.517332
1.266324 -0.53814799 1.515465
1.272893 -0.53665799 1.515263
1.271998 -0.53239 1.519495
1.247894 -0.52898502 1.518243
1.257628 -0.52858102 1.518116
1.278906 -0.52710003 1.518882
1.2332599 -0.51679951 1.5166454
1.2572355 -0.51800549 1.517781
1.228654 -0.51090002 1.5160249
1.240012 -0.51066703 1.51801
1.242011 -0.50599003 1.516344
1.214427 -0.499378 1.5173579
1.231039 -0.48993501 1.517828
1.236588 -0.48264199 1.5172271
1.206216 -0.47744799 1.517527
1.20469 -0.47321501 1.5186369
1.2157609 -0.47442901 1.516476
2.135982 -0.70556003 1.523785
2.0521009 -0.671233 1.523378
2.056814 -0.67075002 1.522704
1.985369 -0.66628897 1.522925
2.064976 -0.662579 1.521271
1.970889 -0.65469903 1.520211
2.0076129 -0.65258002 1.520552
2.1301811 -0.65473098 1.521549
2.0535669 -0.64631599 1.520249
2.087827 -0.64610302 1.522593
2.0151119 -0.64379698 1.5241669
2.030138 -0.639108 1.521646
2.2009239 -0.639153 1.522334
2.003618 -0.63326597 1.524459
2.040868 -0.630961 1.524828
2.1321819 -0.63237798 1.522697
2.0495059 -0.62700301 1.524097
2.1485829 -0.62862998 1.520455
2.1666911 -0.62456101 1.524749
2.150728 -0.61986703 1.524718
2.062413 -0.61340702 1.523895
2.0421619 -0.59136498 1.520143
2.0591409 -0.59399098 1.5212981
1.328728 -0.57170701 1.5239331
1.334126 -0.57281798 1.521324
1.3355809 -0.570539 1.524856
1.3766969 -0.56889999 1.521605
1.3078181 -0.56083798 1.523351
1.291013 -0.556912 1.522874
1.312108 -0.55609202 1.523432
1.278012 -0.55431002 1.5240099
1.285393 -0.55377501 1.522895
1.2940309 -0.55173051 1.5208685
1.268289 -0.54759002 1.5238349
1.275955 -0.54044998 1.524855
1.268211 -0.53681099 1.52151
1.27466 -0.53504199 1.522715
1.2567199 -0.53118998 1.520821
1.246397 -0.52669603 1.521439
1.2524855 -0.52553153 1.5215105
1.254982 -0.52377898 1.523158
1.260133 -0.52382302 1.520496
1.26688 -0.52029997 1.521951
1.270584 -0.51455998 1.521889
1.2277009 -0.50583601 1.524632
1.223085 -0.50085402 1.5243649
1.2534879 -0.50055599 1.521957
1.216491 -0.49641401 1.522439
1.2325211 -0.49752998 1.52193
1.252327 -0.49913999 1.5211149
1.2397389 -0.49078101 1.5221781
1.216195 -0.48952499 1.5216351
1.2251281 -0.48986 1.5219491
1.237285 -0.489905 1.520631
1.223089 -0.48321399 1.522814
1.247043 -0.48263499 1.520033
2.0297289 -0.69254303 1.527514
2.04684 -0.69024903 1.525484
2.00896 -0.68974 1.526034
2.004154 -0.67307001 1.525262
2.0218091 -0.66762298 1.529821
2.116009 -0.659841 1.526565
2.0001249 -0.65390497 1.52908
2.0504141 -0.65020102 1.528717
2.1827431 -0.64661598 1.5288399
2.1020291 -0.64350998 1.5274071
2.0740099 -0.63770097 1.527553
2.010263 -0.62421399 1.529006
2.0327511 -0.61895198 1.5274841
2.1071091 -0.61663002 1.527661
2.1399751 -0.61778402 1.527353
2.0368431 -0.61149597 1.528766
2.1130731 -0.606475 1.529599
1.355372 -0.57874101 1.528335
1.307469 -0.56904602 1.527658
1.292147 -0.56303197 1.528475
1.297156 -0.56154501 1.526511
1.315454 -0.56077099 1.52791
1.287766 -0.556678 1.5278651
1.300156 -0.555282 1.529415
1.2836961 -0.55236399 1.529726
1.2922759 -0.55357701 1.5273786
1.271528 -0.5469985 1.5275609
1.281963 -0.54702997 1.525203
1.29216 -0.54285997 1.527927
1.25612 -0.53993601 1.528114
1.2745841 -0.53377402 1.527474
1.262229 -0.52594501 1.529967
1.269238 -0.52521002 1.527959
1.275244 -0.52895999 1.526467
1.239207 -0.522147 1.52763
1.252115 -0.52362299 1.529176
1.241959 -0.51663399 1.526746
1.246582 -0.51549202 1.528802
1.251806 -0.51660502 1.526504
1.266134 -0.51599002 1.5258321
1.240585 -0.51469898 1.529802
1.2730629 -0.51099902 1.526634
1.249385 -0.509278 1.52583
1.250984 -0.50836301 1.526073
1.227289 -0.50362301 1.525023
1.245399 -0.50383699 1.528954
1.233786 -0.49518701 1.525773
1.24598 -0.49308699 1.529056
1.222067 -0.48654401 1.5277981
1.2470365 -0.48326647 1.527635
2.035543 -0.68728501 1.530668
2.0483871 -0.68907499 1.5337451
2.1001871 -0.68684101 1.53038
1.99139 -0.67076302 1.531636
2.004112 -0.67015702 1.530874
2.0903831 -0.66873997 1.530718
2.0611341 -0.66359901 1.530681
2.0664501 -0.66426498 1.5305099
2.0369611 -0.65178603 1.530179
2.02334 -0.64653802 1.534824
2.12217 -0.64017802 1.532876
1.9872479 -0.63873702 1.53477
2.0329001 -0.63247401 1.534027
2.080091 -0.630189 1.533738
2.1236899 -0.61473203 1.5338579
2.140497 -0.61180401 1.532039
2.005415 -0.60463101 1.533846
2.043165 -0.60082299 1.532937
2.026947 -0.599195 1.5327491
1.339877 -0.57807499 1.533304
1.3243591 -0.57065201 1.533887
1.328512 -0.57366598 1.5333329
1.348151 -0.57484603 1.531876
1.292334 -0.56625098 1.530138
1.3367749 -0.56885701 1.531629
1.2905051 -0.56328601 1.5302629
1.316069 -0.56025499 1.5340821
1.316469 -0.55832398 1.5311511
1.295514 -0.552194 1.5300061
1.2734751 -0.54352701 1.533861
1.278891 -0.54493999 1.532733
1.292547 -0.54325998 1.5341535
1.2624525 -0.53653646 1.5318379
1.2662081 -0.536295 1.534827
1.258328 -0.53163099 1.531795
1.269145 -0.51714897 1.533191
1.248672 -0.51066703 1.53145
1.269182 -0.51392901 1.534629
1.248744 -0.50732499 1.532473
1.239966 -0.50000501 1.5307471
1.245985 -0.50463003 1.534891
1.2468015 -0.4983035 1.532606
1.262471 -0.49912798 1.5310885
1.234152 -0.49433401 1.5346709
1.26722 -0.49489701 1.534387
1.2292351 -0.489252 1.534193
1.242514 -0.48848 1.531508
1.224437 -0.48362201 1.533224
1.226312 -0.48431501 1.530048
1.236624 -0.48416901 1.533584
1.210726 -0.47935301 1.530021
2.0210929 -0.69928199 1.539986
1.991649 -0.69325697 1.5392261
1.978866 -0.68283802 1.537268
2.033725 -0.68035698 1.53782
1.987676 -0.67849898 1.535115
2.0429909 -0.67950898 1.537922
2.0388949 -0.671933 1.5359451
1.983646 -0.659334 1.538934
2.0689671 -0.65557301 1.537282
1.999263 -0.65057403 1.535713
2.015681 -0.64753002 1.5355999
2.094243 -0.62743801 1.5386111
2.0478339 -0.62190002 1.537967
2.2173719 -0.62417901 1.5362771
1.983253 -0.61942297 1.538677
2.020344 -0.61701101 1.539157
2.0288391 -0.61316103 1.5378751
2.0764611 -0.60315502 1.5360529
1.3582799 -0.59313798 1.539605
1.325299 -0.57989299 1.537483
1.332924 -0.57863545 1.5377176
1.314799 -0.574835 1.5379291
1.339082 -0.57202399 1.53835
1.34929 -0.57216799 1.53835
1.3977081 -0.574965 1.538697
1.29825 -0.56923902 1.539984
1.303079 -0.56783599 1.539475
1.2967415 -0.56222951 1.538017
1.311361 -0.56228799 1.537843
1.333068 -0.55792898 1.538486
1.274359 -0.55376297 1.5352809
1.286477 -0.55420202 1.538576
1.297443 -0.55335599 1.538838
1.3153059 -0.55448103 1.539746
1.2814785 -0.546202 1.5371439
1.27731 -0.54349601 1.53704
1.291063 -0.54039401 1.53539
1.2773809 -0.53666198 1.5376
1.293957 -0.53965998 1.537537
1.257331 -0.53182101 1.53766
1.265028 -0.53320402 1.5372649
1.245243 -0.52828598 1.539013
1.25002 -0.52587497 1.536145
1.2562931 -0.52373397 1.5397969
1.254683 -0.51766801 1.5371521
1.256248 -0.51507902 1.538424
1.245721 -0.51073402 1.537685
1.2409821 -0.505391 1.537187
1.2631609 -0.50891101 1.5350929
1.277244 -0.50511801 1.53617
1.234773 -0.502702 1.538165
1.236024 -0.50428301 1.535248
1.242363 -0.497556 1.5397429
1.246369 -0.4910295 1.536824
1.2367491 -0.48953801 1.537014
2.0355999 -0.70173401 1.5447789
2.020005 -0.69588399 1.544068
2.0498099 -0.694911 1.54052
1.9512 -0.68010598 1.543226
1.971197 -0.683927 1.544969
1.976298 -0.67852998 1.54414
1.988263 -0.67693502 1.54242
2.0073521 -0.676045 1.543774
1.987712 -0.67459899 1.542569
2.0504069 -0.67316502 1.544107
2.09184 -0.66949499 1.541351
1.974872 -0.66352397 1.541175
2.082659 -0.652798 1.541831
1.979616 -0.64016902 1.542753
2.135344 -0.64319998 1.542215
2.016294 -0.63794398 1.543957
1.994415 -0.63099098 1.540553
2.1750901 -0.63281202 1.5402991
2.0095539 -0.62743801 1.54138
2.0175359 -0.626782 1.54009
2.0903871 -0.62609899 1.541591
2.0921819 -0.62158298 1.5427361
2.072355 -0.61427498 1.544884
2.0416551 -0.60163802 1.543795
2.016319 -0.59754598 1.543095
1.3274111 -0.57875699 1.54195
1.357973 -0.57659698 1.540619
1.326856 -0.56849003 1.540282
1.2962917 -0.56315637 1.5428724
1.306188 -0.56157702 1.540844
1.290689 -0.55620402 1.542996
1.275427 -0.55239999 1.542236
1.290489 -0.55149901 1.542389
1.268859 -0.54353499 1.543713
1.2808779 -0.54414397 1.544188
1.264475 -0.537669 1.543174
1.269609 -0.53556103 1.543656
1.291905 -0.53719503 1.541131
1.267494 -0.53266102 1.542318
1.272276 -0.52699 1.541788
1.2865371 -0.52644801 1.542436
1.245109 -0.52178198 1.543107
1.252728 -0.52152997 1.54018
1.260236 -0.52386701 1.543383
1.285107 -0.52438402 1.5435669
1.24392 -0.51181298 1.544176
1.253353 -0.50802702 1.540419
1.263119 -0.49889699 1.542791
1.240164 -0.492654 1.543278
1.2487276 -0.4920955 1.5435286
1.257084 -0.49261099 1.542227
1.239022 -0.48663101 1.542987
2.0281889 -0.69812697 1.547793
1.962496 -0.68831003 1.5475791
2.0713141 -0.677755 1.5450079
2.0661111 -0.673639 1.54874
1.967167 -0.66476202 1.548788
1.970541 -0.658934 1.549363
1.983415 -0.65735197 1.54726
2.001224 -0.65595299 1.549554
2.0081251 -0.654369 1.54743
2.0192571 -0.65403998 1.547966
2.0309491 -0.65361702 1.546406
2.0790279 -0.647825 1.545761
2.1053331 -0.64946598 1.546767
1.9708771 -0.64420903 1.545082
2.068974 -0.63271701 1.545338
1.9755861 -0.62100399 1.546571
2.012233 -0.61863101 1.547805
1.989567 -0.611408 1.545392
2.0117309 -0.60702598 1.545355
1.34263 -0.58417797 1.548947
1.330608 -0.57679099 1.545455
1.3484499 -0.57600099 1.545004
1.383137 -0.57879299 1.545257
1.325418 -0.57242101 1.548149
1.348845 -0.57483101 1.549543
1.3188649 -0.56652302 1.545938
1.32136 -0.56662297 1.545995
1.29272 -0.558954 1.548463
1.278739 -0.55024302 1.546213
1.2883151 -0.55259198 1.547737
1.296025 -0.54534799 1.54997
1.270008 -0.54396099 1.548615
1.280383 -0.54274851 1.548161
1.2954119 -0.54398298 1.5494601
1.291337 -0.53821898 1.547057
1.274995 -0.53391701 1.548293
1.2705081 -0.52633798 1.54531
1.275967 -0.52678502 1.546219
1.271065 -0.52095997 1.5454741
1.2868896 -0.52250701 1.5472994
1.2514064 -0.51780796 1.5475415
1.267242 -0.51048398 1.546535
1.240222 -0.50050598 1.5461169
1.250267 -0.50421298 1.546881
1.235382 -0.49529001 1.545572
1.244491 -0.491346 1.546706
1.242933 -0.489867 1.549121
1.995857 -0.70816702 1.554257
2.0267601 -0.70403302 1.554817
1.9547189 -0.68935603 1.554823
2.0157149 -0.68934 1.552047
2.0291691 -0.68826699 1.55314
1.971277 -0.67966098 1.551463
1.958501 -0.66899598 1.551487
2.050355 -0.66489297 1.551733
2.0614879 -0.662278 1.5546221
2.083493 -0.65214902 1.552322
1.963138 -0.64559799 1.552606
1.964783 -0.639337 1.554587
1.978567 -0.63776898 1.552099
2.01529 -0.635243 1.551334
2.0749359 -0.63685501 1.552945
2.0860529 -0.63966203 1.551403
2.002321 -0.63461202 1.552696
2.126853 -0.62555403 1.553375
2.011322 -0.616445 1.554702
2.1674371 -0.619008 1.551757
2.0625191 -0.61198997 1.551403
2.082437 -0.61165702 1.552832
2.008173 -0.59931898 1.551653
1.3404239 -0.58092099 1.552797
1.3307281 -0.57630098 1.554332
1.337182 -0.57699502 1.550645
1.314631 -0.57090402 1.5524319
1.3156 -0.56524903 1.550843
1.324914 -0.56652099 1.55398
1.297272 -0.56292099 1.550166
1.305184 -0.56080198 1.554312
1.3177381 -0.562316 1.551108
1.2846611 -0.55367303 1.55019
1.293781 -0.55231398 1.552791
1.296736 -0.55309302 1.550837
1.2890199 -0.54870099 1.551551
1.291795 -0.54887998 1.553623
1.315215 -0.54990703 1.552829
1.26958 -0.54032999 1.550651
1.287977 -0.54490697 1.550323
1.2620699 -0.532085 1.5526171
1.2588741 -0.52756798 1.551559
1.261513 -0.52179497 1.550776
1.271484 -0.52437103 1.551524
1.279966 -0.52466702 1.553718
1.270173 -0.51750499 1.552667
1.254264 -0.51143998 1.5519381
1.264392 -0.51088399 1.550518
1.270769 -0.51009798 1.551102
1.280436 -0.51019901 1.550012
1.253333 -0.50906301 1.554093
1.2590621 -0.50997901 1.550148
1.26475 -0.50525802 1.553349
1.2682625 -0.50935948 1.5538659
1.2815599 -0.50841498 1.553781
1.234722 -0.49027899 1.554549
2.017391 -0.71028203 1.558625
2.0267429 -0.70447999 1.5598789
1.946125 -0.69378197 1.557891
1.99112 -0.69345099 1.5576741
1.961206 -0.686297 1.556644
2.052495 -0.68662602 1.559065
1.992895 -0.68446797 1.5577281
