# .PCD v0.7 - Point Cloud Data file format
VERSION 0.7
FIELDS x y z
SIZE 4 4 4
TYPE F F F
COUNT 1 1 1
WIDTH 1516
HEIGHT 1
VIEWPOINT 0 0 0 1 0 0 0
POINTS 1516
DATA ascii
0.468945 0.59885502 -0.070669003
0.48382601 0.59924299 -0.070533
0.46739301 0.60324299 -0.074556001
0.35817799 0.60901701 -0.071075998
0.47110099 0.60817802 -0.074043997
0.48135701 0.608859 -0.074244
0.36363801 0.61061698 -0.071797997
0.36542001 0.61274302 -0.071676001
0.373308 0.61181402 -0.074382
0.46383801 0.61028498 -0.071946003
0.46905601 0.61258698 -0.072144002
0.36798301 0.61525601 -0.072393
0.45421401 0.61553502 -0.071988001
0.34832299 0.59253699 -0.068769
0.353003 0.59345502 -0.068393998
0.465229 0.59352601 -0.068623997
0.488967 0.59452099 -0.068793997
0.486702 0.596802 -0.066875003
0.36230701 0.60414398 -0.065159999
0.48291299 0.60232902 -0.068898998
0.33890599 0.60593802 -0.065839
0.35326552 0.60871398 -0.066071004
0.462358 0.60599297 -0.065136999
0.47578001 0.60844898 -0.067437999
0.364021 0.61088997 -0.066706002
0.37847 0.628371 -0.066042997
0.36709452 0.63191104 -0.069236994
0.3336055 0.58842003 -0.061795503
0.475122 0.58789903 -0.061811998
0.34641299 0.59033799 -0.064649999
0.47222 0.59023201 -0.062830001
0.493779 0.59417599 -0.061942
0.470263 0.59731799 -0.060003001
0.476244 0.596811 -0.061875999
0.483235 0.59674001 -0.060162
0.515679 0.59822297 -0.06109
0.33416799 0.601363 -0.060931999
0.464358 0.60244399 -0.061632
0.476547 0.60223103 -0.063785002
0.49531001 0.60291398 -0.064278997
0.34986499 0.60786998 -0.062111001
0.35398701 0.60911602 -0.062332999
0.3567335 0.60842299 -0.063659504
0.35149699 0.61299598 -0.062747002
0.47027099 0.611256 -0.064080998
0.36513299 0.61551398 -0.063675001
0.368633 0.62255597 -0.063051
0.37452 0.62061203 -0.061391
0.48013401 0.59122699 -0.056680001
0.48910901 0.59430403 -0.055755001
0.49511799 0.59307897 -0.058616001
0.47835299 0.59949201 -0.058518
0.33248901 0.60057902 -0.059039
0.34721699 0.60421598 -0.059523001
0.47359899 0.60429001 -0.056564
0.47975501 0.60409701 -0.056949999
0.49068099 0.60310203 -0.058566
0.32998601 0.60594302 -0.059262998
0.35252199 0.60662299 -0.059259001
0.34995499 0.61321598 -0.055658001
0.33116099 0.58449799 -0.052503999
0.33838299 0.58614802 -0.054680001
0.342033 0.585509 -0.054737002
0.49952701 0.58751303 -0.050530002
0.32025999 0.59439802 -0.050477002
0.33686352 0.59712851 -0.0523335
0.469055 0.59918302 -0.052508999
0.479487 0.59787798 -0.054334
0.33639199 0.60008597 -0.054834001
0.34568399 0.604361 -0.051430002
0.464322 0.602988 -0.053603001
0.34040299 0.60659403 -0.051419999
0.38745001 0.61393797 -0.054559
0.35382748 0.619133 -0.053203501
0.355681 0.616696 -0.052145999
0.37323099 0.61527002 -0.052652001
0.31389299 0.58053499 -0.045299001
0.48181799 0.58108902 -0.049183998
0.50492197 0.58016199 -0.046594001
0.33465099 0.58680397 -0.047869001
0.339241 0.58763403 -0.047618002
0.48279199 0.587295 -0.049908999
0.49463901 0.58581603 -0.047455002
0.47056699 0.59001398 -0.048466999
0.48509601 0.59038001 -0.049194999
0.496526 0.594733 -0.048131999
0.324063 0.59506202 -0.046544001
0.33291048 0.59612346 -0.048241001
0.33973801 0.59607399 -0.048760999
0.34861001 0.606592 -0.046999
0.37878501 0.61364901 -0.049401999
0.34102201 0.61528301 -0.049325
0.30534899 0.58032 -0.040146999
0.324292 0.58486998 -0.044351
0.488435 0.580423 -0.042101
0.49247599 0.58136803 -0.043726999
0.51956999 0.58175099 -0.040454
0.30329299 0.588112 -0.044943999
0.31652951 0.586546 -0.0436715
0.50067103 0.586492 -0.044156
0.47660199 0.59081101 -0.040525999
0.48456001 0.59065902 -0.043189999
0.34249699 0.60308599 -0.042753998
0.36471 0.61064702 -0.044833001
0.48851499 0.57427901 -0.036556002
0.30151701 0.57524103 -0.038385
0.31219801 0.57613897 -0.035254002
0.49778599 0.57717001 -0.037600502
0.50428498 0.57519197 -0.037276
0.29315701 0.58064902 -0.036047999
0.48675501 0.58373803 -0.039078001
0.297162 0.58899802 -0.036024999
0.3105 0.58603299 -0.038067002
0.31522301 0.58845001 -0.035905
0.49412799 0.58965099 -0.038736999
0.51454598 0.58569598 -0.037328001
0.32668701 0.59948403 -0.035955001
0.35538799 0.59909201 -0.038049001
0.32234901 0.60204399 -0.036927
0.33724999 0.60506999 -0.039338
0.353017 0.60832399 -0.038125999
0.34137201 0.61195999 -0.037471998
0.283483 0.57140303 -0.032742001
0.30764699 0.57299799 -0.031211
0.510342 0.57324702 -0.033877
0.502195 0.57914603 -0.030722
0.30815551 0.58224249 -0.031157499
0.31920701 0.58421898 -0.033803999
0.481197 0.58274299 -0.034267999
0.49826699 0.58241397 -0.033888001
0.50671399 0.580293 -0.030654
0.5136345 0.58109796 -0.032219499
0.51533699 0.58208501 -0.033507999
0.31786001 0.58697402 -0.034704
0.30959401 0.59077603 -0.031727999
0.32549 0.59356397 -0.031514999
0.31452101 0.59653699 -0.032325
0.32551101 0.59930199 -0.032903001
0.33032301 0.59711403 -0.034205999
0.34043899 0.59632802 -0.034782
0.33634901 0.60626101 -0.034286
0.29067099 0.56918699 -0.027752999
0.50094801 0.56982601 -0.027848
0.27199301 0.57118797 -0.026908001
0.28844899 0.57429302 -0.026236
0.292786 0.57024997 -0.027964
0.29868001 0.574157 -0.027262
0.300026 0.57338202 -0.027481999
0.49280101 0.57358801 -0.029262001
0.50857198 0.571181 -0.025684001
0.52364898 0.574992 -0.029003
0.286174 0.575948 -0.029092999
0.50612098 0.57763702 -0.025838999
0.53246599 0.57553899 -0.02971
0.30738366 0.58171171 -0.028252333
0.32375699 0.58352399 -0.029012
0.297084 0.58508402 -0.025008
0.29912001 0.59367502 -0.028822999
0.30336401 0.59020603 -0.025508
0.31425199 0.59809297 -0.029266
0.325921 0.59514803 -0.025726
0.33114299 0.59848797 -0.028786
0.26306501 0.56475502 -0.021468
0.284585 0.56929499 -0.022247
0.28823 0.568084 -0.022876
0.306348 0.56891501 -0.023402
0.51576298 0.56633198 -0.021159001
0.517636 0.57455403 -0.022366
0.28317001 0.57756197 -0.021675
0.291219 0.57824802 -0.024721
0.50279802 0.57751697 -0.023835
0.28825501 0.58324999 -0.024311
0.30318001 0.59178603 -0.024266999
0.32708198 0.59264249 -0.022637501
0.34448701 0.59430802 -0.022754
0.34796399 0.59001899 -0.02135
0.28227401 0.56224501 -0.015071
0.286421 0.56567103 -0.017069999
0.49716699 0.56675297 -0.016422
0.53020501 0.566854 -0.015667001
0.26979601 0.57454699 -0.016443999
0.283712 0.574027 -0.018956
0.28882301 0.57185 -0.015733
0.308837 0.58164001 -0.018451
0.31266499 0.58375198 -0.019006999
0.28145999 0.58575201 -0.015930001
0.33405 0.58705002 -0.016834
0.28624299 0.562904 -0.013048
0.50190699 0.56065899 -0.0113
0.52230603 0.56112498 -0.01182
0.276308 0.56662399 -0.010824
0.51070797 0.56689 -0.010186
0.51884747 0.56568897 -0.0119805
0.2878195 0.57921451 -0.012052501
0.30670899 0.58449298 -0.012849
0.311845 0.58372402 -0.011495
0.30369401 0.58897102 -0.013651
0.25847399 0.557648 -0.006451
0.27406999 0.56219298 -0.0090650003
0.517492 0.56174201 -0.0061949999
0.29237601 0.56982398 -0.0055069998
0.249396 0.57064998 -0.0054600001
0.264256 0.57339698 -0.0087080002
0.27624649 0.570494 -0.006511
0.30123901 0.57456303 -0.0080300001
0.325313 0.57495499 -0.0082
0.276665 0.57785201 -0.0066789999
0.28837699 0.57657897 -0.0097639998
0.29520401 0.58062398 -0.0071879998
0.26200801 0.55594498 -0.001376
0.52055299 0.55885297 -0.002478
0.249953 0.56016397 -0.003795
0.25603399 0.56323898 -0.002266
0.27033201 0.561257 -0.0041029998
0.26727 0.569803 -0.001549
0.277603 0.56709301 -0.0022780001
0.257855 0.57077402 -0.0043919999
0.27218699 0.571307 -0.003205
0.27725101 0.574911 -0.004344
0.28329101 0.570988 -0.001794
0.289368 0.57277352 -0.001328
0.30357599 0.572528 -0.0022799999
0.289592 0.58059901 -0.0020880001
0.25096199 0.55450201 0.003056
0.26280001 0.55105501 0.004985
0.26225701 0.55736947 0.0032205
0.261152 0.56071198 0.0017350001
0.27353901 0.56333399 0.002788
0.339212 0.56418902 0.000352
0.30139801 0.567545 0.0019340001
0.27194601 0.57472998 0.0041069998
0.30514401 0.572469 0.001453
0.33518901 0.57388198 0.0033259999
0.26018101 0.54988098 0.0061300001
0.23452 0.55307102 0.006699
0.239407 0.55065602 0.0091159996
0.243017 0.55327398 0.0063669998
0.247298 0.55244201 0.0053690001
0.25390601 0.55346 0.0095469998
0.25870699 0.55458498 0.008711
0.246529 0.56046999 0.0073139998
0.28323251 0.56450355 0.0068124998
0.22974101 0.56990099 0.0095920004
0.25356698 0.56800348 0.006941
0.26532599 0.56649202 0.0075210002
0.27109599 0.569951 0.0094579998
0.237773 0.548985 0.010295
0.53419501 0.54815799 0.012368
0.23803601 0.55313402 0.014055
0.24297601 0.55177748 0.012557
0.2528435 0.55223751 0.011871001
0.31961501 0.554196 0.011029
0.25017399 0.55816901 0.012756
0.26574001 0.559892 0.010429
0.276797 0.55982399 0.0119
0.333242 0.55974799 0.010073
0.29731601 0.56425202 0.011315
0.24181999 0.56625402 0.011597
0.256621 0.56876498 0.011783
0.26312599 0.56586599 0.013882
0.26152301 0.57029498 0.011215
0.227853 0.54681098 0.015176
0.242726 0.54979199 0.015943
0.22791299 0.55140996 0.017405499
0.23205701 0.55004603 0.016867001
0.24619 0.55489802 0.017159
0.262824 0.55457699 0.017529
0.26474401 0.55636197 0.017704999
0.23898099 0.56298602 0.019820999
0.25825199 0.56354499 0.018026
0.20585801 0.542184 0.024676999
0.247347 0.54347497 0.022692
0.23292001 0.54717797 0.024859
0.238334 0.55339801 0.021049
0.28935501 0.55264598 0.02399
0.315595 0.55012798 0.024061
0.395897 0.55201298 0.020491
0.25410101 0.55533201 0.021485001
0.235838 0.53977299 0.028771
0.373658 0.53978199 0.027123
0.214123 0.541197 0.028077001
0.220366 0.54245597 0.028736001
0.22897001 0.54102898 0.025584999
0.23137701 0.54485101 0.029935
0.20849 0.54586399 0.027269
0.212036 0.54719102 0.025207
0.240638 0.54944003 0.029315
0.37429801 0.54853499 0.028099
0.22977699 0.55308199 0.028602
0.38646001 0.55299097 0.02978
0.233234 0.55858701 0.029477
0.24588799 0.55790198 0.026122
0.240739 0.56190997 0.025993999
0.24792001 0.56130201 0.026268
0.215818 0.538064 0.030727999
0.22432899 0.536071 0.034848999
0.23211899 0.539087 0.030182
0.33112401 0.53604102 0.032866001
0.20694 0.541843 0.033475999
0.219108 0.55111003 0.031762
0.25028399 0.55153102 0.033160001
0.191928 0.53778899 0.039011002
0.207094 0.535721 0.036602002
0.2229 0.5374245 0.036708999
0.244954 0.53997999 0.038019001
0.228585 0.54597902 0.035119999
0.223528 0.550565 0.038913999
0.36820599 0.55283999 0.036331002
0.190983 0.53046799 0.044797
0.20757151 0.53274345 0.042582501
0.20999099 0.53948802 0.043117002
0.21005 0.53647602 0.042288002
0.21698099 0.538885 0.04315
0.232712 0.53985 0.041645002
0.21653201 0.54251802 0.040925
0.224418 0.54180801 0.041599002
0.39308199 0.54293001 0.044399999
0.259837 0.54644901 0.041584998
0.198901 0.52691901 0.048894003
0.20130999 0.52866602 0.047006998
0.20392799 0.53347999 0.048193
0.220961 0.538055 0.046186998
0.24101201 0.53988999 0.045145001
0.341398 0.53660703 0.049947001
0.422813 0.53544098 0.049975
0.434172 0.53776503 0.049047999
0.43882799 0.535649 0.049380999
0.201691 0.54104698 0.049026001
0.235815 0.54015601 0.048011001
0.212348 0.54689699 0.045310002
0.184522 0.52376801 0.054370999
0.362643 0.52497602 0.054134998
0.17564499 0.52778298 0.05432
0.183707 0.52526802 0.054694001
0.186001 0.52672899 0.051268
0.199365 0.52872401 0.054166999
0.202975 0.52811497 0.053860001
0.273047 0.525123 0.054726001
0.28207001 0.52949297 0.050402001
0.29076701 0.52539402 0.054607
0.30630901 0.52634698 0.053119998
0.33241901 0.52944702 0.050391998
0.395329 0.52880698 0.054620001
0.178554 0.53024298 0.054540999
0.20465501 0.531546 0.054634999
0.239278 0.533086 0.054724
0.36797601 0.53343397 0.052636001
0.371681 0.53460401 0.051266
0.41622099 0.53461599 0.052756
0.20728301 0.535137 0.050627001
0.347202 0.53653699 0.053066
0.215864 0.54093748 0.051168002
0.17829201 0.52126199 0.059163999
0.187627 0.52448899 0.055635002
0.37471399 0.523076 0.056456
0.17992499 0.52930099 0.059505999
0.186745 0.52882999 0.056251001
0.38014299 0.52767098 0.058396
0.40325499 0.529764 0.057107002
0.26266399 0.53335601 0.055915002
0.299575 0.531591 0.056286
0.34823599 0.53315902 0.057376999
0.37834901 0.53208101 0.057225
0.23062 0.53761601 0.056903999
0.174244 0.52225798 0.062167998
0.193177 0.524014 0.063791998
0.21889 0.52193499 0.060270999
0.338864 0.521137 0.061342001
0.35109502 0.52163804 0.063688502
0.358107 0.52409399 0.064347997
0.36815599 0.52037001 0.061556999
0.37648401 0.52000999 0.062375002
0.184451 0.525096 0.062229998
0.19259951 0.52709401 0.061258502
0.209251 0.52563697 0.061074998
0.215178 0.52981198 0.060151
0.34380099 0.52588701 0.064116001
0.417373 0.52956098 0.060166001
0.430944 0.53023702 0.060724001
0.16608199 0.51737499 0.066802502
0.18197 0.51872098 0.065016001
0.188798 0.51558101 0.068952002
0.234543 0.51885802 0.066248
0.37890899 0.51636302 0.068724997
0.16398101 0.52411002 0.069815002
0.17188001 0.521806 0.069614001
0.17877799 0.52227002 0.067204997
0.180676 0.52465999 0.066183999
0.186313 0.52447498 0.066459
0.19787399 0.52184999 0.067042001
0.217896 0.52274299 0.067336999
0.228194 0.52218997 0.068324998
0.27005801 0.523417 0.065537997
0.34107301 0.52308702 0.068653002
0.363774 0.52134103 0.069921002
0.185819 0.52518201 0.065375999
0.20468 0.52936798 0.065164998
0.213797 0.52698302 0.068485998
0.143068 0.51466799 0.073636003
0.154259 0.51354098 0.074725002
0.37316 0.51398599 0.073299997
0.394824 0.51342601 0.074519001
0.14555401 0.51827598 0.072120003
0.16597299 0.51820999 0.072621003
0.175266 0.51672399 0.072062001
0.185514 0.51682901 0.071557999
0.199728 0.51864702 0.072256997
0.30109599 0.51507699 0.073953003
0.32052001 0.51561302 0.072398998
0.35061401 0.518534 0.074192002
0.174383 0.52137601 0.071373001
0.19332001 0.5212 0.071092002
0.41985801 0.52356797 0.074699998
0.19860099 0.52530199 0.070758998
0.15956649 0.51226699 0.077379495
0.16905101 0.51375997 0.079773001
0.17846601 0.51256901 0.077459
0.19395401 0.51396501 0.077092998
0.295499 0.51202101 0.076894999
0.32873899 0.51396602 0.077901997
0.392021 0.51356202 0.079742998
0.152904 0.51522601 0.079135999
0.156084 0.51764101 0.077605002
0.162948 0.51757002 0.077371001
0.16626599 0.51605701 0.078881003
0.170514 0.518821 0.079644002
0.14273199 0.50896299 0.082944497
0.16855299 0.5083645 0.084621996
0.362542 0.50973099 0.081069
0.148266 0.51337701 0.08021
0.151595 0.51224202 0.083778001
0.15649951 0.51080102 0.082794502
0.1682685 0.51399648 0.084183
0.35067299 0.51146102 0.081577003
0.37581801 0.51201802 0.083544999
0.391294 0.51363802 0.084866002
0.41073999 0.51048797 0.080312997
0.42970499 0.51577997 0.082590997
0.132092 0.50644398 0.086798504
0.14007799 0.50995803 0.089367002
0.1477 0.506975 0.087950997
0.375752 0.50923902 0.087306999
0.39216599 0.50815302 0.088982001
0.122738 0.51045501 0.087315999
0.146231 0.51413298 0.085530996
0.15888201 0.51463598 0.089354001
0.38266501 0.51518399 0.089244999
-0.023049001 0.50331199 0.092321999
0.12512399 0.50153202 0.094306998
0.13624901 0.50422901 0.094640002
0.15681049 0.50394547 0.0916785
0.138806 0.50859803 0.090750001
0.14455 0.50660402 0.090582997
0.14586601 0.50714898 0.090657003
0.15320601 0.50816 0.092634
0.18074 0.50607198 0.091264002
0.33999401 0.50587797 0.094607003
0.364066 0.506464 0.090095997
0.403543 0.50583702 0.092357002
0.41825199 0.508708 0.093989
0.127001 0.51004601 0.094641
0.40176499 0.51061302 0.090466
0.125848 0.500808 0.097319998
0.1355485 0.50223601 0.0976955
0.141011 0.50348198 0.096040003
0.14586399 0.50129497 0.097404003
0.150704 0.50274903 0.095755003
0.34283 0.50211298 0.098165996
0.35655898 0.50184202 0.095994502
0.37318599 0.50397497 0.095261998
0.37746 0.50146598 0.098614998
0.380265 0.50254899 0.096693002
0.129429 0.505876 0.096876003
0.140268 0.50524402 0.097694002
0.37945801 0.50673097 0.096066996
0.405193 0.50605297 0.095059
0.147432 0.51095301 0.095400997
0.122549 0.4982883 0.101872
0.12961601 0.49913299 0.102843
0.13382 0.496162 0.104647
0.147256 0.498927 0.103811
0.151434 0.49704501 0.103655
0.117207 0.50234598 0.101362
0.138827 0.50396597 0.101394
0.353571 0.50100601 0.102691
0.4115535 0.502307 0.1045005
0.43672201 0.50164801 0.101755
0.122027 0.50654298 0.100317
0.133711 0.50849402 0.10321
0.36932501 0.505072 0.101773
0.105772 0.49854001 0.10736
0.114392 0.49941099 0.107813
0.13663501 0.49688199 0.105308
0.183725 0.49515101 0.108985
0.390854 0.49646899 0.107134
0.40507901 0.49787501 0.109693
0.121003 0.50416303 0.105984
0.136764 0.50010997 0.108869
0.099175997 0.49240699 0.113023
0.102792 0.494113 0.11311
0.127406 0.49246901 0.113211
0.101454 0.49649501 0.112872
0.1125465 0.497116 0.11219899
0.119977 0.49808499 0.112988
0.122268 0.49601799 0.112623
0.35934699 0.49601001 0.111401
0.39415899 0.496333 0.114652
0.40874901 0.49794701 0.112471
0.115155 0.488148 0.119948
0.13033301 0.489079 0.118496
0.38322899 0.48973399 0.118268
-0.022094 0.49248901 0.11513
-0.019432999 0.49064699 0.11755
0.09443 0.490082 0.118651
0.104047 0.492091 0.117589
0.105132 0.49497101 0.118424
0.380725 0.491263 0.118859
0.39687601 0.492257 0.115286
-0.021057 0.49977401 0.118415
-0.013668 0.49784899 0.11952
0.103562 0.49744001 0.116172
0.115221 0.49603999 0.115693
0.12561999 0.49696401 0.119986
-0.019374 0.53184301 0.116684
-0.020933 0.48835301 0.124304
-0.012637 0.48783699 0.123623
0.093593001 0.488327 0.124323
0.098250329 0.48749435 0.12130467
0.108538 0.48705399 0.124355
0.11748 0.48740602 0.12213767
0.1313875 0.48737049 0.122304
0.335796 0.48987499 0.123379
-0.022152999 0.49018401 0.12067
-0.012273 0.493334 0.120579
0.094328001 0.49382901 0.121218
0.101526 0.49500099 0.124393
-0.018918 0.50478601 0.124388
-0.026418 0.50947601 0.120142
-0.022438999 0.50843501 0.12461
-0.012782 0.50908101 0.122771
0.109814 0.483426 0.12984601
-0.032184999 0.48903501 0.12924699
-0.024591999 0.48818299 0.125053
-0.0074939998 0.487479 0.12600701
-0.0042070001 0.48550001 0.127308
0.089052998 0.48598301 0.125882
0.093198001 0.48859099 0.127948
0.10314801 0.48865601 0.12833166
0.10806266 0.48723865 0.12792367
0.114872 0.485737 0.128177
0.124658 0.487984 0.128648
0.37717801 0.48643401 0.12536401
0.39430201 0.48639101 0.12694301
0.40616599 0.48736799 0.128444
-0.032643002 0.491016 0.125147
-0.029021 0.49284101 0.126166
-0.016981667 0.49175766 0.12659834
0.084739 0.49082601 0.125045
0.113669 0.491106 0.12696099
-0.035957001 0.49593899 0.128933
-0.021429 0.495249 0.128176
-0.016524 0.498914 0.128521
-0.023999 0.50200599 0.12960801
-0.02816 0.509655 0.129963
-0.027892999 0.52247101 0.126738
-0.015446 0.48357499 0.134051
-0.0115945 0.4821375 0.1311805
-0.0090889996 0.48405999 0.13220701
-0.002748 0.48182699 0.133858
0.076545998 0.484016 0.13105601
0.092577003 0.483138 0.134546
0.097333997 0.48424399 0.13307799
0.36061099 0.483437 0.1339
-0.014658 0.48717648 0.1327735
-0.0069995001 0.48884049 0.1326555
0.001556 0.48782 0.131574
0.090621501 0.4864265 0.13393649
0.096846998 0.48698199 0.131469
0.10313767 0.48905933 0.13174634
0.106492 0.48914099 0.134673
0.117724 0.48694199 0.134317
-0.018345 0.49309701 0.134754
-0.01471 0.49409699 0.133011
-0.0079420004 0.49165401 0.134817
-0.0033835 0.49355 0.13120049
0.11973 0.490684 0.130501
-0.022674 0.498252 0.13197701
-0.010653 0.50611901 0.13026699
-0.036258001 0.51244301 0.13174701
-0.022952 0.51477897 0.13488901
-0.016145 0.510921 0.133956
-0.036389001 0.51556599 0.13432001
-0.030184999 0.518448 0.132034
-0.017725 0.51824403 0.130869
-0.025671 0.52244502 0.132567
-0.009207 0.521824 0.133561
-0.027323 0.52666903 0.13474201
-0.026284 0.53446603 0.134643
-0.021214001 0.53052402 0.13225999
-0.018258 0.53420699 0.13311701
-0.024997 0.55369502 0.13024101
-0.011321 0.47845399 0.13986699
-0.0014139999 0.477339 0.13924551
0.0020980001 0.47822148 0.137407
0.075593501 0.47794449 0.13793999
0.084600002 0.478127 0.13819399
0.099717997 0.479229 0.136923
0.100563 0.479128 0.137787
-0.024762999 0.48026001 0.137217
-0.0090284999 0.48352653 0.138466
0.000112 0.48159301 0.137035
0.011631 0.48367801 0.139607
0.063317001 0.48018199 0.13594601
0.069119997 0.48205701 0.138514
0.073536001 0.482544 0.13998599
0.079810999 0.48179001 0.13894901
0.085017003 0.48109999 0.13525601
0.103568 0.48280901 0.138676
-0.038920999 0.487876 0.13900299
-0.0042834999 0.48836303 0.137215
0.0036355001 0.48578751 0.136934
0.093226001 0.48627201 0.137514
0.111749 0.48576701 0.139623
-0.0056230002 0.49356401 0.136746
0.001022 0.49307901 0.139798
-0.032783002 0.499248 0.138558
-0.028441001 0.49673101 0.136669
-0.020205 0.49663699 0.137225
-0.016717 0.49785101 0.13717699
-0.011613335 0.49794367 0.137477
-0.029394001 0.50131798 0.13555001
-0.013426666 0.50175595 0.13667034
-0.0082909996 0.50255799 0.13641849
-0.016899999 0.509381 0.138151
-0.0086589996 0.50948 0.138574
-0.002631 0.50755203 0.13531899
-0.020718999 0.51375502 0.137668
-0.017111 0.51455998 0.13911
-0.013718 0.51192099 0.137492
-0.025435001 0.51744002 0.13740499
-0.013274 0.51799703 0.13994899
-0.020602001 0.52240199 0.137365
-0.012481 0.52078098 0.139255
-0.015036 0.526559 0.137244
-0.029092999 0.54390699 0.13866501
-0.021372 0.54161698 0.135533
-0.018792 0.55034 0.135381
-0.031803999 0.47461101 0.143346
-0.000619 0.47709399 0.141927
0.0033470001 0.47577 0.14294501
0.024204001 0.47881699 0.14206401
0.036483001 0.479361 0.142015
0.062229 0.47703299 0.144522
0.068420999 0.47812599 0.14496499
0.087081 0.47765201 0.143713
0.38997 0.47777 0.141959
-0.013699 0.48430499 0.141908
-0.000788 0.483836 0.14360701
0.0015979999 0.483255 0.14045
0.0077956668 0.48426631 0.14427365
0.013072 0.48472399 0.144631
0.021212 0.48251799 0.143209
0.072673999 0.48204201 0.140754
0.082215004 0.48266 0.143813
-0.0071804998 0.48889351 0.14310101
0.00155 0.48800001 0.14366101
0.089387998 0.485888 0.140782
-0.0033839999 0.49289101 0.142479
0.0023980001 0.49209648 0.14345899
-0.024705 0.49715799 0.14088701
-0.019053999 0.496337 0.14416499
-0.0073910002 0.498772 0.141175
-0.000302 0.495603 0.144612
0.0030264999 0.49766299 0.14189249
-0.025083 0.50403899 0.14035299
-0.020566 0.501423 0.14069501
-0.0093200002 0.50036901 0.141746
-7.9999998e-05 0.50314802 0.141234
-0.013958 0.50986999 0.14438
-0.021935999 0.510463 0.141524
-0.01072 0.5139485 0.1418145
-0.0050479998 0.511944 0.141017
-0.031610001 0.51675397 0.143053
-0.020905999 0.51844102 0.14461
-0.015783001 0.51644897 0.14340501
-0.01264 0.51771802 0.143015
-0.005899 0.51998198 0.14066499
0.001543 0.51896501 0.144564
-0.026758999 0.52303851 0.144146
-0.0111 0.52828848 0.142031
-0.0291405 0.53107345 0.14234149
-0.020227 0.53240299 0.141945
-0.0061750002 0.53013802 0.144365
-0.025754999 0.53592902 0.14150999
-0.011518 0.53783101 0.143176
-0.0044760001 0.53544903 0.14372499
-0.0089050001 0.47466999 0.149278
0.011441 0.47321898 0.14696449
0.02593 0.472662 0.148701
0.081576005 0.47182551 0.14941651
0.089102 0.47406799 0.147043
0.0017770001 0.47842765 0.14806466
0.010888 0.47608 0.148288
0.019487999 0.478872 0.149326
0.05291 0.477808 0.14709049
0.066868499 0.47815949 0.147322
0.072338507 0.47779799 0.1470595
0.078589499 0.47630602 0.14683799
0.082124993 0.47805551 0.1462605
0.090195 0.476639 0.14660101
0.102459 0.47963601 0.147089
0.395895 0.47888201 0.145684
-0.0067039998 0.48062399 0.14640801
0.0060439999 0.48369968 0.14800668
0.069294997 0.484999 0.14576501
0.072680503 0.48272252 0.14823401
-0.0033769999 0.48844099 0.14672101
0.001256 0.48989001 0.149286
0.041099999 0.48816401 0.14673001
0.060332999 0.486902 0.14551599
0.000382 0.49187601 0.14663699
0.007644 0.494497 0.14593101
-0.012262 0.49965 0.147101
-0.0073580001 0.496737 0.147452
-0.001566 0.49670801 0.148983
0.0014899999 0.50232852 0.1468825
-0.0107265 0.50893354 0.14539801
-0.0074729999 0.50526798 0.145355
-0.033503 0.51049602 0.145789
-0.018923 0.51322401 0.147668
0.00072100002 0.51481599 0.145051
-0.0091909999 0.51753902 0.145514
0.000224 0.51582599 0.14601199
-0.03819 0.524535 0.1476
-0.033450998 0.52746201 0.14929999
-0.024614001 0.531479 0.148399
-0.017666001 0.53103399 0.14573599
-0.012709999 0.53365898 0.14745349
-0.021259001 0.53563201 0.148591
-0.011209 0.53512001 0.14755601
-0.026743 0.540021 0.14801
-0.011751 0.545223 0.14546899
0.0088029997 0.47429299 0.151088
0.012957 0.47366101 0.154112
0.024714001 0.47148001 0.151042
0.037997 0.47214499 0.15125251
0.040380001 0.47451499 0.15379199
0.045310002 0.47448 0.154852
0.051773999 0.47326899 0.151255
0.056689002 0.47351801 0.15115701
0.060472 0.47197601 0.152349
0.068169996 0.4727875 0.15275875
0.081156999 0.47126698 0.1535905
0.098897003 0.47286201 0.151905
0.408784 0.47241899 0.152052
-0.002594 0.47993699 0.15236799
0.018400334 0.47930732 0.15205999
0.020974332 0.47860801 0.15400533
0.032168999 0.47709301 0.15295
0.044493001 0.47529301 0.152054
0.055792999 0.47717199 0.150704
0.06208 0.47967699 0.150023
0.071204998 0.479047 0.150112
0.077798001 0.47863701 0.151627
0.083267003 0.477474 0.152797
0.090717003 0.476264 0.152744
0.101587 0.47524801 0.15262
0.004712 0.48367101 0.151443
0.0080420002 0.48105502 0.15259901
0.014639 0.483262 0.15471999
0.022996999 0.48072001 0.152233
0.032519002 0.48087001 0.154742
0.052747998 0.480647 0.154974
0.066500001 0.48086599 0.154901
0.072526 0.4834955 0.153163
-0.0039300001 0.48793599 0.151263
0.0066550002 0.48689568 0.15230234
0.027656 0.487993 0.15199199
0.033505999 0.48831099 0.154732
0.049286 0.486173 0.15304799
0.052976001 0.48549899 0.15217599
0.056674 0.48636401 0.150058
0.072039999 0.486696 0.150453
-0.012728 0.492641 0.154566
0.0084105004 0.49229002 0.1534155
0.014217 0.490924 0.15088651
0.068480998 0.49076101 0.15245999
0.0029679998 0.4977605 0.153209
0.011705 0.49525601 0.152327
-0.019477 0.50492102 0.15014599
-0.0073210001 0.50281298 0.1536165
-0.0049649999 0.50496101 0.153871
0.0049950001 0.501899 0.152476
0.0081965001 0.5028035 0.15189099
-0.026707999 0.509628 0.150951
-0.001463 0.50687402 0.15267
0.002076 0.50772548 0.15213999
0.015165 0.50531298 0.15460099
-0.0088229999 0.513933 0.15229499
-2.7e-05 0.51286 0.152504
0.0061380002 0.51194298 0.154864
-0.036869001 0.51846302 0.152055
-0.018622 0.51922798 0.15364
-0.01152 0.516886 0.150644
-0.020878 0.52353299 0.15100101
-0.014536 0.52045202 0.15103599
-0.0068490002 0.520913 0.15429699
-0.004247 0.52402502 0.15319
-0.025834 0.52653903 0.154893
-0.017167 0.52664298 0.15169901
-0.032279 0.53349501 0.153409
-0.017384 0.53101301 0.15074
-0.0091289999 0.53141201 0.15386599
-0.029539 0.53963798 0.153993
-0.013094 0.53638297 0.15473101
-0.037808001 0.54325002 0.151939
-0.033365998 0.54467899 0.152796
0.001379 0.46971601 0.157846
0.024812 0.46952501 0.15800001
0.037988499 0.46773648 0.1569635
0.042518333 0.46815333 0.15762234
0.018291 0.47472751 0.15772751
0.029282 0.471944 0.1562365
0.031608 0.47492501 0.15975299
0.044201002 0.47159401 0.15730099
0.06033 0.47481999 0.159308
0.069287002 0.473396 0.15513401
0.078471005 0.4737075 0.15786999
0.080599003 0.4721885 0.15761
0.091294006 0.4718695 0.1567485
0.366175 0.470002 0.157013
0.015938999 0.47559899 0.156445
0.021093002 0.47794601 0.15738399
0.028607 0.47839901 0.1574225
0.033570997 0.47686899 0.157134
0.044475999 0.47993499 0.15604401
0.046967 0.47767296 0.15736465
0.053261001 0.475633 0.15566801
0.057907 0.479442 0.158204
0.061671671 0.47805932 0.15599601
0.065882996 0.47709501 0.15648651
0.089171998 0.475265 0.156241
-0.012991 0.483798 0.15946101
-0.0037750001 0.48111001 0.15955301
0.0073879999 0.4819265 0.158075
0.012354 0.4823415 0.1583565
0.015911 0.48183799 0.158007
0.020985 0.48122001 0.155017
0.031674001 0.481125 0.158884
0.040107999 0.48259801 0.157208
0.059223998 0.48355901 0.159216
0.060453001 0.48311999 0.156967
-0.012393 0.48864201 0.155881
-0.002141 0.48754299 0.157003
0.012861 0.48768201 0.15991101
0.019288 0.48828 0.15927
0.071327999 0.486099 0.15532599
0.003461 0.492459 0.155977
0.0075345002 0.493498 0.157639
0.021412499 0.49368951 0.15823799
-0.0048239999 0.49717101 0.15725601
0.0084859999 0.49602699 0.1582415
0.039310001 0.497078 0.15992901
-0.0031335 0.502882 0.156486
0.001211 0.50267202 0.15677699
0.010839 0.50269097 0.156215
0.029410999 0.503411 0.155395
-0.0123755 0.50975955 0.15815
-0.008525 0.50821501 0.15633
0.0032599999 0.50942498 0.15998
-0.0054219998 0.51367801 0.157204
0.001232 0.51470798 0.157506
0.0069920002 0.51108199 0.159032
0.011569 0.51348299 0.159977
-0.0068709999 0.51617754 0.15630001
0.0088210003 0.51910198 0.157646
-9.7999997e-05 0.52442598 0.15725
0.0030789999 0.52410001 0.15670501
-0.011804501 0.52708697 0.15600249
-0.0066789999 0.52754402 0.158667
-0.0019340001 0.52926302 0.15544499
0.0044530001 0.52723199 0.155535
-0.0091070002 0.53109801 0.15632001
-0.033459 0.539738 0.156067
-0.017882999 0.53772253 0.157717
-0.003144 0.53845298 0.155169
-0.028627001 0.54055703 0.15943301
0.046741001 0.46369851 0.16378099
0.0088940002 0.46591899 0.161255
0.033190336 0.46631098 0.16401267
0.043646999 0.46682501 0.16078199
0.048836 0.46918401 0.163297
0.058095999 0.46823999 0.16136999
0.060484499 0.468299 0.1627185
0.091066003 0.468494 0.162083
0.354215 0.46730599 0.16169
0.39462599 0.46608299 0.164967
0.021488 0.47044 0.16192099
0.028735001 0.47479299 0.16266499
0.032350332 0.47295535 0.16245966
0.0362815 0.47240001 0.16242149
0.043854501 0.47421002 0.16347301
0.054540001 0.47323501 0.16249099
0.071727999 0.47390899 0.163114
0.075470001 0.471021 0.162669
0.083586 0.47131699 0.16235401
0.085449003 0.47326499 0.16377901
0.017491501 0.476367 0.1636835
0.027240001 0.47969699 0.16224
0.041697666 0.47730836 0.16221167
0.045984998 0.47733501 0.163652
0.054079998 0.47587401 0.16353799
0.057909328 0.47559771 0.16264433
0.067129999 0.47859299 0.161221
0.079011999 0.475959 0.161495
0.035608999 0.48129401 0.163582
0.046819501 0.48335499 0.16290301
0.057531998 0.4818505 0.16113651
0.060713001 0.48397601 0.16045099
0.084379002 0.48039001 0.161707
0.0013306667 0.48736736 0.16101199
0.0096549997 0.48948401 0.16430999
0.0152865 0.48839951 0.16316649
0.0228005 0.488289 0.1630085
0.034729 0.48723599 0.161091
0.036168002 0.48730701 0.16413601
0.047876339 0.48533964 0.16149867
0.002043 0.491409 0.16087499
0.0089410003 0.49218649 0.1614975
0.012691 0.49744901 0.16179
0.016613999 0.49995801 0.1616565
0.028326999 0.49714801 0.162138
-0.001963 0.50456101 0.16082101
0.0034623332 0.50190938 0.16305967
0.01315 0.50392503 0.160942
0.00065100001 0.506239 0.161834
0.0083880005 0.50718153 0.16327599
0.014713 0.505611 0.160386
-0.019099999 0.51076001 0.161644
-0.0066650002 0.51397562 0.16207398
-0.00052200002 0.51000798 0.16154701
0.010147 0.51161897 0.160227
-0.002381 0.51684099 0.164655
0.0025085001 0.5179975 0.16380799
-0.001793 0.52175498 0.164698
0.0018109999 0.52112949 0.16244349
-0.015353 0.528983 0.164579
-0.0104 0.526779 0.162817
-0.024645001 0.53250498 0.162893
-0.0092139998 0.53323501 0.161328
-0.021985501 0.53746599 0.162478
0.048287001 0.464239 0.16844399
0.08935 0.46305799 0.168872
0.092008002 0.46327499 0.167193
0.095890999 0.461703 0.16811
0.38296601 0.46361601 0.16853499
0.022492999 0.465437 0.166908
0.037409998 0.46635199 0.165481
0.073013 0.46678999 0.16941801
0.092168003 0.46711701 0.16859099
0.026809668 0.47106501 0.16745265
0.038763002 0.474659 0.167349
0.040642001 0.470893 0.16648901
0.045127999 0.47371599 0.16709501
0.050788999 0.473391 0.16654401
0.059493002 0.473681 0.168025
0.071543001 0.47029701 0.16717701
0.016434999 0.47907701 0.167071
0.027199499 0.47764149 0.16722599
0.038679 0.476035 0.16892
0.044670999 0.477501 0.16766401
0.048547 0.478771 0.167358
0.062456999 0.47713599 0.169544
0.074789003 0.477249 0.166669
0.0091420002 0.48273599 0.165061
0.012230501 0.48318702 0.16798049
0.0216925 0.48356003 0.16686
0.028781001 0.48073101 0.16744199
0.032511 0.48011699 0.167475
0.036508001 0.48311201 0.165475
0.002727 0.48918301 0.169342
0.023260668 0.48788199 0.16581166
0.028865 0.48966101 0.16692001
0.036199 0.48660401 0.16515
0.040463001 0.48901299 0.167078
0.016942501 0.492697 0.16808599
0.026429001 0.49101251 0.1681675
0.042635001 0.49081501 0.16840699
0.0093830004 0.49972701 0.168924
0.022685001 0.49696299 0.168318
0.028907999 0.49552 0.165747
0.030529 0.49726099 0.167449
0.0072605 0.50113702 0.168952
0.011617 0.50304401 0.168603
0.0165045 0.5036605 0.1671475
0.024138 0.50024498 0.167767
-0.0026189999 0.506486 0.167263
0.001413 0.50933999 0.167301
0.010732667 0.50608701 0.16830401
0.021946 0.507792 0.1698
-0.010874 0.510732 0.166124
-0.0082139997 0.51357502 0.166821
0.003429 0.514884 0.16545001
0.014034 0.510885 0.166499
0.017080002 0.51369202 0.16727701
-0.010597 0.51829398 0.169093
0.0041800002 0.51820898 0.167769
0.0052700001 0.51575601 0.165152
-0.0030415 0.52373505 0.1684435
0.0024145001 0.52242649 0.1691495
0.010098 0.52261198 0.16886599
-0.003947 0.52619898 0.165769
0.00055699999 0.52793002 0.16620301
-0.0097949998 0.53109199 0.16616499
0.072865002 0.46151 0.17064001
0.081524 0.463034 0.1734245
0.054299001 0.469156 0.17155699
0.065383002 0.46632299 0.172949
0.070138 0.46748099 0.170856
0.077117004 0.46507999 0.17217
0.081464 0.46548799 0.170224
0.017014001 0.47082001 0.173512
0.030765001 0.47237799 0.173251
0.035648502 0.474116 0.17255101
0.042401001 0.47118199 0.172527
0.047115002 0.47165099 0.171997
0.058031 0.47303399 0.173141
0.062369499 0.47145349 0.1713575
0.067296997 0.470211 0.172343
0.024411 0.47845501 0.172335
0.037772 0.47684801 0.17241867
0.043398 0.47997001 0.170599
0.048606001 0.47742799 0.170616
0.050452001 0.479891 0.172005
0.061319999 0.476502 0.170514
0.074176997 0.47728801 0.17048401
0.0011540001 0.484184 0.173594
0.011967 0.48139301 0.17001
0.016741 0.484467 0.174899
0.023972001 0.481933 0.17123599
0.026988 0.48277602 0.172122
0.039094001 0.48199248 0.17244199
0.044543002 0.48492301 0.17161401
0.031024 0.48857951 0.172391
0.042569667 0.48725799 0.17219199
0.002903 0.49330652 0.170543
0.013806 0.49309799 0.170112
0.015969999 0.49260399 0.170807
0.032747999 0.49065399 0.173816
0.038435999 0.491871 0.171368
0.050232001 0.493835 0.170655
-0.002482 0.49555299 0.171634
0.011735 0.49881801 0.171391
0.017747 0.49576199 0.17120799
0.024193 0.49735999 0.171422
0.025826668 0.49794665 0.17405933
0.033351999 0.50418001 0.173471
-0.0041 0.50540602 0.170102
0.0041129999 0.509152 0.174161
0.0130805 0.50900805 0.17305401
0.017089 0.50842702 0.17338601
0.020221001 0.50808501 0.171996
0.0097650001 0.51384401 0.173263
0.012159999 0.51464599 0.17301801
0.018344 0.51186699 0.17222799
0.020026 0.51329702 0.17384399
-0.00088499999 0.51804399 0.171552
0.0096169999 0.51689303 0.172847
0.01171375 0.51737702 0.17208226
-0.014527 0.52094901 0.172187
-0.001463 0.522286 0.172654
0.015198 0.52203 0.17177901
-0.0022090001 0.528144 0.17136499
0.062505998 0.46312401 0.175183
0.077358998 0.46124601 0.17580999
0.098560996 0.460076 0.17686599
0.049534999 0.469648 0.176048
0.052216999 0.46696299 0.178808
0.073202997 0.46889901 0.17613101
0.085729003 0.46607 0.176642
0.038121 0.47444499 0.178105
0.045685001 0.47094399 0.178957
0.0526365 0.47286803 0.17863199
0.058185 0.47496501 0.17941201
0.028685 0.47919601 0.17837401
0.030805999 0.478993 0.17996
0.045538999 0.47801 0.17835
0.053036999 0.47536001 0.176678
0.056919999 0.478668 0.178637
0.029113 0.48279801 0.17567
0.051874001 0.48415101 0.175228
0.016733 0.487688 0.17747401
0.02217 0.49287 0.177036
0.025978001 0.49360001 0.175671
0.031863999 0.49021399 0.175404
0.038782001 0.490152 0.17670199
0.021738 0.49954399 0.175161
0.025465 0.498597 0.17563701
0.027425 0.50040901 0.17535
0.031447999 0.50378299 0.177007
0.012552 0.50563198 0.17512099
0.020577 0.50959402 0.175768
0.0080589997 0.51211798 0.176994
0.012978 0.51181197 0.17594001
0.017072 0.5126735 0.17629901
-0.014619 0.51965201 0.177946
-0.000181 0.51662803 0.175772
0.014478 0.51744097 0.176622
0.016909 0.51542199 0.176447
-0.012085 0.52217197 0.17850401
0.087847002 0.45539901 0.184174
0.049329001 0.461698 0.182806
0.076445997 0.46011999 0.183035
0.056802001 0.469915 0.18084501
0.043876499 0.47399649 0.1841885
0.045093998 0.47034499 0.180453
0.058281001 0.47407401 0.180227
0.037397001 0.4765785 0.182165
0.043949999 0.47858301 0.182788
0.049575001 0.47792801 0.182428
0.028989 0.48328999 0.184771
0.038069334 0.48223332 0.18320467
0.046393 0.48219401 0.183498
0.050446 0.48016399 0.180869
0.026973 0.48938 0.182303
0.042067666 0.48523867 0.18196733
0.0082670003 0.49182349 0.1804525
0.022341 0.49171102 0.182331
0.029484 0.491631 0.180594
0.027391501 0.49781799 0.18414351
0.031463001 0.49554801 0.18492
0.008138 0.50742698 0.18395101
0.016244 0.50920349 0.18370649
0.027550999 0.50621098 0.18016601
0.0032629999 0.51113302 0.184986
0.0080709998 0.51083797 0.184634
0.011802 0.51457298 0.181495
0.018919 0.51210099 0.183917
0.021699 0.51324904 0.181972
0.094458997 0.45361099 0.18602601
0.102782 0.450849 0.189817
0.062121999 0.45970401 0.18771601
0.089685 0.45542401 0.186481
0.058137 0.46494201 0.185561
0.071745001 0.463388 0.188724
0.054155 0.469859 0.18848699
0.067663997 0.46705499 0.185335
0.047816001 0.47486901 0.187773
0.051514 0.47453001 0.18653999
0.060469002 0.47549301 0.18956999
0.065133996 0.47642201 0.18565699
0.031718999 0.48056999 0.185692
0.042447001 0.48245451 0.187324
0.022081999 0.489503 0.187259
0.031815 0.487223 0.188448
0.035528999 0.48911199 0.187635
0.048345 0.48577899 0.189321
0.017872 0.49267101 0.187013
0.029491 0.490803 0.188675
0.032074999 0.49005699 0.185131
0.038424 0.49467 0.188876
0.045929998 0.49144199 0.187187
0.027557999 0.4990305 0.18702149
0.023281001 0.50902802 0.186922
0.012413 0.51381397 0.18845201
0.069519997 0.44972199 0.19444001
0.10714 0.44960201 0.191211
0.064663999 0.451554 0.190892
0.084059998 0.45282701 0.193295
0.095643997 0.45123401 0.192215
0.047922999 0.4594 0.194561
0.058322001 0.45678899 0.192297
0.068860002 0.45743299 0.193928
0.073169 0.45867899 0.194115
0.070594996 0.4601655 0.1912335
0.056809999 0.46605301 0.19114
0.062082499 0.466351 0.1931185
0.044665001 0.47105601 0.192066
0.052802999 0.47027099 0.19373
0.057134002 0.47244349 0.19372851
0.042700499 0.47801501 0.19314149
0.024096999 0.48785499 0.19078401
0.031672999 0.4863525 0.1910975
0.035379998 0.487582 0.190405
0.043421 0.485223 0.193235
0.030254999 0.49448299 0.19316299
0.042132001 0.49086201 0.190422
0.017352 0.49959099 0.191603
0.026045 0.495803 0.19211701
0.03317 0.49724501 0.19269
0.018536 0.50241798 0.19261301
0.018978 0.50910997 0.191061
0.021648001 0.506809 0.194231
0.075317003 0.448926 0.197622
0.086479999 0.44635499 0.197254
0.064939 0.45153701 0.19970401
0.067763999 0.45328799 0.19578201
0.072518997 0.45469499 0.19637799
0.084618002 0.45304301 0.196788
0.085337996 0.45332301 0.19735999
0.053571001 0.45770201 0.195279
0.075981997 0.458947 0.199623
0.054271001 0.46350601 0.197292
0.058276001 0.46044701 0.197758
0.064704001 0.46388501 0.197881
0.067184001 0.46213999 0.19939999
0.071791999 0.46181899 0.19994099
0.038180999 0.46910799 0.19807
0.042987999 0.46644899 0.19585501
0.037770499 0.47236598 0.199231
0.051876999 0.47014499 0.195228
0.031881999 0.47917399 0.19993199
0.028539 0.480609 0.19747899
0.032671999 0.488763 0.19813199
0.025140001 0.49183801 0.19638599
0.018802499 0.49763 0.199123
0.026552334 0.49835101 0.19611134
0.033702001 0.49518099 0.195785
0.038316 0.49753201 0.19858199
0.034821 0.50434899 0.19583599
0.082249001 0.44828501 0.20120101
0.085703 0.44617099 0.203853
0.054892998 0.454335 0.204547
0.065756999 0.45333001 0.202535
0.046045002 0.45627701 0.204327
0.059275001 0.46190301 0.201465
0.063905999 0.46011099 0.20288301
0.04298 0.46856201 0.202658
0.049024999 0.47222799 0.200691
0.051018 0.47239801 0.20241299
0.038660001 0.47819301 0.20124
0.045068 0.47641799 0.202143
0.031067999 0.48278999 0.20077001
0.037092 0.48488301 0.204339
0.041943002 0.48256433 0.202751
0.036302 0.48620951 0.20276999
0.039726 0.490199 0.204907
0.029868999 0.49880701 0.20168
0.030568 0.496187 0.203399
0.063300997 0.44463301 0.20784551
0.077525496 0.44123602 0.2072745
0.080817997 0.44148499 0.20928399
0.100958 0.440878 0.20941301
0.077942997 0.44895801 0.20979001
0.065811999 0.45229 0.205432
0.080608003 0.452941 0.20679601
0.085496001 0.45355499 0.20564599
0.048893001 0.459185 0.20750199
0.048859 0.464623 0.209399
0.029204 0.46844599 0.209767
0.051886 0.46675599 0.20556501
0.035308 0.47337699 0.20727199
0.043233 0.47488001 0.20530701
0.034479 0.477925 0.209755
0.051840998 0.476605 0.205116
0.023077 0.48867801 0.20738
0.027191 0.48785701 0.20915
0.036504999 0.48855701 0.20537899
0.026125001 0.49195299 0.208867
0.022951499 0.4973405 0.20625001
0.067501999 0.44119799 0.21484999
0.078605503 0.44293651 0.21267751
0.084853001 0.44248399 0.21499901
0.085647002 0.44112599 0.212706
0.093551002 0.44477499 0.211548
0.061864 0.44927001 0.214532
0.071878001 0.44696251 0.21154174
0.082534 0.446675 0.212301
0.048710998 0.454074 0.210868
0.061044998 0.45094201 0.21216699
0.065874003 0.45052299 0.213643
0.046719499 0.456985 0.21264499
0.051667999 0.46046099 0.210861
0.034341 0.46815601 0.212483
0.040789001 0.46530101 0.212635
0.045584001 0.46592 0.212621
0.045876998 0.470577 0.213985
0.033732001 0.479072 0.21112201
0.039967 0.48449299 0.21058799
0.032315001 0.49237201 0.21334
0.088850997 0.43643099 0.21502399
0.098444998 0.43690699 0.215013
0.056047 0.44428 0.21863
0.071922004 0.4425 0.218284
0.080723003 0.44319201 0.217538
0.058995001 0.44911999 0.219436
0.066976003 0.44947201 0.21617299
0.07903 0.445921 0.216897
0.057838999 0.45430201 0.216942
0.064655498 0.4527505 0.21920401
0.045226999 0.45709601 0.21805701
0.066030003 0.45626101 0.21667001
0.045880999 0.46464801 0.215003
0.051973667 0.46164766 0.21797766
0.044254001 0.468494 0.216712
0.033374 0.47125199 0.216178
0.037843 0.47385299 0.219456
0.031831503 0.478809 0.21880549
0.039530002 0.48333299 0.218327
0.033183999 0.488556 0.21867201
0.0356545 0.48789251 0.217095
0.073403999 0.43219101 0.222433
0.093493998 0.43489 0.22392499
0.110803 0.43334699 0.222085
0.084123999 0.43586001 0.223785
0.087277003 0.4369185 0.22459349
0.094554 0.436701 0.220779
0.099629 0.43529299 0.22348
0.058577999 0.44454199 0.224346
0.044344999 0.44846201 0.220238
0.063899003 0.44902501 0.22315601
0.070749998 0.44893301 0.22355001
0.077375002 0.44566 0.22364751
0.058171999 0.45370701 0.22137301
0.064781003 0.450672 0.220713
0.069468997 0.454561 0.220814
0.039303001 0.456379 0.224038
0.054995 0.45673901 0.221957
0.063414998 0.458902 0.222422
0.044551499 0.463927 0.22229899
0.054533999 0.46309999 0.22171199
0.0575765 0.4630475 0.222054
0.035535 0.469704 0.222357
0.043990999 0.46560299 0.224282
0.045809999 0.465675 0.22012199
0.053412002 0.46658301 0.222551
0.054023001 0.47240201 0.22073901
0.025807001 0.47634101 0.22205549
0.030254999 0.47728401 0.222666
0.036844999 0.47746 0.222523
0.040708002 0.47607899 0.22338501
0.028456001 0.480369 0.224235
0.030198 0.48497099 0.22276799
0.083649002 0.43008301 0.22638901
0.092178002 0.434214 0.227367
0.099143997 0.43412399 0.22699501
0.064015001 0.43790099 0.229871
0.067777 0.438575 0.226827
0.080655001 0.43677849 0.22675151
0.085518003 0.43704101 0.228692
0.069250502 0.44246751 0.22656099
0.077126995 0.44336247 0.22591701
0.083483003 0.44138101 0.228193
0.053038999 0.448782 0.228034
0.066784002 0.44941899 0.226383
0.071278669 0.44900966 0.22881268
0.075735003 0.44622201 0.22826301
0.052429497 0.452131 0.22882
0.058988001 0.45298699 0.22500101
0.062043499 0.45200348 0.227303
0.054908998 0.45824799 0.229619
0.059654001 0.45919901 0.225867
0.065824002 0.45673499 0.228706
0.053199999 0.46360999 0.226153
0.059434999 0.46475899 0.229388
0.041279502 0.4663595 0.225878
0.051522501 0.46827051 0.22671649
0.041935999 0.47357401 0.225852
0.027538 0.47816899 0.22898801
0.043067999 0.475885 0.229794
0.039958999 0.482831 0.225788
0.098259002 0.42876199 0.231766
0.086936995 0.43278199 0.231967
0.090648003 0.43384999 0.234052
0.053675 0.43640399 0.234579
0.078575999 0.43725201 0.232887
0.082396001 0.43725801 0.23160499
0.089020997 0.43738601 0.230434
0.091132 0.43857601 0.23205
0.062070001 0.44331199 0.23440599
0.077413 0.44203201 0.232574
0.080622002 0.440476 0.23063201
0.087226495 0.44274953 0.23262826
0.05872 0.44999501 0.23453
0.067377001 0.44619301 0.23330501
0.073893003 0.44726199 0.233317
0.077216998 0.44629753 0.2342425
0.052478001 0.45286801 0.230526
0.062738001 0.454891 0.230059
0.068080999 0.451092 0.232236
0.073958002 0.452903 0.23113599
0.048742998 0.45986 0.232141
0.054816 0.45960101 0.232501
0.063996002 0.45885101 0.233697
0.039863002 0.46472999 0.233353
0.057677001 0.46036699 0.232513
0.061505001 0.460262 0.23260599
0.047076002 0.46663952 0.23195049
0.034898002 0.470741 0.23176999
0.040539 0.47233 0.231233
0.046951 0.47084799 0.231369
0.056485999 0.471104 0.232989
0.035392001 0.47533 0.23417
0.087716997 0.42491201 0.236393
0.094379 0.42428699 0.23869801
0.098577 0.42470601 0.238337
0.100953 0.4271 0.236802
0.105497 0.42876899 0.238515
0.112609 0.426258 0.236239
0.069655001 0.433346 0.23736501
0.070951 0.432861 0.23980699
0.087853499 0.4315505 0.237148
0.093690999 0.43147501 0.23776001
0.1021695 0.43069249 0.23740199
0.087249003 0.43634701 0.23545
0.066441 0.44080299 0.23528799
0.073604003 0.44438151 0.2375095
0.082396999 0.44445699 0.236515
0.059098002 0.44701701 0.237928
0.063854001 0.447451 0.237615
0.065651998 0.44935599 0.237013
0.076457001 0.44727901 0.235443
0.081152998 0.44658601 0.2353
0.055688001 0.453228 0.236688
0.066732004 0.45189899 0.2387595
0.071509495 0.45054001 0.23772749
0.079538003 0.450306 0.239041
0.048638999 0.459925 0.238957
0.062146001 0.458727 0.235594
0.065192997 0.45835701 0.236875
0.035734002 0.464966 0.235934
0.047245 0.46117401 0.236049
0.057285 0.463375 0.238286
0.062670998 0.46001199 0.236481
0.053197499 0.466133 0.2379075
0.038444001 0.47495699 0.23712599
0.040941 0.47387999 0.2359315
0.049557999 0.470072 0.23953401
0.103622 0.42146349 0.24344349
0.091524996 0.42815164 0.24181266
0.101523 0.42534 0.240697
0.066302001 0.43264899 0.241413
0.074822001 0.43197101 0.242768
0.079687998 0.432895 0.242477
0.082774997 0.434075 0.24449
0.087426998 0.434358 0.24280401
0.090345502 0.43294099 0.24149799
0.103438 0.43053901 0.244867
0.070821002 0.43765199 0.24161801
0.078546003 0.43701401 0.242943
0.087591998 0.43755102 0.2411945
0.081784993 0.44259399 0.2422355
0.085336 0.442119 0.240897
0.069403499 0.44744301 0.2415335
0.077899002 0.44750899 0.24340899
0.050664999 0.454063 0.240014
0.059882998 0.453251 0.244241
0.064418495 0.45303851 0.24198201
0.051863998 0.45713651 0.243616
0.067203499 0.458148 0.24236399
0.070012003 0.459012 0.243394
0.048841499 0.46126801 0.24142849
0.059757501 0.46276301 0.24433401
0.043797001 0.465884 0.24116001
0.046239998 0.46562001 0.240174
0.058619998 0.46632901 0.244559
0.042327002 0.47029001 0.24410599
0.045639999 0.47029501 0.241925
0.094687 0.419848 0.246378
0.1032705 0.42308551 0.24827251
0.11463 0.42005399 0.248522
0.115672 0.423343 0.249975
0.078929 0.428893 0.248247
0.091790497 0.42652449 0.2462085
0.098260999 0.42546001 0.24549399
0.100096 0.425044 0.249727
0.078956999 0.432129 0.246732
0.088974498 0.4336375 0.2454845
0.092410997 0.43250149 0.24670401
0.099321 0.43074301 0.24567001
0.066320002 0.437736 0.248917
0.082182497 0.4385215 0.24812099
0.093217 0.43685901 0.246079
0.066407502 0.4419795 0.24874949
0.077826001 0.444215 0.246306
0.051047999 0.44670749 0.24723201
0.072214998 0.44981301 0.249928
0.078564003 0.447653 0.247602
0.061937001 0.45116401 0.2472
0.066131003 0.452768 0.24660949
0.076943003 0.45087501 0.24753401
0.080670998 0.45305401 0.249244
0.046239 0.45998201 0.245979
0.054424502 0.45727649 0.245913
0.057876997 0.45768699 0.24821499
0.060008999 0.459241 0.245718
0.075593002 0.459232 0.24989
0.052797999 0.461914 0.24902999
0.059257001 0.46102101 0.248726
0.061643999 0.46154201 0.249071
0.047959 0.46803901 0.245125
0.080592997 0.422254 0.250258
0.093837 0.42059499 0.25260901
0.098673999 0.42186251 0.2528325
0.104173 0.42473352 0.25099999
0.105221 0.421924 0.252141
0.111677 0.422728 0.25165799
0.084265999 0.429077 0.25448999
0.089745 0.42901 0.25447601
0.103369 0.426263 0.251959
0.106103 0.42925099 0.254859
0.079719998 0.432794 0.25100899
0.085456997 0.430987 0.25233099
0.094398998 0.43287399 0.252561
0.097698003 0.43151551 0.25282252
0.082718 0.43551099 0.252287
0.086134337 0.4366397 0.25360033
0.091982 0.43590799 0.25492901
0.062664002 0.441315 0.25289899
0.070758998 0.44104901 0.252895
0.077831998 0.44323799 0.25258699
0.081245005 0.442056 0.2527895
0.066206999 0.44690999 0.25077999
0.074762002 0.44541699 0.25436199
0.056467 0.455055 0.25450099
0.061027002 0.458307 0.25467801
