# .PCD v0.7 - Point Cloud Data file format
VERSION 0.7
FIELDS x y z
SIZE 4 4 4
TYPE F F F
COUNT 1 1 1
WIDTH 1608
HEIGHT 1
VIEWPOINT 0 0 0 1 0 0 0
POINTS 1608
DATA ascii
-1.287437 -1.21995 2.7570109
-1.289467 -1.1996469 2.7578361
-1.2849261 -1.187799 2.7585411
-1.24243 -1.188828 2.758605
-1.284413 -1.166556 2.7590051
-1.263165 -1.167071 2.759037
-1.307362 -1.138831 2.7550731
-1.32837 -1.11851 2.7576439
-1.307688 -1.1181099 2.7560551
-1.298781 -1.113163 2.7557809
-1.328696 -1.09779 2.758625
-1.308014 -1.097389 2.757036
-1.32059 -1.093716 2.75843
-1.329022 -1.077069 2.7596059
-1.30834 -1.076668 2.758018
-1.321756 -1.0730259 2.759419
-1.230752 -1.47014 2.7649319
-1.194096 -1.424974 2.762563
-1.173722 -1.422855 2.760546
-1.196142 -1.40451 2.7633941
-1.229773 -1.375613 2.760006
-1.2312649 -1.368036 2.761076
-1.250949 -1.35513 2.7625971
-1.230101 -1.354726 2.7609961
-1.253249 -1.348433 2.763747
-1.23244 -1.34718 2.762074
-1.211632 -1.345927 2.760401
-1.209583 -1.333436 2.7603829
-1.233616 -1.326324 2.7630711
-1.230758 -1.312953 2.762974
-1.209911 -1.312549 2.761373
-1.213984 -1.304215 2.7623949
-1.231087 -1.292066 2.763963
-1.21024 -1.291662 2.762362
-1.2151591 -1.2833591 2.7633929
-1.2613029 -1.273356 2.7604749
-1.231415 -1.271179 2.7649529
-1.210568 -1.270775 2.763351
-1.240237 -1.252602 2.7600291
-1.260946 -1.231548 2.7616329
-1.240059 -1.231698 2.760607
-1.220017 -1.222371 2.7647271
-1.260767 -1.210644 2.7622111
-1.281476 -1.18959 2.7638149
-1.260589 -1.1897399 2.76279
-1.311712 -1.181446 2.7606609
-1.281297 -1.168686 2.764394
-1.26041 -1.168836 2.7633691
-1.281119 -1.147782 2.7649729
-1.260232 -1.1479321 2.763948
-1.295558 -1.138737 2.7603109
-1.317802 -1.120536 2.7631359
-1.3041199 -1.102314 2.7603619
-1.349704 -1.077469 2.7611949
-1.342399 -1.0742691 2.7610791
-1.350029 -1.056748 2.762177
-1.329347 -1.056348 2.7605879
-1.32434 -1.0593131 2.7612569
-1.343565 -1.053579 2.762069
-1.322922 -1.052336 2.7604091
-1.371037 -1.036428 2.7647469
-1.350355 -1.036027 2.7631581
-1.3450741 -1.0375561 2.761688
-1.323827 -1.038071 2.7617199
-1.2511261 -1.47226 2.766948
-1.232798 -1.449676 2.765763
-1.216516 -1.406629 2.7654099
-1.2389359 -1.388284 2.7682581
-1.2519341 -1.29247 2.7655649
-1.235967 -1.2846121 2.7650659
-1.2522629 -1.271583 2.7665551
-1.257951 -1.265009 2.767736
-1.237143 -1.263756 2.766063
-1.252591 -1.2506959 2.767544
-1.2317441 -1.2502919 2.7659421
-1.2591259 -1.244153 2.768734
-1.25292 -1.229809 2.768533
-1.232072 -1.229406 2.7669311
-1.2603019 -1.223297 2.769731
-1.241094 -1.222091 2.7651041
-1.239494 -1.2220449 2.7680581
-1.253248 -1.208922 2.769522
-1.240669 -1.201189 2.7690549
-1.301808 -1.175316 2.767
-1.286395 -1.166467 2.767066
-1.24389 -1.1668741 2.7674079
-1.301808 -1.1542341 2.767
-1.238562 -1.1542341 2.767
-1.286193 -1.145215 2.7672911
-1.264941 -1.145419 2.767462
-1.282105 -1.13722 2.767086
-1.301808 -1.133152 2.767
-1.301828 -1.1267281 2.766577
-1.2809401 -1.126878 2.765552
-1.2818201 -1.116142 2.7673919
-1.301808 -1.11207 2.767
-1.343423 -1.1055239 2.769206
-1.301649 -1.105824 2.7671559
-1.307042 -1.102507 2.767571
-1.301808 -1.090989 2.767
-1.280726 -1.090989 2.767
-1.322358 -1.08477 2.768759
-1.306841 -1.081255 2.767796
-1.302325 -1.073707 2.768383
-1.301808 -1.0699069 2.767
-1.280726 -1.0699069 2.767
-1.344106 -1.061728 2.767611
-1.322179 -1.063866 2.7693379
-1.30204 -1.052629 2.7686901
-1.32289 -1.048825 2.767
-1.247121 -1.306428 2.7715831
-1.228793 -1.2838449 2.7703991
-1.230839 -1.263381 2.77123
-1.25326 -1.245036 2.7740779
-1.273767 -1.230213 2.7701349
-1.255306 -1.224573 2.774909
-1.294943 -1.20973 2.7727261
-1.282285 -1.2036951 2.7724011
-1.261477 -1.202442 2.7707281
-1.295272 -1.188843 2.773715
-1.274424 -1.188439 2.7721131
-1.283461 -1.182839 2.7733979
-1.262653 -1.181586 2.7717249
-1.274753 -1.1675529 2.773103
-1.284636 -1.161983 2.7743959
-1.263828 -1.16073 2.772723
-1.275081 -1.146666 2.774092
-1.254234 -1.146262 2.77249
-1.265004 -1.139874 2.77372
-1.156826 -1.4725029 2.7789321
-1.1588891 -1.451876 2.7797699
-1.1943181 -1.439091 2.777241
-1.173342 -1.4378279 2.7755539
-1.174527 -1.416803 2.7765601
-1.175712 -1.395779 2.777565
-1.196624 -1.385445 2.7792671
-1.175608 -1.385038 2.777652
-1.154592 -1.384631 2.7760379
-1.176897 -1.374754 2.7785709
-1.154923 -1.3635761 2.777035
-1.207733 -1.283783 2.779799
-1.2756799 -1.226692 2.7769251
-1.2777261 -1.206228 2.7777569
-1.279772 -1.185764 2.7785881
-1.295928 -1.1470701 2.7756929
-1.285812 -1.141127 2.775393
-1.296257 -1.126183 2.7766831
-1.275409 -1.125779 2.7750809
-1.296585 -1.105296 2.7776721
-1.308971 -1.100668 2.7790611
-1.275738 -1.104892 2.7760701
-1.290514 -1.057704 2.7793829
-1.197898 -1.4767751 2.7829969
-1.177362 -1.4746391 2.7809651
-1.1999609 -1.456148 2.7838349
-1.179425 -1.454012 2.7818029
-1.160951 -1.431249 2.7806079
-1.18355 -1.412758 2.783479
-1.196955 -1.36439 2.7802639
-1.169201 -1.348742 2.7839611
-1.197286 -1.343334 2.781261
-1.22122 -1.3352309 2.7839551
-1.200243 -1.333968 2.782268
-1.1976171 -1.322278 2.782259
-1.201429 -1.3129441 2.783273
-1.202613 -1.291919 2.7842791
-1.207553 -1.262709 2.7803819
-1.253638 -1.241294 2.7803459
-1.232216 -1.2418129 2.7803791
-1.249305 -1.220261 2.7836161
-1.231698 -1.220396 2.7808461
-1.2531199 -1.219877 2.780813
-1.249125 -1.199188 2.7842
-1.23118 -1.1989779 2.7813129
-1.2280689 -1.199339 2.7831659
-1.300146 -1.187883 2.7806039
-1.252085 -1.177043 2.7817481
-1.322566 -1.169538 2.783452
-1.302192 -1.167419 2.781436
-1.272989 -1.155107 2.782182
-1.2944109 -1.154588 2.78215
-1.315316 -1.132652 2.7825849
-1.293893 -1.133171 2.7826171
-1.272471 -1.13369 2.78265
-1.306285 -1.126491 2.7830989
-1.293376 -1.1117539 2.7830839
-1.292858 -1.090336 2.783551
-1.31428 -1.089818 2.783519
-1.310146 -1.079812 2.7800579
-1.3137619 -1.068401 2.7839861
-1.31809 -1.063926 2.7812519
-1.311322 -1.058957 2.7810559
-1.218434 -1.478911 2.7850289
-1.220497 -1.458284 2.785867
-1.222559 -1.437657 2.786705
-1.226684 -1.396403 2.7883811
-1.206148 -1.394267 2.7863491
-1.228747 -1.375777 2.7892189
-1.2082109 -1.373641 2.7871871
-1.187674 -1.371505 2.7851551
-1.210273 -1.353014 2.7880249
-1.189737 -1.350878 2.7859931
-1.212335 -1.332387 2.7888629
-1.214398 -1.3117599 2.789701
-1.224775 -1.272158 2.7869711
-1.2196259 -1.259518 2.786865
-1.246936 -1.252396 2.7896631
-1.22596 -1.251133 2.787976
-1.2199579 -1.238462 2.787863
-1.227145 -1.230109 2.7889819
-1.254473 -1.21925 2.7896731
-1.220289 -1.217407 2.7888601
-1.2720701 -1.210354 2.7884319
-1.2508219 -1.210636 2.7880521
-1.229573 -1.210919 2.7876711
-1.22833 -1.209084 2.7899871
-1.25427 -1.197824 2.7899001
-1.271783 -1.189104 2.7887411
-1.2505341 -1.189386 2.7883611
-1.271495 -1.167854 2.7890511
-1.291186 -1.163662 2.7895999
-1.271207 -1.146605 2.78936
-1.291186 -1.142408 2.7895999
-1.269932 -1.142408 2.7895999
-1.269641 -1.135818 2.786983
-1.270919 -1.125355 2.789669
-1.291186 -1.121153 2.7895999
-1.269932 -1.121153 2.7895999
-1.290517 -1.114593 2.7886
-1.328705 -1.108146 2.7859459
-1.269932 -1.0998991 2.7895999
-1.290337 -1.09352 2.7891841
-1.3307509 -1.087682 2.786778
-1.290157 -1.0724469 2.789768
-1.3327971 -1.0672179 2.7876091
-1.230809 -1.35515 2.7900569
-1.232872 -1.334523 2.790895
-1.234934 -1.3138959 2.791734
-1.21646 -1.291133 2.790539
-1.2411211 -1.252015 2.7942481
-1.283337 -1.218628 2.793704
-1.241305 -1.217814 2.7904739
-1.262652 -1.197165 2.7930861
-1.241636 -1.196758 2.791471
-1.250491 -1.1893229 2.7926791
-1.262983 -1.176109 2.7940831
-1.241967 -1.175702 2.792469
-1.251676 -1.168298 2.793684
-1.253863 -1.154971 2.790354
-1.252861 -1.147274 2.7946899
-1.296514 -1.133134 2.790236
-1.275087 -1.133339 2.7904091
-1.2963099 -1.111708 2.790463
-1.274883 -1.111913 2.7906361
-1.29188 -1.103822 2.790359
-1.311393 -1.093369 2.7902169
-1.2961071 -1.090281 2.7906909
-1.291593 -1.0825731 2.790668
-1.311213 -1.072296 2.790801
-1.31733 -1.06865 2.790745
-1.295903 -1.068855 2.7909181
-1.143801 -1.4813401 2.799257
-1.123101 -1.479187 2.797209
-1.12518 -1.458395 2.798053
-1.160367 -1.447736 2.7967491
-1.162756 -1.4053431 2.7987759
-1.14176 -1.395046 2.7972519
-1.163951 -1.384147 2.7997899
-1.142094 -1.373818 2.7982581
-1.243184 -1.231388 2.7950859
-1.265782 -1.212898 2.797956
-1.2493711 -1.169508 2.7976
-1.251434 -1.148881 2.7984381
-1.2636451 -1.133998 2.796078
-1.2959991 -1.128775 2.799068
-1.275023 -1.127512 2.7973821
-1.2534961 -1.1282541 2.7992761
-1.263976 -1.112942 2.797075
-1.285324 -1.092293 2.7996869
-1.14588 -1.460548 2.800102
-1.147959 -1.439756 2.800946
-1.1707391 -1.4211169 2.8038399
-1.150038 -1.418964 2.801791
-1.1728179 -1.4003249 2.8046839
-1.186293 -1.364224 2.8025041
-1.165145 -1.362951 2.8008029
-1.156275 -1.356588 2.8043261
-1.187488 -1.3430279 2.8035171
-1.16634 -1.341755 2.8018169
-1.185137 -1.332183 2.803524
-1.188682 -1.3218319 2.8045311
-1.19576 -1.294091 2.8015599
-1.238034 -1.272541 2.8042319
-1.195578 -1.272846 2.8021481
-1.2378531 -1.251296 2.8048201
-1.216625 -1.251448 2.8037779
-1.2180076 -1.209132 2.8046861
-1.2408299 -1.187188 2.8048551
-1.2904429 -1.17378 2.8016641
-1.27197 -1.151017 2.8004701
-1.2945679 -1.132526 2.80334
-1.274032 -1.13039 2.8013079
-1.296631 -1.111899 2.804178
-1.297184 -1.1077501 2.8000741
-1.276095 -1.109763 2.802146
-1.30634 -1.0927 2.801302
-1.2983691 -1.086726 2.801079
-1.278157 -1.089136 2.802984
-1.285655 -1.071238 2.800684
-1.193518 -1.402478 2.8067329
-1.174897 -1.3795331 2.8055291
-1.199755 -1.340102 2.809267
-1.179054 -1.337949 2.807219
-1.158354 -1.335796 2.8051701
-1.206658 -1.311366 2.8061571
-1.189877 -1.300635 2.8055439
-1.206992 -1.290138 2.807163
-1.21222 -1.280713 2.8082581
-1.191072 -1.279439 2.8065579
-1.2073261 -1.268911 2.8081679
-1.213414 -1.259516 2.8092721
-1.20766 -1.247683 2.8091731
-1.218412 -1.242381 2.8099151
-1.237671 -1.230051 2.805408
-1.2585371 -1.187408 2.807627
-1.237309 -1.18756 2.8065851
-1.2619081 -1.165071 2.805294
-1.258355 -1.166163 2.8082149
-1.240308 -1.165593 2.805326
-1.2371269 -1.166315 2.807173
-1.236946 -1.14507 2.807761
-1.261386 -1.143476 2.8057649
-1.2581739 -1.144917 2.8088031
-1.239786 -1.143999 2.8057981
-1.282463 -1.121358 2.8062029
-1.260864 -1.121881 2.806236
-1.257992 -1.123672 2.809391
-1.317167 -1.114035 2.806211
-1.260341 -1.100287 2.8067069
-1.2819411 -1.099764 2.806674
-1.319229 -1.093408 2.807049
-1.2986929 -1.091272 2.805017
-1.303019 -1.077646 2.807112
-1.281419 -1.078169 2.8071451
-1.321292 -1.072781 2.8078871
-1.203913 -1.2985179 2.810957
-1.226692 -1.279879 2.8138499
-1.205992 -1.2777261 2.811801
-1.228771 -1.259087 2.8146949
-1.208071 -1.256934 2.8126459
-1.21015 -1.236142 2.8134911
-1.2432261 -1.229502 2.812958
-1.207994 -1.226455 2.810179
-1.218122 -1.220956 2.810226
-1.212229 -1.21535 2.8143361
-1.243021 -1.207898 2.8131881
-1.229515 -1.2056381 2.8128121
-1.221417 -1.208105 2.8133609
-1.2387004 -1.1982241 2.8124676
-1.217831 -1.199532 2.8105381
-1.196408 -1.1998169 2.8101549
-1.2375 -1.194643 2.8125
-1.216071 -1.194643 2.8125
-1.242816 -1.186294 2.813417
-1.221212 -1.186501 2.813591
-1.260388 -1.177539 2.8116169
-1.238965 -1.1778229 2.811233
-1.217541 -1.178108 2.8108499
-1.2375 -1.173214 2.8125
-1.260098 -1.156114 2.811929
-1.238674 -1.156399 2.8115449
-1.258929 -1.151786 2.8125
-1.2375 -1.151786 2.8125
-1.216071 -1.151786 2.8125
-1.26401 -1.142879 2.8137009
-1.242406 -1.143086 2.813875
-1.2593679 -1.1325235 2.8123698
-1.2375 -1.130357 2.8125
-1.27922 -1.12352 2.8104329
-1.263805 -1.1212749 2.81393
-1.242201 -1.121482 2.8141041
-1.280941 -1.112981 2.8129361
-1.259517 -1.113266 2.812552
-1.258929 -1.108929 2.8125
-1.279039 -1.102275 2.811022
-1.285205 -1.0994641 2.8139851
-1.2636 -1.099671 2.8141589
-1.28065 -1.091557 2.813247
-1.280357 -1.0875 2.8125
-1.11181 -1.467213 2.8187449
-1.125831 -1.456488 2.816505
-1.148357 -1.436401 2.819241
-1.127036 -1.435117 2.8175271
-1.12824 -1.413747 2.818548
-1.128691 -1.405597 2.818743
-1.129028 -1.384195 2.819757
-1.108003 -1.36238 2.819129
-1.23085 -1.238295 2.8155401
-1.25363 -1.219656 2.818433
-1.232929 -1.217503 2.8163841
-1.2557091 -1.198864 2.819278
-1.235008 -1.1967109 2.817229
-1.237087 -1.1759191 2.818074
-1.251371 -1.1635931 2.8164511
-1.239166 -1.155127 2.8189189
-1.251704 -1.142365 2.817456
-1.2628779 -1.134885 2.818754
-1.241245 -1.134335 2.8197629
-1.252038 -1.121138 2.8184609
-1.134774 -1.448424 2.8216619
-1.169678 -1.437685 2.820955
-1.13687 -1.4274631 2.8225141
-1.116002 -1.425293 2.8204491
-1.149562 -1.415031 2.8202629
-1.138966 -1.406503 2.823365
-1.150766 -1.393661 2.821285
-1.193113 -1.3854361 2.8246801
-1.1410609 -1.385543 2.8242171
-1.151971 -1.37229 2.8223071
-1.130649 -1.371007 2.8205919
-1.172088 -1.363621 2.824053
-1.150726 -1.363207 2.8224111
-1.129365 -1.362793 2.82077
-1.153175 -1.35092 2.823329
-1.151063 -1.341805 2.8234251
-1.129701 -1.341392 2.821784
-1.15438 -1.32955 2.8243511
-1.151399 -1.320403 2.824439
-1.183561 -1.3045371 2.823606
-1.162159 -1.30469 2.822556
-1.183378 -1.2831171 2.8241999
-1.161976 -1.283271 2.823149
-1.183195 -1.261698 2.8247931
-1.161793 -1.261851 2.8237419
-1.276409 -1.201017 2.821326
-1.278488 -1.180225 2.822171
-1.20893 -1.18155 2.8205221
-1.2121741 -1.161586 2.8217361
-1.264025 -1.115696 2.8226571
-1.28522 -1.114962 2.8214681
-1.27356 -1.10032 2.821095
-1.266104 -1.0949039 2.8235011
-1.159834 -1.408674 2.8254299
-1.161929 -1.387713 2.826282
-1.193449 -1.364035 2.8256941
-1.143157 -1.364583 2.825068
-1.172424 -1.342219 2.8250661
-1.1452529 -1.343623 2.8259201
-1.175701 -1.330834 2.8260651
-1.194123 -1.321231 2.8277211
-1.172761 -1.320817 2.8260801
-1.1682169 -1.324833 2.8288369
-1.176905 -1.309464 2.8270869
-1.194459 -1.299829 2.8287351
-1.173098 -1.299415 2.8270941
-1.17811 -1.288093 2.828109
-1.1567889 -1.286809 2.826395
-1.194796 -1.278427 2.8297479
-1.173434 -1.278013 2.8281071
-1.179314 -1.266723 2.8291309
-1.157993 -1.265439 2.8274159
-1.2309721 -1.262833 2.8269351
-1.209192 -1.26336 2.826968
-1.204597 -1.261544 2.8258431
-1.187411 -1.263888 2.8270011
-1.230445 -1.241058 2.82741
-1.208665 -1.241585 2.8274429
-1.204414 -1.240124 2.826436
-1.186885 -1.242112 2.827476
-1.183012 -1.240278 2.825386
-1.225817 -1.239971 2.827487
-1.2081389 -1.21981 2.8279181
-1.204232 -1.2187051 2.827029
-1.182829 -1.218858 2.825979
-1.2274215 -1.19732 2.8285165
-1.204049 -1.1972851 2.8276219
-1.227067 -1.175722 2.8290505
-1.301268 -1.161586 2.8250639
-1.225085 -1.154292 2.829859
-1.249593 -1.131655 2.829752
-1.190416 -1.350688 2.8327701
-1.193686 -1.330567 2.8339939
-1.209953 -1.329174 2.832967
-1.189085 -1.327003 2.8309021
-1.19118 -1.306043 2.831753
-1.193276 -1.2850831 2.8326049
-1.200636 -1.268007 2.8308451
-1.195372 -1.264123 2.833457
-1.195132 -1.257025 2.8307619
-1.206782 -1.252771 2.8328609
-1.185181 -1.253058 2.8324749
-1.223161 -1.24792 2.833581
-1.20184 -1.246637 2.831867
-1.197468 -1.243163 2.8343079
-1.195469 -1.235623 2.8317759
-1.20649 -1.231169 2.8331759
-1.184889 -1.231456 2.8327889
-1.2243659 -1.22655 2.8346031
-1.217167 -1.214635 2.83443
-1.205904 -1.187966 2.8338039
-1.227213 -1.166077 2.8345051
-1.22692 -1.144475 2.83482
-1.246304 -1.132719 2.831502
-1.224902 -1.1328731 2.830452
-1.205027 -1.12316 2.8347471
-1.267524 -1.111146 2.8331461
-1.246121 -1.111299 2.8320949
-1.224719 -1.1114531 2.8310449
-1.098235 -1.476194 2.8398139
-1.112229 -1.466689 2.8383369
-1.090731 -1.465395 2.8366089
-1.113443 -1.445142 2.8393681
-1.0919451 -1.4438469 2.8376391
-1.09316 -1.4223 2.83867
-1.210011 -1.2401381 2.8368189
-1.188226 -1.240347 2.8369949
-1.231796 -1.239929 2.8366439
-1.199564 -1.222203 2.83516
-1.2098041 -1.218353 2.83705
-1.188019 -1.218562 2.8372259
-1.22557 -1.20518 2.8356249
-1.2095979 -1.196569 2.837281
-1.238865 -1.193646 2.837085
-1.217504 -1.193233 2.835444
-1.248096 -1.185093 2.838362
-1.2264605 -1.183372 2.8362236
-1.252961 -1.174367 2.837162
-1.239202 -1.172244 2.838099
-1.231176 -1.174576 2.837337
-1.249301 -1.163723 2.8393829
-1.22798 -1.162439 2.8376689
-1.239538 -1.150843 2.839113
-1.248521 -1.144188 2.835206
-1.226146 -1.139722 2.8357999
-1.248228 -1.122586 2.835521
-1.2266279 -1.1228729 2.835134
-1.247752 -1.1181149 2.8357999
-1.226146 -1.1181149 2.8357999
-1.25234 -1.109014 2.8378539
-1.269536 -1.100698 2.836221
-1.117161 -1.499514 2.841037
-1.158177 -1.478521 2.8446231
-1.1213861 -1.457251 2.8427539
-1.1447181 -1.434513 2.8439579
-1.114658 -1.423594 2.8403981
-1.115414 -1.416334 2.840611
-1.125612 -1.414988 2.844471
-1.13737 -1.403342 2.8431571
-1.115872 -1.402047 2.841429
-1.1157531 -1.3947541 2.8416331
-1.117087 -1.3805 2.842459
-1.116432 -1.351596 2.843677
-1.1495889 -1.31532 2.84498
-1.210031 -1.2299629 2.8401141
-1.2133 -1.209842 2.8413379
-1.239875 -1.129441 2.840126
-1.273031 -1.1222661 2.843142
-1.251744 -1.1213624 2.8424876
-1.261573 -1.108452 2.8427811
-1.240212 -1.108039 2.84114
-1.174931 -1.502249 2.8465209
-1.178226 -1.481969 2.847755
-1.1815211 -1.461689 2.8489881
-1.161472 -1.458241 2.845856
-1.164767 -1.437961 2.84709
-1.171357 -1.397401 2.8495581
-1.1513079 -1.393953 2.846426
-1.154603 -1.373673 2.8476591
-1.139799 -1.360247 2.8452179
-1.141014 -1.3387001 2.8462479
-1.13831 -1.330434 2.846354
-1.163726 -1.318447 2.8490069
-1.160188 -1.3092721 2.84903
-1.143443 -1.2956049 2.848309
-1.149404 -1.293723 2.845578
-1.14922 -1.272126 2.8461759
-1.170615 -1.250374 2.8478329
-1.170431 -1.2287771 2.8484311
-1.170246 -1.20718 2.8490291
-1.223107 -1.14948 2.84501
-1.295557 -1.10218 2.8458779
-1.184816 -1.441409 2.8502221
-1.18811 -1.421129 2.8514559
-1.1914051 -1.400849 2.85269
-1.1947 -1.380569 2.8539231
-1.174651 -1.377121 2.850791
-1.177946 -1.356841 2.852025
-1.181241 -1.336561 2.8532591
-1.184536 -1.316282 2.8544919
-1.164487 -1.312834 2.8513601
-1.180366 -1.292576 2.853786
-1.1677819 -1.292554 2.8525939
-1.160527 -1.287692 2.8500521
-1.182479 -1.271445 2.854645
-1.175427 -1.27494 2.8508899
-1.182405 -1.26653 2.8527291
-1.188867 -1.2550991 2.853827
-1.16737 -1.253805 2.852098
-1.182745 -1.244951 2.8537509
-1.161206 -1.244534 2.852097
-1.196329 -1.230492 2.851815
-1.190082 -1.233552 2.854857
-1.183084 -1.223372 2.854773
-1.217762 -1.208001 2.8522611
-1.191826 -1.2070251 2.8500879
-1.217231 -1.186042 2.85274
-1.213221 -1.1852731 2.8517449
-1.191641 -1.185428 2.8506861
-1.238664 -1.163552 2.8531859
-1.2130359 -1.163676 2.8523431
-1.212852 -1.142079 2.852941
-1.212667 -1.120482 2.853539
-1.2595659 -1.119103 2.85411
-1.12209 -1.628813 2.855381
-1.125411 -1.608372 2.8566251
-1.128732 -1.58793 2.857868
-1.132053 -1.567489 2.859112
-1.111845 -1.564014 2.8559549
-1.1151659 -1.543573 2.857198
-1.118487 -1.523131 2.8584421
-1.1218081 -1.50269 2.8596849
-1.061072 -1.5043859 2.858191
-1.1016001 -1.499215 2.856528
-1.076725 -1.4757611 2.858803
-1.07795 -1.454033 2.8598421
-1.20788 -1.299449 2.8588581
-1.187831 -1.296002 2.855726
-1.191126 -1.275722 2.8569601
-1.1944211 -1.255442 2.8581941
-1.197716 -1.235162 2.859427
-1.21158 -1.234846 2.856586
-1.177667 -1.231714 2.8562951
-1.204623 -1.223789 2.8564279
-1.194373 -1.219775 2.8568361
-1.2137005 -1.213953 2.8585579
-1.209856 -1.2102391 2.859303
-1.192058 -1.213306 2.8576939
-1.180962 -1.211434 2.8575289
-1.171033 -1.214607 2.8594999
-1.204962 -1.2022099 2.85745
-1.183423 -1.201792 2.8557949
-1.194078 -1.197993 2.8571529
-1.214308 -1.192286 2.8590736
-1.19282 -1.19282 2.8594999
-1.171033 -1.19282 2.8594999
-1.205301 -1.18063 2.8584721
-1.215564 -1.175921 2.8578601
-1.215223 -1.170205 2.8596771
-1.214607 -1.171033 2.8594999
-1.19282 -1.171033 2.8594999
-1.205641 -1.1590509 2.859494
-1.215269 -1.154138 2.8581769
-1.214607 -1.12746 2.8594999
-1.169149 -1.5948811 2.864182
-1.14894 -1.591406 2.8610251
-1.135374 -1.547048 2.8603549
-1.158904 -1.530082 2.8647561
-1.138695 -1.526607 2.861599
-1.142017 -1.506165 2.8628421
-1.103495 -1.508798 2.8623891
-1.082283 -1.506592 2.8602901
-1.1453381 -1.485724 2.8640859
-1.084414 -1.485287 2.861155
-1.125129 -1.482249 2.860929
-1.1077549 -1.466188 2.86412
-1.12845 -1.461807 2.8621719
-1.086544 -1.463982 2.862021
-1.131771 -1.441366 2.863416
-1.109885 -1.4448839 2.864985
-1.0886739 -1.442677 2.8628869
-1.079174 -1.4323061 2.8608811
-1.101918 -1.427254 2.862854
-1.135092 -1.420925 2.86466
-1.090804 -1.421373 2.8637519
-1.102077 -1.411884 2.863662
-1.10226 -1.405495 2.8638849
-1.103301 -1.390157 2.864702
-1.102602 -1.3837349 2.8649161
-1.211175 -1.27917 2.8600919
-1.21447 -1.25889 2.861326
-1.230895 -1.212427 2.8613839
-1.20101 -1.214882 2.860661
-1.197788 -1.206807 2.861372
-1.2043051 -1.194602 2.8618951
-1.22684 -1.181047 2.860127
-1.235121 -1.1701649 2.863101
-1.2076 -1.174322 2.8631279
-1.241308 -1.16245 2.8614841
-1.2271791 -1.1594681 2.8611491
-1.259434 -1.151246 2.8641641
-1.2108949 -1.154042 2.864362
-1.190846 -1.150594 2.8612299
-1.2375846 -1.1494925 2.863198
-1.241099 -1.1404819 2.861717
-1.227519 -1.137889 2.8621709
-1.194141 -1.130314 2.862464
-1.239248 -1.1281531 2.8641424
-1.179112 -1.5335571 2.867913
-1.162225 -1.5096411 2.865999
-1.148659 -1.465283 2.865329
-1.155301 -1.4244 2.867816
-1.112015 -1.423579 2.8658509
-1.1368855 -1.4024816 2.8673594
-1.114146 -1.402274 2.8667171
-1.141735 -1.380042 2.867146
-1.1374871 -1.383175 2.8696809
-1.145056 -1.359601 2.8683901
-1.1274281 -1.348007 2.8685219
-1.125005 -1.340636 2.868645
-1.1483769 -1.339159 2.8696339
-1.120536 -1.338359 2.869314
-1.136813 -1.3261321 2.86779
-1.128653 -1.32628 2.869561
-1.234239 -1.13721 2.8687279
-1.21419 -1.133762 2.8655961
-1.088473 -1.633752 2.8718569
-1.091821 -1.613147 2.873111
-1.175509 -1.427875 2.8709731
-1.165264 -1.363076 2.871547
-1.139617 -1.361871 2.8705471
-1.1685849 -1.342635 2.8727911
-1.162959 -1.342772 2.873512
-1.141747 -1.340566 2.871413
-1.1503299 -1.327585 2.871305
-1.165089 -1.321467 2.874377
-1.151698 -1.318718 2.870877
-1.147066 -1.319298 2.871345
-1.129877 -1.304552 2.8706
-1.155019 -1.298277 2.8721211
-1.146708 -1.297747 2.8727593
-1.1527801 -1.28413 2.873383
-1.15834 -1.277835 2.873364
-1.158015 -1.260643 2.870666
-1.154004 -1.262403 2.8744221
-1.161661 -1.257394 2.874608
-1.157829 -1.238865 2.871269
-1.179217 -1.195154 2.873543
-1.108844 -1.637255 2.8750391
-1.112191 -1.61665 2.8762929
-1.115539 -1.596045 2.877547
-1.098516 -1.571937 2.875618
-1.101864 -1.551332 2.8768711
-1.105212 -1.530727 2.878125
-1.0468349 -1.513798 2.8798831
-1.025448 -1.511574 2.8777659
-1.088189 -1.506619 2.8761959
-1.027596 -1.490092 2.878639
-1.029744 -1.468611 2.8795121
-1.074515 -1.461906 2.8755209
-1.098233 -1.444804 2.879956
-1.077862 -1.441301 2.8767741
-1.1863 -1.323673 2.876476
-1.167219 -1.300162 2.8752429
-1.1632349 -1.286177 2.8751769
-1.1785491 -1.281311 2.8765211
-1.169409 -1.277528 2.8755908
-1.1829441 -1.274086 2.8799369
-1.160979 -1.2743779 2.879544
-1.139014 -1.27467 2.8791499
-1.18336 -1.2621825 2.8766956
-1.192691 -1.2597589 2.8790729
-1.1714799 -1.257553 2.8769741
-1.160682 -1.252412 2.879863
-1.176906 -1.241981 2.877203
-1.194821 -1.238454 2.8799391
-1.17361 -1.236248 2.87784
-1.164982 -1.236953 2.8758509
-1.170154 -1.23268 2.877136
-1.20593 -1.2186691 2.876559
-1.183779 -1.219205 2.8765919
-1.168304 -1.216511 2.877095
-1.17574 -1.2149431 2.878705
-1.205394 -1.196524 2.8770421
-1.171625 -1.19607 2.8783381
-1.17787 -1.193638 2.879571
-1.174946 -1.175629 2.8795819
-1.2270091 -1.173842 2.877491
-1.200791 -1.17322 2.8752141
-1.248624 -1.151161 2.8779409
-1.200605 -1.151443 2.8758171
-1.07037 -1.494541 2.8828721
-1.048983 -1.492317 2.8807549
-1.111907 -1.489517 2.8806319
-1.072518 -1.47306 2.883744
-1.115255 -1.468912 2.8818851
-1.074666 -1.451578 2.8846171
-1.118603 -1.448307 2.8831389
-1.212323 -1.329144 2.880348
-1.182647 -1.252121 2.8802559
-1.182349 -1.230155 2.8805759
-1.196951 -1.217149 2.8808041
-1.182052 -1.208189 2.8808961
-1.220292 -1.19805 2.883769
-1.201033 -1.199831 2.8810251
-1.1990809 -1.1958441 2.88167
-1.191833 -1.199545 2.881495
-1.203719 -1.185931 2.881608
-1.192557 -1.189581 2.8808651
-1.180903 -1.180903 2.8836
-1.222423 -1.176746 2.884634
-1.202258 -1.178104 2.8820641
-1.195154 -1.179104 2.8827391
-1.201212 -1.174539 2.882535
-1.203421 -1.163965 2.881928
-1.22516 -1.157681 2.884845
-1.224843 -1.158933 2.8836
-1.202873 -1.158933 2.8836
-1.178267 -1.155187 2.880826
-1.21496 -1.1464829 2.8845949
-1.203124 -1.141999 2.8822479
-1.159627 -1.582446 2.885164
-1.162975 -1.561841 2.8864181
-1.076813 -1.430097 2.8854899
-1.088048 -1.421887 2.886272
-1.100348 -1.41084 2.888479
-1.125298 -1.407097 2.8856461
-1.078961 -1.4086159 2.886363
-1.089283 -1.399976 2.88732
-1.128646 -1.386492 2.886899
-1.102496 -1.389359 2.8893521
-1.081109 -1.387135 2.8872349
-1.1319931 -1.365887 2.8881531
-1.135341 -1.345282 2.889406
-1.085405 -1.344172 2.8889811
-1.087553 -1.32269 2.889854
-1.1861939 -1.261524 2.8853929
-1.164039 -1.261737 2.885571
-1.185984 -1.23937 2.885628
-1.241503 -1.200256 2.8858681
-1.2298729 -1.194636 2.885741
-1.207718 -1.1948479 2.8859191
-1.229663 -1.1724809 2.8859761
-1.224553 -1.155441 2.8855
-1.0816129 -1.600785 2.8943851
-1.061078 -1.597253 2.8911769
-1.064453 -1.5764821 2.892441
-1.050668 -1.531407 2.8917601
-1.054042 -1.510635 2.893023
-1.057417 -1.489864 2.8942871
-1.123883 -1.391583 2.891468
-1.134239 -1.380698 2.8918829
-1.112379 -1.379382 2.890125
-1.126031 -1.370102 2.8923409
-1.111132 -1.372954 2.890274
-1.1046439 -1.367878 2.8902249
-1.111477 -1.351012 2.891314
-1.106792 -1.346396 2.8910971
-1.123822 -1.337126 2.8909841
-1.1320255 -1.328316 2.8940611
-1.138689 -1.324677 2.89066
-1.10894 -1.3249151 2.8919699
-1.145577 -1.315007 2.892669
-1.123634 -1.315165 2.891592
-1.116084 -1.31365 2.8932681
-1.1324739 -1.305658 2.894959
-1.142037 -1.304072 2.8919129
-1.14539 -1.293046 2.8932769
-1.145202 -1.271085 2.8938849
-1.1021481 -1.604316 2.897593
-1.084988 -1.580013 2.895648
-1.0883631 -1.559242 2.8969121
-1.091738 -1.53847 2.898176
-1.010798 -1.52113 2.8998129
-1.074577 -1.514167 2.8962309
-1.077952 -1.493395 2.897495
-1.064167 -1.44832 2.8968141
-1.151713 -1.3293639 2.896203
-1.134069 -1.30755 2.8950751
-1.1508271 -1.297598 2.899859
-1.128487 -1.298139 2.899893
-1.139179 -1.293056 2.8960741
-1.1561625 -1.286216 2.8978729
-1.134622 -1.2841769 2.8958321
-1.157409 -1.264504 2.8988285
-1.13677 -1.262695 2.8967049
-1.163509 -1.250551 2.8999269
-1.160305 -1.243438 2.899694
-1.157006 -1.2421449 2.8998749
-1.1667711 -1.227005 2.896178
-1.1665829 -1.205044 2.896786
-1.188339 -1.1829261 2.8984711
-1.098487 -1.496927 2.900703
-1.101862 -1.476155 2.901967
-1.015129 -1.477808 2.9015739
-1.038861 -1.45839 2.904588
-1.108611 -1.434612 2.904494
-1.088076 -1.43108 2.9012859
-1.150287 -1.275263 2.900347
-1.172627 -1.274722 2.9003129
-1.148266 -1.263154 2.903991
-1.194427 -1.251846 2.9007659
-1.172087 -1.252387 2.9008
-1.149747 -1.252928 2.9008341
-1.170117 -1.240707 2.9047101
-1.1715471 -1.230052 2.9012871
-1.186604 -1.229957 2.9027319
-1.164744 -1.228641 2.900975
-1.179252 -1.220626 2.902597
-1.1624531 -1.221957 2.9005671
-1.193347 -1.207177 2.901741
-1.171007 -1.207718 2.9017739
-1.164601 -1.2004761 2.9014399
-1.179597 -1.198683 2.903636
-1.189074 -1.186136 2.9048281
-1.215147 -1.184301 2.902194
-1.192807 -1.184842 2.9022281
-1.188135 -1.181219 2.904429
-1.166749 -1.178995 2.902312
-1.2369469 -1.161425 2.902647
-1.214607 -1.161966 2.9026811
-1.1922669 -1.1625071 2.902715
-1.05826 -1.482294 2.9058421
-1.071288 -1.476248 2.9071419
-1.056401 -1.477868 2.908443
-1.060426 -1.460633 2.9067221
-1.072533 -1.454152 2.9081991
-1.074236 -1.449648 2.908468
-1.129146 -1.438143 2.907702
-1.062592 -1.438972 2.9076021
-1.074584 -1.427519 2.9095161
-1.111986 -1.4138401 2.9057579
-1.115361 -1.393069 2.907021
-1.118736 -1.372297 2.9082849
-1.12211 -1.3515249 2.909549
-1.101575 -1.347994 2.9063411
-1.10495 -1.327222 2.907604
-1.168779 -1.23525 2.9080999
-1.168779 -1.213093 2.9080999
-1.191669 -1.196107 2.905751
-1.168779 -1.190936 2.9080999
-1.201844 -1.177164 2.906358
-1.2121691 -1.165542 2.9076331
-1.21167 -1.161962 2.907418
-1.190309 -1.1642261 2.9058759
-1.1902829 -1.1597379 2.905302
-1.043743 -1.626563 2.910264
-1.047145 -1.6056221 2.9115369
-1.050547 -1.58468 2.912812
-1.05395 -1.5637389 2.9140849
-1.096323 -1.450076 2.9101651
-1.096671 -1.427947 2.9112129
-1.097019 -1.405817 2.912261
-1.098316 -1.389189 2.913141
-1.097367 -1.383688 2.9133091
-1.090655 -1.376233 2.9123759
-1.099561 -1.367093 2.9141979
-1.110606 -1.348303 2.9145629
-1.1254849 -1.330754 2.9108119
-1.12886 -1.3099819 2.912076
-1.1322351 -1.28921 2.9133389
-1.151624 -1.272696 2.910459
-1.129279 -1.27291 2.910639
-1.13561 -1.2684391 2.914603
-1.173757 -1.250137 2.910516
-1.151412 -1.250352 2.910696
-1.1958899 -1.227579 2.910573
-1.173545 -1.227793 2.910753
-1.1512001 -1.228007 2.910933
-1.195678 -1.205235 2.91081
-1.173333 -1.205449 2.91099
-1.217811 -1.182676 2.910867
-1.195466 -1.1828901 2.911047
-1.239944 -1.160118 2.910924
-1.217599 -1.160332 2.911104
-1.081746 -1.6546251 2.915458
-1.085148 -1.633684 2.9167321
-1.074652 -1.567299 2.91732
-1.078055 -1.546358 2.9185929
-1.067559 -1.479974 2.9191811
-1.053661 -1.434531 2.9184949
-1.1216069 -1.36842 2.915971
-1.122853 -1.346323 2.917027
-1.100807 -1.344996 2.9152551
-1.120151 -1.339857 2.9171021
-1.110417 -1.3261549 2.9151759
-1.120499 -1.317727 2.9181499
-1.118718 -1.313493 2.91715
-1.0971529 -1.31125 2.9150159
-1.132358 -1.303849 2.9168749
-1.125344 -1.30213 2.9191411
-1.120847 -1.295598 2.919199
-1.15277 -1.292742 2.9165471
-1.1208839 -1.291832 2.918031
-1.099318 -1.289589 2.9158959
-1.156144 -1.27197 2.9178109
-1.12305 -1.270172 2.918911
-1.154109 -1.259394 2.919188
-1.159519 -1.251199 2.919075
-1.048692 -1.5703911 2.9233911
-1.0743639 -1.438091 2.9217291
-1.0811681 -1.396209 2.9242771
-1.084142 -1.315046 2.924767
-1.142935 -1.296026 2.9208951
-1.148635 -1.281361 2.9219699
-1.1265889 -1.280033 2.920197
-1.143283 -1.273896 2.9219429
-1.149881 -1.259264 2.923027
-1.127835 -1.257937 2.9212539
-1.146781 -1.250754 2.9219251
-1.143631 -1.251767 2.922992
-1.151126 -1.237167 2.924083
-1.162894 -1.230427 2.9203379
-1.148947 -1.229093 2.9228051
-1.143979 -1.229638 2.9240401
-1.1662689 -1.209655 2.921602
-1.175671 -1.1927921 2.9221139
-1.169644 -1.188884 2.9228649
-1.026101 -1.656316 2.929589
-1.005229 -1.652727 2.9263289
-1.008659 -1.631614 2.927613
-1.012089 -1.6105 2.9288969
-1.001508 -1.543571 2.9294901
-1.0198309 -1.511266 2.925272
-1.0573339 -1.509045 2.9294884
-1.039084 -1.504987 2.9252369
-1.0425791 -1.484471 2.927294
-1.024199 -1.467579 2.927047
-1.098469 -1.42071 2.9262371
-1.101871 -1.3997689 2.927511
-1.105273 -1.378828 2.9287851
-1.084571 -1.375268 2.9255509
-1.0947779 -1.312444 2.929373
-1.113591 -1.2967089 2.927788
-1.0912499 -1.297006 2.927388
-1.08761 -1.294693 2.9268069
-1.137686 -1.286718 2.925529
-1.13563 -1.27407 2.9285131
-1.137141 -1.26419 2.9260199
-1.157668 -1.251431 2.9292381
-1.15913 -1.241116 2.9264779
-1.136596 -1.241661 2.926512
-1.166067 -1.230065 2.9257369
-1.1797071 -1.228792 2.9299619
-1.157366 -1.229089 2.929563
-1.135025 -1.229386 2.929163
-1.196463 -1.217726 2.9286849
-1.174417 -1.216398 2.926913
-1.158585 -1.218588 2.9269691
-1.152371 -1.215071 2.9251399
-1.166415 -1.207936 2.926785
-1.144327 -1.207508 2.9250879
-1.1805741 -1.195514 2.9274261
-1.175663 -1.194301 2.927969
-1.18885 -1.186234 2.9295299
-1.1667629 -1.185807 2.9278331
-1.0469739 -1.659906 2.9328499
-1.029532 -1.635203 2.9308741
-1.032962 -1.61409 2.932158
-1.01552 -1.5893871 2.930182
-1.0398231 -1.571864 2.934727
-1.01895 -1.568274 2.9314661
-1.02238 -1.547161 2.9327509
-1.02581 -1.5260479 2.9340351
-1.004938 -1.522458 2.930774
-1.0777251 -1.510585 2.9312041
-1.056746 -1.4869601 2.9304819
-1.06003 -1.461122 2.9318359
-1.0580029 -1.464674 2.9315481
-1.048131 -1.447997 2.9300871
-1.081493 -1.443727 2.934401
-1.0603811 -1.438803 2.932893
-1.072062 -1.428416 2.933126
-1.074246 -1.4065731 2.9340141
-1.076431 -1.384729 2.934901
-1.1154799 -1.316004 2.9326069
-1.15644 -1.245827 2.9330001
-1.134093 -1.245827 2.9330001
-1.111747 -1.245827 2.9330001
-1.098013 -1.2336349 2.9329281
-1.15644 -1.22348 2.9330001
-1.10148 -1.213282 2.9349689
-1.179404 -1.20645 2.9302881
-1.15644 -1.201133 2.9330001
-1.201443 -1.1838109 2.9310131
-1.1791019 -1.184108 2.930613
-1.201133 -1.178787 2.9330001
-1.067847 -1.6634949 2.936111
-1.071277 -1.642382 2.9373951
-1.024138 -1.639864 2.9363451
-1.027662 -1.619182 2.9384179
-1.0432529 -1.55075 2.9360111
-1.046683 -1.529637 2.9372959
-1.050113 -1.5085239 2.93858
-1.029241 -1.504934 2.9353189
-1.053544 -1.487411 2.9398651
-1.032671 -1.483821 2.936604
-1.073159 -1.4267811 2.937788
-1.08275 -1.421441 2.935467
-1.083009 -1.4169151 2.935662
-1.076655 -1.406265 2.9398451
-1.08336 -1.394596 2.936718
-1.105988 -1.372709 2.939487
-1.078615 -1.362886 2.9357891
-1.097157 -1.3596621 2.9385259
-1.074838 -1.359823 2.9374299
-1.052519 -1.359983 2.9363351
-1.043458 -1.35752 2.9353099
-1.080799 -1.341042 2.936677
-1.096967 -1.337325 2.9391439
-1.116484 -1.284091 2.936028
-1.138808 -1.261337 2.936085
-1.14639 -1.256741 2.9396629
-1.125687 -1.25318 2.936429
-1.138594 -1.238799 2.9363239
-1.160919 -1.216045 2.9363821
-1.1383801 -1.216261 2.936563
-1.183243 -1.1932909 2.936439
-1.160705 -1.193507 2.936621
-0.97522002 -1.727421 2.9430649
-0.96954101 -1.658047 2.9439759
-0.95541298 -1.611852 2.943279
-1.051442 -1.602389 2.9448509
-1.031186 -1.598501 2.9404919
-0.95887202 -1.5905631 2.9445741
-1.034709 -1.577819 2.942565
-1.017976 -1.553249 2.940279
-1.0215 -1.532568 2.942353
-1.0250241 -1.511886 2.9444261
-1.0569741 -1.466298 2.941149
-1.063834 -1.424071 2.943718
-1.08015 -1.3857501 2.9419019
-1.083645 -1.365234 2.943959
-1.110009 -1.333637 2.9415181
-1.070542 -1.320346 2.943748
-1.119095 -1.314827 2.9408579
-1.1112649 -1.3113509 2.9425831
-1.141224 -1.29233 2.9425721
-1.118904 -1.29249 2.9414771
-1.1125211 -1.289065 2.9436491
-1.109098 -1.277774 2.9414909
-1.1410331 -1.269992 2.9431901
-1.113777 -1.2667789 2.944715
-1.1330301 -1.258193 2.94453
-1.163161 -1.2474951 2.9449041
-1.140842 -1.247655 2.943809
-1.149792 -1.235799 2.940937
-1.153195 -1.2148581 2.9422109
-1.156597 -1.193917 2.943485
-0.978773 -1.706571 2.9451549
-0.990587 -1.661666 2.947264
-0.99404597 -1.640378 2.948559
-0.97299999 -1.636759 2.945271
-0.997504 -1.61909 2.9498539
-0.97645903 -1.615471 2.9465671
-0.979918 -1.594183 2.9478619
-1.058489 -1.561026 2.948998
-1.002679 -1.5430059 2.9471941
-1.004881 -1.520977 2.9480889
-1.007084 -1.498948 2.9489839
-1.009287 -1.4769191 2.9498789
-1.084707 -1.4276609 2.946979
-1.067265 -1.402958 2.9450021
-1.070695 -1.381845 2.9462869
-1.0741251 -1.360732 2.947571
-1.087141 -1.344718 2.9460149
-1.0775549 -1.339619 2.9488549
-1.129669 -1.283865 2.9454269
-1.13002 -1.261546 2.9464841
-1.1372679 -1.245832 2.9475679
-1.135214 -1.236349 2.9454179
-1.130371 -1.2392271 2.947541
-1.162971 -1.225157 2.945523
-1.1385241 -1.223546 2.9486339
-1.159145 -1.216768 2.948457
-1.130722 -1.216908 2.9485979
-1.137398 -1.214506 2.946306
-1.13978 -1.20126 2.9497001
-1.161329 -1.194924 2.9493451
-1.032933 -1.7600321 2.954159
-0.98943001 -1.644019 2.951426
-0.99298197 -1.6231689 2.953516
-1.000963 -1.597802 2.951149
-1.0044219 -1.576514 2.9524441
-0.986835 -1.551607 2.9504521
-1.062013 -1.540344 2.951071
-0.99029398 -1.530318 2.9517469
-1.040707 -1.5203691 2.9532199
-0.993752 -1.50903 2.953042
-1.0419739 -1.4978909 2.9542949
-1.019547 -1.49654 2.952492
-0.99721098 -1.4877419 2.9543369
-1.0208139 -1.474061 2.953567
-1.033421 -1.457171 2.952945
-1.022081 -1.451583 2.9546421
-1.035624 -1.435143 2.95384
-1.037827 -1.413113 2.954735
-1.094998 -1.364321 2.9508319
-1.098428 -1.343208 2.952116
-1.125398 -1.321079 2.9506121
-1.102668 -1.321629 2.9506471
-1.080986 -1.318505 2.95014
-1.145641 -1.3074419 2.953603
-1.078038 -1.30834 2.9523931
-1.105289 -1.300982 2.954685
-1.124848 -1.298354 2.951108
-1.1228009 -1.285206 2.953527
-1.1002671 -1.2855051 2.953124
-1.077732 -1.285804 2.9527211
-1.097627 -1.2831711 2.9521861
-1.124299 -1.27563 2.9516039
-1.145031 -1.2623709 2.9542589
-1.122496 -1.26267 2.953855
-1.101122 -1.262655 2.954242
-1.099962 -1.262969 2.9534521
-1.122191 -1.240134 2.9541831
-1.1459301 -1.22963 2.9525609
-1.144421 -1.217299 2.954915
-1.168111 -1.206355 2.953022
-1.162015 -1.202599 2.9514871
-1.040038 -1.718331 2.9583399
-1.026721 -1.6727099 2.9581261
-1.0098521 -1.647939 2.955821
-1.013404 -1.627089 2.957911
-1.043054 -1.605041 2.957725
-0.996535 -1.602318 2.9556069
-1.000087 -1.581468 2.9576969
-1.014798 -1.51265 2.9563301
-1.0182559 -1.491361 2.957624
-1.072584 -1.478299 2.9572921
-1.043241 -1.475412 2.9553699
-1.045602 -1.472826 2.955678
-1.021715 -1.470073 2.95892
-1.076108 -1.457618 2.9593649
-1.066936 -1.454283 2.9582479
-1.044508 -1.452933 2.956445
-1.057556 -1.4374239 2.9560101
-1.068203 -1.4318039 2.9593229
-1.0457751 -1.430454 2.95752
-1.068779 -1.428237 2.959537
-1.0463099 -1.427802 2.9578099
-1.059759 -1.415395 2.9569049
-1.046664 -1.40529 2.9588771
-1.0619611 -1.393366 2.9577999
-1.0461659 -1.387796 2.956866
-1.064164 -1.3713371 2.9586949
-1.066367 -1.349308 2.95959
-1.126161 -1.304571 2.9579461
-1.129591 -1.283458 2.9592299
-1.108719 -1.279868 2.9559691
-1.112149 -1.258755 2.9572539
-1.098834 -1.256616 2.9584
-1.115579 -1.237642 2.9585381
-1.1439151 -1.234075 2.9584
-1.121374 -1.234075 2.9584
-1.166955 -1.217 2.955318
-1.1439151 -1.211535 2.9584
-1.121374 -1.211535 2.9584
-0.973822 -1.782239 2.9628971
-1.043591 -1.69748 2.9604311
-1.047143 -1.67663 2.9625211
-1.0506949 -1.655779 2.9646111
-1.016956 -1.606238 2.9600019
-1.020509 -1.585387 2.9620919
-1.007192 -1.539766 2.9618781
-1.010744 -1.518916 2.963968
-1.042761 -1.473693 2.9622071
-1.046219 -1.452405 2.9635019
-1.025174 -1.4487849 2.9602151
-1.049678 -1.431116 2.964797
-1.028633 -1.427497 2.9615099
-1.091897 -1.410676 2.9622011
-1.0693021 -1.4075255 2.9605005
-1.066422 -1.3916841 2.961226
-1.093164 -1.3881969 2.9632759
-1.091957 -1.383648 2.9633951
-1.069488 -1.383213 2.961669
-1.0699461 -1.371003 2.963299
-1.038475 -1.371573 2.960763
-1.094431 -1.365718 2.9643509
-1.092311 -1.361136 2.964462
-1.072004 -1.364368 2.962548
-1.083308 -1.348719 2.9635971
-1.0607949 -1.3488801 2.962492
-1.073271 -1.341889 2.963623
-1.090501 -1.32956 2.9626551
-1.083115 -1.326188 2.964221
-1.060603 -1.326349 2.9631159
-1.056736 -1.3257509 2.9630859
-1.0829231 -1.3036571 2.964844
-1.094907 -1.285502 2.9644451
-1.125968 -1.272496 2.961875
-1.125752 -1.249761 2.962116
-1.136452 -1.241232 2.9617989
-1.125536 -1.227026 2.962357
-1.139882 -1.220119 2.963083
-0.99441099 -1.7861921 2.9673281
-0.99799299 -1.76517 2.9694359
-0.97740299 -1.761218 2.9650049
-0.95448202 -1.667111 2.965245
-0.95796901 -1.645645 2.9665511
-1.054248 -1.6349289 2.966702
-0.95771402 -1.627183 2.968787
-1.0444829 -1.568457 2.9685769
-1.014297 -1.498065 2.966058
-1.017849 -1.4772151 2.9681489
-1.0531369 -1.4098279 2.9660921
-1.056595 -1.38854 2.967387
-1.0600539 -1.367252 2.968683
-1.114781 -1.361571 2.966188
-1.063513 -1.345964 2.9699781
-1.095698 -1.3432389 2.965426
-1.115135 -1.339059 2.9672539
-1.105628 -1.326026 2.9653251
-1.115489 -1.316547 2.9683199
-1.093019 -1.316111 2.966594
-1.0805171 -1.3089581 2.9695189
-1.105435 -1.303495 2.9659491
-1.098232 -1.298282 2.967576
-1.1158431 -1.294034 2.9693871
-1.0933729 -1.293599 2.96766
-1.127756 -1.280803 2.9676781
-1.105243 -1.280965 2.966573
-1.119041 -1.265754 2.9675109
-1.127563 -1.2582721 2.968302
-1.121244 -1.2437249 2.968406
-1.127371 -1.235741 2.968926
-1.1234469 -1.221696 2.969301
-1.0150011 -1.790144 2.9717591
-1.018582 -1.769122 2.9738669
-1.001574 -1.744148 2.9715431
-1.005156 -1.723127 2.9736509
-0.98814797 -1.698153 2.9713271
-0.99172902 -1.6771311 2.9734349
-0.97472203 -1.6521569 2.9711111
-0.97830302 -1.631135 2.973218
-0.96129501 -1.606161 2.9708951
-0.989654 -1.584897 2.973784
-0.96843201 -1.581247 2.970469
-1.048036 -1.547606 2.9706681
-0.975407 -1.5383151 2.9730811
-0.98966998 -1.530846 2.971276
-0.97889501 -1.516849 2.974386
-0.99189103 -1.508628 2.9721789
-1.034719 -1.501985 2.970454
-1.038271 -1.481135 2.972544
-1.041823 -1.460284 2.9746339
-1.021402 -1.456364 2.9702389
-1.024954 -1.435514 2.9723289
-1.0669709 -1.324676 2.9712729
-1.07043 -1.303388 2.972568
-1.08404 -1.288276 2.9715929
-1.073889 -1.2821 2.9738629
-1.116197 -1.271522 2.970453
-1.087564 -1.2675951 2.973666
-1.123193 -1.254674 2.971529
-1.116551 -1.24901 2.971519
-1.149883 -1.23558 2.970031
-1.12446 -1.232195 2.972604
-1.116905 -1.226498 2.972585
-1.1722029 -1.212887 2.9717591
-1.149691 -1.2130491 2.970654
-0.920959 -1.762435 2.9760511
-1.022164 -1.7481 2.9759741
-0.92457002 -1.741239 2.9781761
-1.025745 -1.727079 2.9780819
-1.008737 -1.702105 2.9757581
-1.012319 -1.681083 2.9778659
-0.98188502 -1.610114 2.9753261
-1.025653 -1.531666 2.977396
-1.003031 -1.530304 2.9755771
-1.0043091 -1.507629 2.976661
-0.98238301 -1.495383 2.975692
-1.0586931 -1.485055 2.976939
-1.030908 -1.484715 2.979892
-1.0069145 -1.4846151 2.9779487
-1.018454 -1.466493 2.9761729
-1.062245 -1.464204 2.9790289
-1.020676 -1.444276 2.9770761
-1.0453759 -1.4394341 2.9767239
-1.022897 -1.422058 2.9779789
-1.048928 -1.418583 2.9788151
-1.0251189 -1.399841 2.9788809
-1.032059 -1.3938119 2.97651
-1.0273401 -1.377623 2.979784
-1.035611 -1.372962 2.9786
-1.091476 -1.307007 2.9758551
-1.094934 -1.285719 2.97715
-1.098393 -1.264431 2.978446
-1.109117 -1.251052 2.9795971
-1.091087 -1.246913 2.975739
-1.1018521 -1.243143 2.9797411
-0.962479 -1.7704051 2.984987
-1.042753 -1.752053 2.9804051
-0.94533002 -1.745224 2.9826441
-0.94894099 -1.724028 2.9847691
-0.92818099 -1.7200429 2.9803009
-1.029327 -1.706057 2.9801891
-0.93179202 -1.6988471 2.9824259
-0.97052699 -1.6901 2.9826789
-0.935404 -1.677652 2.984551
-0.95637101 -1.644733 2.982342
-1.009637 -1.572022 2.9839721
-0.99262899 -1.547048 2.981648
-0.99621099 -1.526027 2.9837561
-1.007092 -1.477567 2.9803131
-1.05393 -1.462445 2.9827089
-1.031265 -1.462006 2.980968
-1.010579 -1.4561009 2.9816189
-1.065798 -1.443354 2.9811189
-1.030766 -1.440966 2.9817331
-1.0316221 -1.439298 2.982044
-1.0140671 -1.434635 2.9829249
-1.06935 -1.422503 2.9832101
-1.054667 -1.419654 2.984637
-1.0320115 -1.4174399 2.9829683
-1.017554 -1.413169 2.984231
-1.047238 -1.402141 2.98107
-1.0494601 -1.3799241 2.9819729
-1.051681 -1.357706 2.9828761
-1.0391639 -1.352111 2.980691
-1.053903 -1.335488 2.983778
-1.042716 -1.331261 2.9827809
-1.056124 -1.313271 2.9846809
-1.046268 -1.31041 2.9848709
-1.108417 -1.244838 2.9842
-1.131541 -1.228018 2.980335
-1.126356 -1.225474 2.984323
-0.97601599 -1.816781 2.9852049
-0.92575902 -1.75834 2.989053
-0.96609002 -1.749209 2.987112
-0.96970099 -1.728013 2.9892371
-0.98774898 -1.714577 2.985462
-0.956164 -1.681636 2.9890189
-0.93916899 -1.676329 2.9868729
-0.97359198 -1.66921 2.9851251
-0.94268602 -1.654682 2.9881899
-0.97665697 -1.648321 2.98757
-0.94620299 -1.6330349 2.989507
-0.96556598 -1.582065 2.9896779
-1.038776 -1.416818 2.987546
-1.078568 -1.3983409 2.98754
-1.042263 -1.395352 2.988852
-1.055002 -1.39432 2.9859359
-1.078025 -1.37205 2.9887531
-1.055359 -1.371611 2.9870119
-1.046687 -1.360455 2.987318
-1.080007 -1.359951 2.98948
-1.059585 -1.3560309 2.985086
-1.078382 -1.349342 2.9898281
-1.055716 -1.3489029 2.9880869
-1.076023 -1.3377891 2.9859669
-1.100364 -1.317872 2.989059
-1.078244 -1.315571 2.9868701
-1.0678484 -1.3145835 2.9894786
-1.080466 -1.293354 2.9877729
-1.058346 -1.2910531 2.985584
-1.082687 -1.271136 2.9886751
-1.017537 -1.824751 2.9941399
-0.90179902 -1.793088 2.9941609
-0.93193901 -1.716218 2.993984
-0.97331297 -1.706817 2.9913621
-0.976924 -1.685621 2.9934859
-0.996943 -1.6519099 2.9927981
-0.94972003 -1.611388 2.990824
-0.98278701 -1.6065429 2.992461
-0.985852 -1.5856529 2.9949059
-0.953237 -1.589741 2.992141
-0.971973 -1.563328 2.994025
-0.960271 -1.546447 2.9947751
-0.97421402 -1.540918 2.994935
-1.006956 -1.462962 2.990078
-1.010537 -1.4419399 2.9921861
-1.014119 -1.420918 2.994293
-1.101048 -1.34978 2.99157
-1.1050251 -1.331678 2.9926119
-1.052726 -1.330954 2.99277
-1.056214 -1.3094881 2.994076
-1.091522 -1.291947 2.9914351
-1.070243 -1.29348 2.9913571
-1.107581 -1.286328 2.994781
-1.102119 -1.281655 2.994797
-1.084958 -1.284966 2.9929609
-1.104807 -1.273437 2.990864
-1.073795 -1.272629 2.9934471
-1.114037 -1.269057 2.9931791
-1.107029 -1.251219 2.9917669
-1.113843 -1.24633 2.993808
-1.056926 -1.247859 2.991142
-0.92273301 -1.797106 2.998666
-0.90543997 -1.771715 2.996304
-0.909082 -1.750342 2.998446
-0.95239198 -1.719836 2.9992549
-0.93502897 -1.695158 2.996449
-0.93811899 -1.6740969 2.998915
-1.000008 -1.6310199 2.9952431
-1.003073 -1.610131 2.997689
-0.97421998 -1.575657 2.9996431
-0.978154 -1.571774 2.9968009
-0.99428397 -1.565649 2.996233
-0.98891699 -1.564764 2.9973509
-0.99198198 -1.543875 2.9997971
-0.97645402 -1.518508 2.995846
-1.001006 -1.498419 2.9989641
-1.003247 -1.476009 2.9998751
-1.034708 -1.42487 2.998724
-1.027874 -1.391446 2.997829
-1.059701 -1.288022 2.9953811
-1.063189 -1.266556 2.9966869
-1.1088589 -1.263654 2.9958651
-1.102476 -1.2589459 2.995872
-1.077348 -1.251779 2.995537
-0.98402703 -1.790254 3.0023999
-0.97284502 -1.723454 3.0045259
-0.91636503 -1.7075959 3.002732
-0.95548201 -1.698776 3.00172
-0.92000598 -1.686223 3.004874
-0.95857197 -1.6777149 3.0041859
-0.88042802 -1.678275 3.002116
-0.94120902 -1.653036 3.00138
-0.94429898 -1.6319751 3.0038459
-0.99136901 -1.6008379 3.001986
-1.006138 -1.589242 3.000134
-0.99497998 -1.5796421 3.0041111
-1.009203 -1.568352 3.002579
-0.97783101 -1.554461 3.0017681
-0.98144299 -1.533265 3.0038929
-0.96429402 -1.508085 3.00155
-0.99811101 -1.5020961 3.0046871
-0.99925601 -1.441893 3.0047021
-1.0309139 -1.370726 3.0002551
-1.08441 -1.270206 3.0000019
-1.087898 -1.24874 3.001308
-0.960958 -1.826516 3.005533
-0.96460003 -1.805143 3.0076759
-0.947308 -1.7797509 3.0053141
-0.99020702 -1.7481329 3.0073309
-0.92359298 -1.685698 3.0088589
-0.90201098 -1.681986 3.005487
-0.923648 -1.66485 3.0070169
-0.90555698 -1.6601551 3.006815
-0.96475202 -1.6355931 3.0091159
-0.90910399 -1.638325 3.0081429
-0.95047897 -1.589854 3.0087769
-1.0122679 -1.5474631 3.0050249
-1.0153331 -1.526574 3.0074699
-0.98505402 -1.512069 3.0060179
-1.018397 -1.505685 3.0099151
-0.98866498 -1.4908741 3.0081429
-1.001176 -1.481207 3.007133
-1.004241 -1.460318 3.009578
-1.036762 -1.366279 3.006635
-1.043074 -1.287846 3.0099571
-1.0391901 -1.273766 3.0090461
-1.002825 -1.834552 3.014544
-0.88231701 -1.824258 3.0125761
-0.88598901 -1.802705 3.0147369
-0.92772901 -1.792547 3.0111549
-0.91645402 -1.725194 3.013298
-0.95823199 -1.715632 3.0117421
-0.996387 -1.7060111 3.0122621
-0.99947703 -1.68495 3.0147271
-0.94458097 -1.6688679 3.0115221
-0.92714 -1.663867 3.0101869
-0.94822299 -1.647495 3.013665
-0.930686 -1.642036 3.0115149
-0.98520499 -1.6392111 3.0143869
-0.93258154 -1.6211545 3.0120726
-0.96784198 -1.614532 3.0115819
-0.93778002 -1.598374 3.0141709
-0.95357001 -1.5687931 3.0112419
-0.95665997 -1.547732 3.0137069
-1.005814 -1.516054 3.0104859
-1.009425 -1.494858 3.0126109
-1.021462 -1.484795 3.012361
-0.99227601 -1.469678 3.010268
-1.024527 -1.463906 3.014806
-0.99588799 -1.448482 3.012393
-1.007306 -1.439428 3.012023
-0.99949902 -1.427286 3.014518
-1.010371 -1.418539 3.0144689
-1.0276901 -1.402279 3.010679
-1.031207 -1.380632 3.011996
-0.99621499 -1.373172 3.014132
-1.056198 -1.29874 3.011369
-1.068037 -1.27896 3.012485
-1.05978 -1.2777179 3.0134771
-0.903427 -1.82831 3.0171189
-0.96585798 -1.8210779 3.0192981
-0.94835198 -1.796195 3.01647
-0.95146698 -1.77496 3.018955
-0.89333302 -1.759598 3.0190589
-0.93396097 -1.750077 3.0161271
-0.91957003 -1.703958 3.015784
-0.92268598 -1.682723 3.01827
-0.96551502 -1.672886 3.016027
-0.951864 -1.626122 3.0158081
-0.95550501 -1.604749 3.0179501
-0.96290898 -1.580255 3.0188711
-0.94132698 -1.576544 3.0154991
-0.97402197 -1.5724109 3.0165131
-0.95621598 -1.573751 3.0180449
-0.94185501 -1.5579849 3.01773
-0.977112 -1.55135 3.0189781
-0.95847601 -1.551146 3.0189631
-0.94487399 -1.554713 3.0168271
-0.948421 -1.532882 3.0181551
-0.96073699 -1.52854 3.019882
-0.95975 -1.526672 3.0161729
-0.96284002 -1.5056109 3.0186379
-1.0275919 -1.443017 3.017251
-1.0306571 -1.422127 3.019697
-1.0031101 -1.40609 3.016643
-1.013436 -1.39765 3.0169139
-1.0526071 -1.384313 3.0153389
-1.006721 -1.384894 3.0187681
-1.0165009 -1.37676 3.0193601
-1.048792 -1.272398 3.01858
-1.092589 -1.25887 3.0156031
