# .PCD v0.7 - Point Cloud Data file format
VERSION 0.7
FIELDS x y z
SIZE 4 4 4
TYPE F F F
COUNT 1 1 1
WIDTH 155
HEIGHT 1
VIEWPOINT 0 0 0 1 0 0 0
POINTS 155
DATA ascii
2.273196 -0.223639 1.196558
2.270932 -0.214268 1.203235
2.278178 -0.205056 1.200351
2.2965701 -0.230325 1.205038
2.2826469 -0.23325101 1.214381
2.2821651 -0.22243001 1.219327
2.287802 -0.21450999 1.218166
2.2629681 -0.19950201 1.216284
2.3061931 -0.239779 1.2228529
2.292098 -0.242863 1.232203
2.2742 -0.207664 1.232376
2.306766 -0.193703 1.231039
2.267607 -0.235287 1.235858
2.325316 -0.219191 1.235767
2.283534 -0.226937 1.245333
2.2854321 -0.215826 1.248467
2.3164721 -0.203238 1.249009
2.301549 -0.25247401 1.250026
2.278749 -0.24338301 1.25182
2.3070481 -0.23341601 1.2537971
2.292985 -0.23654801 1.2631561
2.296665 -0.223988 1.264559
2.277467 -0.201061 1.261516
2.3110001 -0.262086 1.267849
2.2898901 -0.251479 1.267781
2.29828 -0.217601 1.266925
2.3166709 -0.24287 1.271613
2.295439 -0.181173 1.274441
2.335062 -0.268139 1.2763
2.3123951 -0.21614499 1.276666
2.2887001 -0.209222 1.277608
2.3010311 -0.25957501 1.283743
2.3305659 -0.24190301 1.2814
2.2819901 -0.23683301 1.280724
2.3079031 -0.227054 1.284741
2.320451 -0.271698 1.2856719
2.3262939 -0.252323 1.289428
2.3446851 -0.277592 1.2941149
2.299932 -0.217384 1.2937
2.3067639 -0.189402 1.290665
2.330956 -0.28148001 1.297693
2.3383269 -0.263239 1.299786
2.311887 -0.25577199 1.298802
2.2931311 -0.244929 1.2966861
2.350426 -0.221376 1.295186
2.299134 -0.211239 1.297869
2.3299019 -0.28130901 1.303495
2.3455911 -0.23184399 1.302918
2.335917 -0.26177701 1.3072439
2.3111651 -0.225546 1.309792
2.2919681 -0.202619 1.306749
2.3543079 -0.287045 1.311931
2.3303621 -0.248473 1.312835
2.331461 -0.235534 1.31262
2.2903659 -0.19542301 1.310997
2.3495591 -0.27140099 1.315878
2.349632 -0.26129299 1.317354
2.3367469 -0.215892 1.31616
2.342957 -0.29016 1.320747
2.3678019 -0.28705201 1.322088
2.327148 -0.245961 1.320372
2.3294129 -0.20586 1.323112
2.276746 -0.19838201 1.3203681
2.3639309 -0.29649901 1.329746
2.34554 -0.27123001 1.3250591
2.341594 -0.25663501 1.328927
2.322397 -0.23370799 1.325883
2.322823 -0.21947099 1.325864
2.360791 -0.279562 1.33197
2.3409939 -0.24522901 1.330598
2.3464539 -0.225427 1.33413
2.3879859 -0.266918 1.336229
2.3650041 -0.25091499 1.338858
2.3144319 -0.218942 1.338932
2.3773351 -0.296747 1.340065
2.383554 -0.276402 1.343586
2.3336289 -0.24187 1.341975
2.332356 -0.229165 1.343841
2.373554 -0.30595201 1.347562
2.398802 -0.28343499 1.348541
2.3528271 -0.264797 1.345018
2.3792729 -0.250714 1.349588
2.391221 -0.31065199 1.351105
2.382781 -0.29918399 1.3535351
2.397603 -0.27669799 1.354363
2.3280029 -0.239599 1.351315
2.386868 -0.30644199 1.358043
2.4034719 -0.25596201 1.357666
2.371417 -0.245433 1.358629
2.325665 -0.22710399 1.355024
2.410126 -0.291664 1.364765
2.393261 -0.28593701 1.361555
2.3907709 -0.26854801 1.361697
2.3705599 -0.23451 1.362947
2.383177 -0.31540599 1.3653769
2.377964 -0.31390899 1.366738
2.429481 -0.31478 1.367833
2.3676929 -0.30797401 1.368098
2.38889 -0.26049399 1.367722
2.371964 -0.29348701 1.3721811
2.407218 -0.286477 1.372497
2.382741 -0.25366199 1.3748519
2.3658659 -0.244497 1.37007
2.3633871 -0.230546 1.371784
2.362236 -0.32200301 1.379768
2.4255469 -0.31246099 1.377272
2.402967 -0.29547301 1.3795249
2.402096 -0.276777 1.377921
2.4132631 -0.26558101 1.375792
2.4215181 -0.32095999 1.384253
2.4408059 -0.323008 1.384057
2.3526061 -0.316764 1.38266
2.4214511 -0.29989299 1.380989
2.3801761 -0.24428999 1.381081
2.314527 -0.30925301 1.388585
2.356236 -0.301581 1.3852119
2.398505 -0.270273 1.385856
2.4043419 -0.24948899 1.389149
2.374711 -0.238775 1.388008
2.346508 -0.33009699 1.392799
2.4168341 -0.29625699 1.390631
2.4134209 -0.28500599 1.3941441
2.423054 -0.275199 1.393918
2.367326 -0.26635501 1.390251
2.337518 -0.32555401 1.397222
2.435163 -0.32224 1.395406
2.412674 -0.30500799 1.397495
2.432775 -0.30812201 1.397213
2.4312241 -0.33049601 1.402223
2.4081211 -0.28005299 1.40399
2.3785591 -0.274517 1.406343
2.3852789 -0.26356801 1.406009
2.4154661 -0.335527 1.411974
2.4247451 -0.293235 1.410368
2.4038301 -0.289056 1.410737
2.412046 -0.343766 1.418824
2.42238 -0.31454301 1.415465
2.3994081 -0.26384899 1.417349
2.351058 -0.318268 1.4212019
2.417737 -0.289832 1.422124
2.341248 -0.34702599 1.428854
2.396059 -0.348591 1.428255
2.4360659 -0.315815 1.426899
2.4135361 -0.29859099 1.428707
2.335196 -0.32643101 1.4343441
2.4032781 -0.32795 1.431952
2.387495 -0.332665 1.441385
2.4273529 -0.299611 1.440258
2.384578 -0.34111899 1.448163
2.39451 -0.31213501 1.44508
2.3685679 -0.345633 1.4572819
2.3758841 -0.32543799 1.461179
2.352273 -0.363812 1.466833
2.377939 -0.35516301 1.474954
2.3592291 -0.367836 1.490433
