# .PCD v0.7 - Point Cloud Data file format
VERSION 0.7
FIELDS x y z
SIZE 4 4 4
TYPE F F F
COUNT 1 1 1
WIDTH 1435
HEIGHT 1
VIEWPOINT 0 0 0 1 0 0 0
POINTS 1435
DATA ascii
-0.364108 0.93938899 -0.86971802
-0.35722199 0.947999 -0.86827701
-0.37688601 0.95408398 -0.86593699
-0.38115501 0.95666099 -0.86516899
-0.374906 0.96801102 -0.86762798
-0.35624999 0.90146703 -0.86294001
-0.336353 0.91138899 -0.86351502
-0.34189901 0.91777003 -0.86348099
-0.379677 0.92761302 -0.86240602
-0.382038 0.93362099 -0.86024803
-0.3612 0.94906998 -0.86050099
-0.41838801 0.95666498 -0.86077201
-0.38289401 0.96111202 -0.863428
-0.37597701 0.96707898 -0.861417
-0.34021699 0.89896101 -0.85623598
-0.41026399 0.903804 -0.85518098
-0.37310401 0.91188502 -0.85888398
-0.35832 0.91705698 -0.857014
-0.40183699 0.925161 -0.85909301
-0.341093 0.93048799 -0.85976201
-0.364741 0.95262301 -0.85528499
-0.409491 0.95558298 -0.85985202
-0.351684 0.959328 -0.85818601
-0.39250499 0.962237 -0.85755998
-0.38640401 0.96071303 -0.85638201
-0.38285199 0.90337902 -0.850788
-0.351522 0.90518498 -0.85186702
-0.33202699 0.90844101 -0.85102302
-0.373963 0.91341102 -0.85281903
-0.36028701 0.912489 -0.85462499
-0.34057301 0.91995198 -0.85180902
-0.38524601 0.92081302 -0.85280299
-0.36302149 0.9220705 -0.85264003
-0.37405601 0.92770201 -0.850178
-0.35172701 0.92799199 -0.85100597
-0.384608 0.93177801 -0.85353202
-0.35106099 0.93256801 -0.85479498
-0.332744 0.93653601 -0.85403502
-0.352312 0.94300199 -0.85322303
-0.38663301 0.94934899 -0.854954
-0.36410299 0.948915 -0.85445303
-0.40070799 0.95195299 -0.85206598
-0.359532 0.95193899 -0.85341001
-0.37993801 0.96207398 -0.85178101
-0.33959201 0.891954 -0.84976
-0.31744501 0.891527 -0.84926701
-0.39285401 0.89916402 -0.84660798
-0.318138 0.895257 -0.84704
-0.32872099 0.90031701 -0.84980297
-0.352411 0.90656298 -0.84536302
-0.33706701 0.91379702 -0.84750801
-0.39675099 0.92536002 -0.84932202
-0.360109 0.93134803 -0.84508198
-0.33752999 0.93018198 -0.84701002
-0.35607699 0.94243699 -0.84693402
-0.368931 0.952272 -0.849379
-0.39182699 0.96061403 -0.84998798
-0.32794401 0.898184 -0.84229398
-0.35457501 0.91505098 -0.84404999
-0.37920699 0.92068499 -0.84068298
-0.35364801 0.93314302 -0.84449297
-0.328145 0.93210399 -0.84071898
-0.400397 0.93753302 -0.840307
-0.375251 0.94351298 -0.84336299
-0.33655301 0.94293803 -0.843584
-0.38302901 0.94724101 -0.84335899
-0.37544501 0.89452398 -0.83803499
-0.35298899 0.90012699 -0.83549899
-0.33097401 0.90147698 -0.837605
-0.32774401 0.90451598 -0.83779001
-0.33234799 0.90749103 -0.83736402
-0.31441301 0.90563601 -0.83776897
-0.41497999 0.915151 -0.83946103
-0.359844 0.91970497 -0.837152
-0.346266 0.91862297 -0.83786398
-0.30607501 0.916143 -0.83652699
-0.355919 0.92490101 -0.83815402
-0.31467101 0.92077702 -0.83651501
-0.368835 0.92655301 -0.83827299
-0.35401601 0.928262 -0.837677
-0.36140299 0.94824398 -0.83977997
-0.395284 0.88872403 -0.83224702
-0.358309 0.89163399 -0.834553
-0.31457901 0.89414197 -0.83372098
-0.30581799 0.89033699 -0.83337498
-0.317642 0.903117 -0.83038402
-0.37015301 0.90950602 -0.83152002
-0.328172 0.911928 -0.83094001
-0.39778101 0.917108 -0.83460802
-0.361664 0.91600901 -0.83204401
-0.347323 0.919604 -0.83092999
-0.37654099 0.92543203 -0.834499
-0.34922701 0.93005699 -0.83075899
-0.34143102 0.93291301 -0.83229554
-0.35117301 0.93970197 -0.831981
-0.32884401 0.93999302 -0.83280897
-0.33316201 0.94259298 -0.83053899
-0.34810299 0.94605899 -0.834979
-0.30555701 0.88460797 -0.82989901
-0.35803601 0.889884 -0.82946199
-0.33039799 0.90013099 -0.82659
-0.34068999 0.90576798 -0.82979202
-0.32312301 0.91055 -0.82677501
-0.40128201 0.92109698 -0.82679802
-0.33142501 0.92842799 -0.82897598
-0.32675099 0.938959 -0.82766098
-0.32353601 0.93676603 -0.82996303
-0.35015199 0.944758 -0.82964802
-0.40475401 0.94898897 -0.82929999
-0.393749 0.94583499 -0.82746899
-0.36827001 0.95120603 -0.82817602
-0.303541 0.87959498 -0.820014
-0.31323001 0.88395202 -0.82315898
-0.29226199 0.88517201 -0.82349801
-0.289691 0.886603 -0.82362098
-0.39786401 0.89367998 -0.824368
-0.32867599 0.90133601 -0.82412601
-0.335495 0.90782303 -0.82103199
-0.32613599 0.91275197 -0.823686
-0.301254 0.928509 -0.82100803
-0.34100899 0.93206 -0.823861
-0.35155001 0.93731302 -0.82168299
-0.324278 0.94467902 -0.82358098
-0.33417499 0.88007998 -0.81858099
-0.32552901 0.88693798 -0.81976497
-0.30727801 0.88697499 -0.81904399
-0.37850201 0.89010602 -0.81731999
-0.305141 0.90987301 -0.81970698
-0.332582 0.91039699 -0.81839299
-0.32992399 0.91342199 -0.81897402
-0.38176301 0.917494 -0.81969303
-0.30920199 0.91976398 -0.81519502
-0.36480501 0.92451203 -0.81822997
-0.34584501 0.92331499 -0.81759101
-0.400235 0.92932701 -0.81651503
-0.36641699 0.92744398 -0.816203
-0.32593501 0.93341303 -0.81583899
-0.37127301 0.93800098 -0.819291
-0.35295701 0.94030899 -0.81888598
-0.34397101 0.94024003 -0.81588
-0.343878 0.94506299 -0.817469
-0.30482399 0.880431 -0.81270897
-0.30895099 0.89345902 -0.81249303
-0.26985499 0.89076 -0.81242502
-0.31909499 0.89919299 -0.812859
-0.30501401 0.89612103 -0.81119502
-0.327645 0.91214103 -0.81267101
-0.317839 0.91470701 -0.81150103
-0.307199 0.91470301 -0.81138003
-0.295692 0.91428 -0.81100899
-0.305484 0.92382598 -0.81289703
-0.37888601 0.92685997 -0.81195402
-0.34916601 0.93033499 -0.81130302
-0.32173499 0.93726599 -0.810992
-0.363307 0.94376099 -0.81421697
-0.329997 0.94069397 -0.81035101
-0.28966901 0.87255698 -0.807414
-0.300194 0.87953401 -0.80611598
-0.28737301 0.88396502 -0.80971402
-0.318625 0.88806802 -0.80698401
-0.30638301 0.886747 -0.80914599
-0.29509699 0.88655299 -0.809304
-0.27313599 0.88612902 -0.808815
-0.29840299 0.89272797 -0.806328
-0.376546 0.89839399 -0.80978101
-0.311551 0.89613301 -0.80517399
-0.28799701 0.89728999 -0.80741698
-0.34325501 0.90702301 -0.806925
-0.320526 0.90933901 -0.80533397
-0.30037299 0.90649998 -0.80878401
-0.28715 0.91120303 -0.80586898
-0.31982601 0.91610599 -0.808824
-0.35325 0.86797398 -0.803159
-0.28397599 0.87270999 -0.80078501
-0.33988899 0.88133699 -0.80450797
-0.28708801 0.885216 -0.80332297
-0.30623701 0.89881903 -0.800569
-0.30523399 0.90403301 -0.803249
-0.28440699 0.90015799 -0.80265802
-0.30598199 0.918571 -0.80130303
-0.30025801 0.91884202 -0.80233198
-0.33380201 0.92010599 -0.80289602
-0.32739499 0.922773 -0.80342001
-0.30212 0.92225498 -0.80226099
-0.385728 0.92941099 -0.80276
-0.32887399 0.925367 -0.80034202
-0.30685899 0.92671698 -0.80244797
-0.26634201 0.86257303 -0.79501498
-0.30122799 0.86769903 -0.79726601
-0.32691699 0.87212199 -0.796951
-0.32329401 0.87640101 -0.79552603
-0.29984999 0.89317602 -0.79860198
-0.29891899 0.90196198 -0.79908198
-0.26545599 0.90282297 -0.79675001
-0.305953 0.91531801 -0.795645
-0.32339299 0.924465 -0.79674399
-0.31946501 0.93170601 -0.79841799
-0.30473301 0.93201703 -0.799272
-0.35998499 0.87136698 -0.79137099
-0.29791999 0.87476897 -0.79364699
-0.30587599 0.89004701 -0.79246598
-0.283187 0.896097 -0.794034
-0.273332 0.89762199 -0.79009199
-0.28251699 0.90791899 -0.79330498
-0.288928 0.91218603 -0.79176599
-0.34807301 0.91849798 -0.79171598
-0.28271699 0.923361 -0.79007101
-0.34018299 0.92672402 -0.79311198
-0.31803599 0.92629701 -0.79261899
-0.305783 0.92686403 -0.79291397
-0.30579999 0.86515701 -0.78933603
-0.30669799 0.87146503 -0.78654498
-0.355663 0.87999099 -0.785366
-0.27844399 0.88410598 -0.78653401
-0.30981401 0.89707702 -0.788827
-0.29793701 0.89831901 -0.78619301
-0.35780901 0.90806401 -0.78731602
-0.30987301 0.90831399 -0.78718901
-0.30101499 0.91626 -0.78744602
-0.29369599 0.91661799 -0.786102
-0.334261 0.92549902 -0.78578401
-0.308741 0.925659 -0.78527898
-0.298962 0.92644501 -0.78785598
-0.28500101 0.85830098 -0.78184098
-0.278184 0.85731798 -0.784132
-0.26106101 0.85868102 -0.78282797
-0.296929 0.87065798 -0.784549
-0.27255499 0.87412798 -0.78236699
-0.33466801 0.87756401 -0.78087997
-0.32807499 0.88779002 -0.78043199
-0.30809101 0.89979702 -0.78125799
-0.33265099 0.90329897 -0.78087699
-0.331352 0.91352499 -0.78266799
-0.28336599 0.91200298 -0.78418303
-0.26105699 0.914886 -0.781075
-0.29010299 0.86652899 -0.77756399
-0.262144 0.87450302 -0.77918398
-0.32927099 0.87746501 -0.77869701
-0.31367299 0.87513798 -0.77639401
-0.28763801 0.89337999 -0.77501798
-0.269804 0.89366603 -0.77604097
-0.27455801 0.89932603 -0.777762
-0.279001 0.90822899 -0.77835399
-0.281975 0.91325402 -0.77575397
-0.26978701 0.91912299 -0.77873403
-0.28078601 0.85828102 -0.77193499
-0.23994599 0.85549599 -0.77364802
-0.281436 0.86500001 -0.77187097
-0.31199399 0.87286001 -0.77018899
-0.29267699 0.872711 -0.77190799
-0.25558501 0.87359202 -0.77348697
-0.281376 0.88553798 -0.77382803
-0.35122901 0.89332998 -0.77160501
-0.31070301 0.89109802 -0.77415597
-0.27963701 0.89524901 -0.77291501
-0.292647 0.90407503 -0.772672
-0.29548699 0.90953797 -0.77185702
-0.26782399 0.91243303 -0.77273399
-0.248437 0.91121298 -0.77040702
-0.28990301 0.91866702 -0.77038902
-0.279726 0.92015898 -0.77323598
-0.34176099 0.85289299 -0.76579201
-0.25112799 0.85423601 -0.76817697
-0.240312 0.85575902 -0.76766801
-0.248788 0.86117703 -0.76521701
-0.34773499 0.86776602 -0.76951098
-0.285447 0.869528 -0.76974601
-0.27996901 0.87030602 -0.76731497
-0.257043 0.87491202 -0.76709098
-0.26749301 0.88706702 -0.768884
-0.248614 0.88600498 -0.76779199
-0.27547199 0.89628601 -0.76937199
-0.26026499 0.89752799 -0.76621503
-0.25732201 0.90030801 -0.76938498
-0.277248 0.908571 -0.76540101
-0.337367 0.91464698 -0.765158
-0.25676599 0.84989703 -0.764826
-0.275592 0.85353601 -0.76248598
-0.233098 0.863271 -0.76068097
-0.26003799 0.87032902 -0.76466
-0.29488501 0.87791902 -0.76246899
-0.27641299 0.88082302 -0.76393098
-0.33708099 0.88958102 -0.76308697
-0.232986 0.88986599 -0.762842
-0.26973501 0.89383698 -0.76121402
-0.28253901 0.90641499 -0.76143497
-0.29565901 0.91442198 -0.76297402
-0.322705 0.84937602 -0.75885499
-0.25777 0.84557199 -0.75537199
-0.23670401 0.84790301 -0.75852197
-0.21961699 0.84802198 -0.759076
-0.26519299 0.85579503 -0.75583202
-0.26929301 0.86192101 -0.75708801
-0.36468801 0.86804497 -0.75619698
-0.26981601 0.86745501 -0.75904
-0.235855 0.867351 -0.75832498
-0.25816399 0.87248999 -0.75710303
-0.31608599 0.88715398 -0.75860101
-0.26319501 0.88531798 -0.75655901
-0.25263801 0.885674 -0.756464
-0.36778799 0.89482099 -0.758044
-0.31626201 0.89424402 -0.756356
-0.25856501 0.89986598 -0.75887299
-0.27540499 0.90727198 -0.75695997
-0.30364799 0.84585899 -0.75191802
-0.27542999 0.84775001 -0.75149798
-0.237084 0.85242301 -0.75182801
-0.26249999 0.85845703 -0.75471997
-0.249596 0.85576499 -0.75066501
-0.236013 0.86754698 -0.75234997
-0.31667501 0.884121 -0.75458902
-0.29508999 0.88472801 -0.75411499
-0.274937 0.88231099 -0.75278997
-0.273316 0.89305198 -0.75143403
-0.25153899 0.89263201 -0.75094998
-0.284675 0.90879703 -0.75390601
-0.27250099 0.90846699 -0.75221002
-0.247446 0.85767001 -0.74787199
-0.237508 0.85644197 -0.74715698
-0.21498699 0.85990399 -0.74969101
-0.34563199 0.864528 -0.74926001
-0.25132 0.865538 -0.74976403
-0.25412101 0.872702 -0.74547398
-0.24719401 0.883793 -0.74997801
-0.29966599 0.88930798 -0.74737501
-0.26455399 0.89931202 -0.74649298
-0.25397849 0.89916503 -0.74794745
-0.23185 0.90444601 -0.74510002
-0.25460601 0.836703 -0.74079502
-0.21423601 0.83539498 -0.742221
-0.230194 0.84971899 -0.74436402
-0.29629499 0.854056 -0.74418002
-0.25483999 0.85118097 -0.74295402
-0.21965 0.85126603 -0.74430603
-0.23533399 0.85966402 -0.74066198
-0.215351 0.859721 -0.74387401
-0.32657501 0.86101103 -0.74232298
-0.25524601 0.86361802 -0.74203998
-0.240429 0.87411702 -0.74163997
-0.231765 0.87920702 -0.743002
-0.255898 0.89098901 -0.74331403
-0.318499 0.89917099 -0.74080801
-0.26599199 0.90600997 -0.74462599
-0.212062 0.83388901 -0.73645401
-0.233334 0.83529598 -0.73862398
-0.22309101 0.83853 -0.73650402
-0.109967 0.83685601 -0.73937798
-0.23486 0.84455103 -0.73592597
-0.27914801 0.84948599 -0.73573703
-0.239917 0.84751803 -0.73987597
-0.23101 0.84986401 -0.739115
-0.22542 0.84801298 -0.73684698
-0.30751899 0.85749298 -0.73538601
-0.28017601 0.85905498 -0.73651499
-0.23728999 0.86147702 -0.73565102
-0.24476799 0.868137 -0.73697102
-0.23171499 0.87933499 -0.737032
-0.25877699 0.88792402 -0.73588401
-0.321356 0.89538199 -0.73899001
-0.29750299 0.89674401 -0.73632199
-0.26154399 0.89729798 -0.73886901
-0.24969 0.89775503 -0.73944098
-0.25862899 0.834921 -0.73386502
-0.237391 0.83519697 -0.73465198
-0.19563501 0.835913 -0.733527
-0.25870201 0.86119801 -0.73485702
-0.225402 0.862001 -0.73076999
-0.208074 0.86503398 -0.73136801
-0.21092799 0.87167102 -0.73448402
-0.349502 0.87616199 -0.732728
-0.22991499 0.876423 -0.73087001
-0.276508 0.89431798 -0.73183501
-0.243481 0.89586902 -0.733522
-0.28601101 0.82770401 -0.72681701
-0.26097 0.82926202 -0.725833
-0.249431 0.82722801 -0.72529697
-0.126976 0.82826 -0.72776997
-0.105704 0.82685298 -0.7256
-0.237275 0.83272898 -0.725613
-0.21277501 0.83099103 -0.725272
-0.27361101 0.839338 -0.72893798
-0.208382 0.83905602 -0.72949201
-0.203747 0.83855301 -0.72605503
-0.26200199 0.84491599 -0.72729301
-0.21534701 0.842794 -0.72995698
-0.229875 0.84969199 -0.72986698
-0.28846201 0.85397601 -0.72844899
-0.105112 0.85368598 -0.72671801
-0.254226 0.86418802 -0.72591698
-0.249882 0.86300999 -0.728643
-0.218025 0.86305201 -0.72690302
-0.30094001 0.86523199 -0.72869802
-0.23649301 0.86799401 -0.72913802
-0.330446 0.87264502 -0.72579098
-0.21108399 0.87142003 -0.72867101
-0.22725099 0.88723999 -0.72690898
-0.25551301 0.891891 -0.72734898
-0.22684801 0.82740903 -0.72313499
-0.216529 0.828785 -0.72194099
-0.252958 0.83695102 -0.72452497
-0.190632 0.83988702 -0.72420698
-0.23442701 0.84670198 -0.72051698
-0.10944 0.84799302 -0.72128397
-0.229939 0.85629201 -0.72171903
-0.221765 0.8599 -0.720649
-0.233403 0.861781 -0.72146797
-0.284922 0.87036002 -0.721533
-0.234433 0.87256253 -0.72219801
-0.238792 0.88599998 -0.72409499
-0.23451801 0.88946402 -0.72286302
-0.22741599 0.891123 -0.72171402
-0.267104 0.82421398 -0.719935
-0.23461901 0.82170099 -0.71587598
-0.211652 0.83217603 -0.71569902
-0.236563 0.84499198 -0.717143
-0.191884 0.84388697 -0.71617502
-0.213156 0.84529501 -0.718346
-0.191563 0.84748298 -0.71817303
-0.22937 0.85080302 -0.71881998
-0.311389 0.86912799 -0.71885401
-0.23676001 0.87270498 -0.717408
-0.21534801 0.87298399 -0.71820199
-0.20686799 0.88343698 -0.71927702
-0.201612 0.82322001 -0.71245402
-0.21091799 0.82619399 -0.71252
-0.195841 0.82624298 -0.71100199
-0.20878001 0.834117 -0.71031201
-0.254511 0.83779299 -0.71111202
-0.106073 0.83542299 -0.71241897
-0.265681 0.84048402 -0.71096098
-0.275985 0.85115898 -0.71143502
-0.21434 0.85425198 -0.712084
-0.26664701 0.85609198 -0.71181101
-0.256596 0.86119801 -0.71234399
-0.21469 0.86484098 -0.71059799
-0.208647 0.860488 -0.71112901
-0.18722799 0.860075 -0.71065199
-0.106133 0.86288702 -0.71373898
-0.29233301 0.86561 -0.71191698
-0.26844999 0.86546099 -0.71261799
-0.30558601 0.87640798 -0.71321601
-0.235478 0.87954599 -0.711119
-0.205174 0.87692398 -0.714616
-0.214187 0.88085198 -0.71315598
-0.206818 0.88311899 -0.71346903
-0.23010699 0.887725 -0.712457
-0.214259 0.88931102 -0.71270901
-0.215526 0.81695199 -0.70643997
-0.172307 0.81506199 -0.70766097
-0.107131 0.818093 -0.705755
-0.20220201 0.820485 -0.70546001
-0.21150699 0.83232099 -0.70545298
-0.187536 0.83370799 -0.70983899
-0.166291 0.83329803 -0.70936602
-0.145046 0.83288902 -0.70889401
-0.123802 0.83248001 -0.70842099
-0.221646 0.83942598 -0.70765501
-0.128069 0.83966601 -0.70966297
-0.21512 0.84074402 -0.70853698
-0.208703 0.84256101 -0.70991802
-0.19093899 0.84321398 -0.70826203
-0.200121 0.85034698 -0.70998198
-0.21152 0.85872602 -0.706792
-0.144389 0.859249 -0.70969802
-0.233823 0.86197299 -0.70996898
-0.235192 0.86833602 -0.70665997
-0.225017 0.86803401 -0.70751297
-0.106214 0.86518598 -0.70846099
-0.216401 0.87483901 -0.709499
-0.19619399 0.81641001 -0.70488298
-0.13053 0.81863803 -0.70027298
-0.122642 0.81504101 -0.70163602
-0.116546 0.82231498 -0.703363
-0.096897997 0.82028598 -0.70086598
-0.246793 0.82646698 -0.70180601
-0.18789101 0.82646501 -0.70198798
-0.24952 0.83067298 -0.70195103
-0.270944 0.83575797 -0.70353299
-0.24933 0.835621 -0.70211202
-0.129702 0.84454101 -0.70125902
-0.28544101 0.84663099 -0.70319998
-0.108755 0.84582603 -0.70326298
-0.24950001 0.85152203 -0.70336699
-0.241679 0.85563201 -0.702856
-0.21838599 0.85643399 -0.70077699
-0.214249 0.8567 -0.70023799
-0.193864 0.85802501 -0.70003802
-0.18749 0.85905302 -0.70282
-0.108914 0.85913098 -0.70318902
-0.25197801 0.86056101 -0.70370299
-0.22526699 0.86246097 -0.70334899
-0.21811 0.871786 -0.70445102
-0.12954199 0.87733102 -0.700432
-0.180867 0.810911 -0.69575799
-0.17432299 0.81584299 -0.69688898
-0.103026 0.81884402 -0.698309
-0.129039 0.82262802 -0.69804698
-0.25203699 0.832268 -0.69665003
-0.215857 0.83213198 -0.69898951
-0.20672899 0.83386099 -0.69816703
-0.20606799 0.837767 -0.69851899
-0.21402501 0.843997 -0.69819599
-0.192543 0.84068698 -0.69524699
-0.129289 0.84974802 -0.69922101
-0.19297799 0.85529298 -0.69806701
-0.192215 0.867006 -0.69623202
-0.261713 0.87183797 -0.69805801
-0.214973 0.87129301 -0.69937199
-0.108546 0.87490398 -0.69594598
-0.29620299 0.87724501 -0.69538498
-0.27319601 0.87676603 -0.69763499
-0.20389301 0.87907898 -0.69619697
-0.102392 0.80608702 -0.69139898
-0.1927385 0.81477153 -0.69345653
-0.11298 0.81252348 -0.69186449
-0.229775 0.821931 -0.693425
-0.13178 0.82341897 -0.69213301
-0.084490001 0.82214898 -0.69210303
-0.234302 0.82521302 -0.69288999
-0.20100801 0.82709998 -0.69035703
-0.16829599 0.82646 -0.692536
-0.194243 0.83784199 -0.69387501
-0.18292101 0.838907 -0.69261801
-0.113374 0.83832699 -0.69287097
-0.16648 0.84441602 -0.69125301
-0.12399 0.84359699 -0.69030797
-0.18943401 0.84618503 -0.69098198
-0.130511 0.84755599 -0.69367498
-0.226762 0.85006702 -0.69336897
-0.204631 0.85413098 -0.69456398
-0.129163 0.85107201 -0.69155502
-0.10321 0.85490602 -0.69102901
-0.196494 0.86214101 -0.69391
-0.079777002 0.865242 -0.69057101
-0.228672 0.87369299 -0.69444102
-0.208837 0.87169701 -0.69286698
-0.187418 0.87128401 -0.69239002
-0.14458001 0.87045902 -0.69143701
-0.123161 0.87004602 -0.69095999
-0.107316 0.87668598 -0.69020301
-0.18765099 0.80834198 -0.68975598
-0.158738 0.80690402 -0.68752098
-0.133508 0.80921203 -0.68725502
-0.172126 0.81235999 -0.68822598
-0.14876001 0.81195301 -0.68634897
-0.103913 0.81499898 -0.686171
-0.088776 0.81277198 -0.68813199
-0.103737 0.81712401 -0.689138
-0.189601 0.820117 -0.689812
-0.087356001 0.82170099 -0.68644202
-0.119098 0.82656598 -0.68593001
-0.10432 0.82961601 -0.68951899
-0.09223 0.82877702 -0.68601102
-0.13316201 0.83466798 -0.688546
-0.112435 0.83358902 -0.68871301
-0.101614 0.83163297 -0.68514699
-0.18371999 0.83790499 -0.68712097
-0.111036 0.83954698 -0.68519098
-0.2543 0.84128702 -0.68752801
-0.102746 0.84318799 -0.68983501
-0.27478501 0.84730101 -0.68713099
-0.190594 0.84527999 -0.68655503
-0.086618997 0.84825701 -0.687213
-0.29005101 0.857723 -0.68783402
-0.107756 0.85719103 -0.68553603
-0.246796 0.86627299 -0.68857002
-0.223234 0.86720002 -0.68614602
-0.277147 0.87372702 -0.68844801
-0.256724 0.87186599 -0.688721
-0.210162 0.87039202 -0.68907797
-0.18341801 0.87062299 -0.68746603
-0.108388 0.87026799 -0.68509501
-0.116631 0.876728 -0.68906403
-0.182101 0.8021 -0.68142301
-0.17678501 0.802836 -0.68046302
-0.124011 0.80073601 -0.68198401
-0.15239 0.80778754 -0.68340695
-0.128056 0.806889 -0.68380702
-0.12307 0.80791098 -0.68027401
-0.109748 0.80562699 -0.683869
-0.096978001 0.80898201 -0.68144
-0.127252 0.81265199 -0.68055803
-0.113083 0.81068498 -0.68254799
-0.106855 0.81490898 -0.683608
-0.102422 0.81185001 -0.68118399
-0.148542 0.81860602 -0.68405998
-0.131552 0.81807101 -0.683079
-0.112428 0.81559402 -0.68365699
-0.191183 0.821648 -0.68466097
-0.216629 0.825894 -0.68441403
-0.181595 0.82717699 -0.68286997
-0.17600299 0.82754499 -0.68198001
-0.150318 0.82863802 -0.6807
-0.123062 0.82561803 -0.68343598
-0.15295 0.83100998 -0.68422198
-0.12658501 0.83841997 -0.68160498
-0.255878 0.84381098 -0.68024802
-0.211845 0.84450102 -0.68388098
-0.130597 0.84380901 -0.68367302
-0.122098 0.85087699 -0.68489897
-0.075112998 0.85468 -0.68028498
-0.128703 0.85590601 -0.683532
-0.215343 0.86810601 -0.68212998
-0.19333801 0.86916202 -0.68194401
-0.17210101 0.86943799 -0.68273199
-0.15086301 0.86971498 -0.68351901
-0.12962601 0.869991 -0.68430698
-0.25808999 0.87020999 -0.68151098
-0.081488997 0.87054801 -0.68079799
-0.13821501 0.79801202 -0.67738998
-0.171589 0.80183399 -0.67795199
-0.150976 0.80309802 -0.67992401
-0.12962601 0.80488998 -0.678747
-0.164866 0.80677199 -0.67784202
-0.17225501 0.81360102 -0.67693603
-0.14764801 0.810395 -0.677508
-0.235176 0.817303 -0.67693198
-0.098875001 0.81752598 -0.67581099
-0.142634 0.82328045 -0.67712653
-0.137146 0.82249802 -0.67887199
-0.108201 0.82346201 -0.677634
-0.194966 0.82645297 -0.67524201
-0.1719175 0.82735699 -0.67930448
-0.234386 0.83302402 -0.67805898
-0.20582099 0.837789 -0.67583102
-0.17283501 0.83859599 -0.677095
-0.237691 0.84197903 -0.67839098
-0.192645 0.84944099 -0.67674899
-0.111789 0.84983402 -0.67588001
-0.094222002 0.84803402 -0.67546302
-0.27303299 0.85318798 -0.67945302
-0.195746 0.85343099 -0.67628002
-0.178951 0.85041302 -0.67774701
-0.24128801 0.85947698 -0.67955703
-0.1265 0.85895401 -0.67854899
-0.20779601 0.86166102 -0.67695397
-0.151528 0.86388397 -0.67561799
-0.17279901 0.86529201 -0.67778897
-0.134755 0.79978597 -0.67175698
-0.12718 0.803657 -0.67126602
-0.116064 0.80166501 -0.67488801
-0.081428997 0.80340302 -0.67218202
-0.117894 0.80677402 -0.67233199
-0.234933 0.81440902 -0.672234
-0.15194499 0.810902 -0.674218
-0.195265 0.81568801 -0.67342901
-0.160547 0.81762099 -0.67127001
-0.155194 0.81842899 -0.67181498
-0.17448001 0.82408601 -0.670865
-0.093787 0.82410902 -0.67435199
-0.109103 0.82579303 -0.67167801
-0.082525 0.82735801 -0.67327702
-0.19692799 0.83893597 -0.674393
-0.15173601 0.837201 -0.674941
-0.115554 0.83809102 -0.670223
-0.23697101 0.840321 -0.673365
-0.15987401 0.84281802 -0.67263901
-0.256015 0.84865201 -0.67107302
-0.179548 0.84934598 -0.67225498
-0.131576 0.84617603 -0.67155498
-0.25907901 0.85189998 -0.673105
-0.188087 0.85775697 -0.67341101
-0.166669 0.85553402 -0.67313999
-0.130256 0.862477 -0.67344701
-0.100377 0.86651897 -0.67466801
-0.159997 0.79625797 -0.667054
-0.214917 0.80379897 -0.66838998
-0.188648 0.80883098 -0.66570598
-0.15955 0.81958801 -0.66846299
-0.128223 0.818627 -0.66588497
-0.124172 0.818147 -0.669258
-0.112494 0.817774 -0.66964197
-0.101862 0.81982702 -0.66670299
-0.15399399 0.82171798 -0.66648799
-0.116954 0.82231897 -0.66601598
-0.21736699 0.82848799 -0.66967797
-0.14455999 0.82991999 -0.66904598
-0.10553 0.82629597 -0.66631699
-0.218064 0.83683097 -0.66648299
-0.178762 0.83878899 -0.66650897
-0.17243201 0.83915901 -0.66615301
-0.151364 0.84251702 -0.66723102
-0.103108 0.84390199 -0.66775799
-0.15444 0.84865701 -0.66745299
-0.21696199 0.855142 -0.66959399
-0.087713003 0.85966301 -0.66910601
-0.178224 0.864335 -0.66783297
-0.119265 0.86248899 -0.66853797
-0.198025 0.79929698 -0.66007203
-0.110708 0.79875797 -0.66235203
-0.194168 0.802836 -0.66256601
-0.173438 0.80310601 -0.66333401
-0.152707 0.80337501 -0.66410297
-0.133366 0.80169803 -0.663481
-0.180454 0.81016201 -0.66400802
-0.120912 0.81243199 -0.66025698
-0.16075499 0.81804597 -0.66319197
-0.125545 0.81608301 -0.66420197
-0.079536997 0.81803697 -0.66417497
-0.200349 0.82395202 -0.66129798
-0.146323 0.82178301 -0.66021699
-0.093970999 0.82014698 -0.66205299
-0.17282701 0.82848501 -0.66372502
-0.161322 0.82510602 -0.66097301
-0.15193 0.828758 -0.6645
-0.095357999 0.82896399 -0.66022301
-0.13899399 0.83314198 -0.66111797
-0.13360199 0.834023 -0.66316599
-0.17062899 0.83874798 -0.66201603
-0.149327 0.839912 -0.66311401
-0.122295 0.83625102 -0.66122502
-0.238996 0.84411597 -0.66269201
-0.20204499 0.849576 -0.66010702
-0.160272 0.84925598 -0.66228402
-0.125249 0.84989899 -0.66417497
-0.098872997 0.845186 -0.66015202
-0.242402 0.85320097 -0.66351902
-0.195017 0.85130501 -0.66128701
-0.138153 0.85846001 -0.66240799
-0.132489 0.858971 -0.66455001
-0.140715 0.78967899 -0.65948701
-0.167063 0.79408097 -0.65628397
-0.096941002 0.79280698 -0.65799099
-0.202714 0.807648 -0.65936297
-0.197413 0.80748302 -0.65857601
-0.141536 0.81094003 -0.655756
-0.138595 0.81132901 -0.65535402
-0.131926 0.81496203 -0.65628397
-0.166719 0.81952602 -0.65716702
-0.097897001 0.818802 -0.65907902
-0.15165 0.82995498 -0.65610802
-0.117469 0.82902998 -0.65596002
-0.14053699 0.83450198 -0.657049
-0.114294 0.83658701 -0.65718502
-0.18223999 0.84458297 -0.65587598
-0.24081101 0.85186398 -0.65696299
-0.157041 0.85443097 -0.656277
-0.191046 0.86104101 -0.65962201
-0.092588 0.78819001 -0.65254098
-0.182926 0.79409945 -0.65165949
-0.094236001 0.793859 -0.65343702
-0.148838 0.79662102 -0.65462899
-0.186483 0.80282098 -0.65057898
-0.178653 0.804021 -0.65174699
-0.088319004 0.80388802 -0.65037799
-0.1397 0.80510098 -0.65385401
-0.092537001 0.814614 -0.65335602
-0.19342799 0.81944501 -0.65128398
-0.18574899 0.81634802 -0.65254802
-0.095740996 0.81868899 -0.65469497
-0.22362199 0.82361501 -0.65338397
-0.20270699 0.82715899 -0.65278298
-0.133377 0.82934397 -0.65149599
-0.109352 0.82886499 -0.65249503
-0.15563799 0.83092701 -0.653808
-0.22197799 0.83958 -0.65431201
-0.176834 0.83581102 -0.65350401
-0.104112 0.83917898 -0.65320599
-0.195308 0.84297901 -0.652179
-0.140578 0.84123403 -0.65403098
-0.226051 0.84833801 -0.65467
-0.22190399 0.84837502 -0.65008098
-0.136594 0.84631598 -0.65238303
-0.168861 0.85077202 -0.65032703
-0.14977799 0.85402501 -0.65023899
-0.111047 0.85432798 -0.65370798
-0.091261998 0.78995401 -0.64844102
-0.218095 0.79681098 -0.64817703
-0.150831 0.79911 -0.64516699
-0.163535 0.81443399 -0.64732599
-0.115454 0.810063 -0.64736903
-0.185534 0.820728 -0.64982301
-0.16134299 0.82636201 -0.64583498
-0.156644 0.82932001 -0.64854199
-0.120824 0.83395398 -0.64948398
-0.099160999 0.83094102 -0.64756101
-0.20496 0.83504498 -0.64593101
-0.117118 0.83501399 -0.64858103
-0.104204 0.83768302 -0.64902502
-0.103808 0.84678203 -0.64679301
-0.16956601 0.850366 -0.64591497
-0.155756 0.85321599 -0.64982498
-0.14833599 0.85118598 -0.64552897
-0.100174 0.85476601 -0.64831001
-0.088614002 0.783517 -0.643372
-0.170958 0.78754002 -0.641738
-0.17647099 0.79078799 -0.64136302
-0.127665 0.79471701 -0.64314198
-0.090535 0.79921699 -0.642856
-0.15989199 0.80055797 -0.64491701
-0.087077998 0.80671102 -0.64457297
-0.171893 0.810444 -0.64265198
-0.201223 0.818937 -0.64230102
-0.17072301 0.815202 -0.64040202
-0.079723999 0.81814599 -0.64456201
-0.136673 0.826267 -0.64130098
-0.144997 0.83317 -0.64292598
-0.202997 0.84488499 -0.64319801
-0.14810599 0.84148002 -0.64040202
-0.122445 0.84028703 -0.642277
-0.16911501 0.84991097 -0.64354098
-0.136426 0.84577602 -0.64239901
-0.119484 0.847381 -0.64269298
-0.147349 0.78579098 -0.63511699
-0.13930801 0.78761101 -0.63625902
-0.16924299 0.79232699 -0.63973498
-0.083153002 0.80181098 -0.637218
-0.18571 0.80580503 -0.63650101
-0.14005999 0.81058198 -0.63703102
-0.18246301 0.81547397 -0.635472
-0.14451399 0.81579101 -0.639328
-0.142436 0.82287198 -0.63895202
-0.190621 0.827371 -0.63915002
-0.094890997 0.82633901 -0.63599402
-0.084028997 0.82529497 -0.637936
-0.190615 0.83129299 -0.635638
-0.16539399 0.83091301 -0.63987601
-0.100523 0.83007801 -0.63959998
-0.193349 0.83861202 -0.63697201
-0.18409 0.84139502 -0.63631499
-0.15789101 0.842471 -0.63523299
-0.13853 0.84006101 -0.63710803
-0.179189 0.84753603 -0.63614202
-0.143751 0.84910601 -0.639889
-0.084932998 0.84907901 -0.63861603
-0.157197 0.78167701 -0.63191003
-0.16136099 0.785366 -0.632366
-0.15803599 0.80453902 -0.63275599
-0.090752997 0.80073899 -0.63091803
-0.162992 0.80852401 -0.63316101
-0.155912 0.80967498 -0.63098198
-0.133002 0.81203198 -0.630597
-0.087343 0.81498498 -0.63306999
-0.15891799 0.827627 -0.63350397
-0.13060901 0.833965 -0.63099498
-0.158703 0.84516799 -0.63176501
-0.121899 0.84640402 -0.63348699
-0.166741 0.77701002 -0.62722701
-0.172885 0.78489703 -0.62598401
-0.090008996 0.78699797 -0.62613201
-0.181217 0.80132598 -0.627042
-0.20975301 0.80554003 -0.62876803
-0.17492899 0.80913299 -0.62703198
-0.132276 0.80580902 -0.62777501
-0.182989 0.82459801 -0.62779999
-0.17676499 0.82146698 -0.62925297
-0.21206699 0.82992703 -0.62983698
-0.175804 0.82576698 -0.62621701
-0.176998 0.83374798 -0.62812299
-0.16518299 0.83790499 -0.62943298
-0.14141899 0.83757198 -0.62631899
-0.17777701 0.84467298 -0.62997699
-0.19363999 0.80074799 -0.62004799
-0.190286 0.81681502 -0.62124902
-0.153905 0.82143801 -0.62079
-0.149327 0.82647997 -0.62480199
-0.082874998 0.77843499 -0.61874902
-0.156772 0.78010499 -0.61726397
-0.151926 0.79680097 -0.61986399
-0.15869799 0.80430502 -0.61824799
-0.167771 0.81913698 -0.61873901
-0.160992 0.82024097 -0.61679602
-0.086368002 0.82608098 -0.615762
-0.17128401 0.78794003 -0.61208701
-0.073143996 0.78731799 -0.61190403
-0.098238997 0.79673803 -0.61101401
-0.17339399 0.81231302 -0.61293101
-0.090242997 0.81152499 -0.61339498
-0.087255999 0.81156999 -0.61455798
-0.136886 0.81690198 -0.612409
-0.187768 0.83521098 -0.61337698
-0.078038 0.76807898 -0.60993999
-0.088472001 0.798154 -0.60966098
-0.19486301 0.82782602 -0.60599703
-0.069117501 0.76404953 -0.59811652
-0.079579003 0.768655 -0.59586602
-0.088035002 0.77007502 -0.599123
-0.068585999 0.78835702 -0.596847
-0.086951002 0.79494298 -0.59908402
-0.10285 0.80782998 -0.59564799
-0.184378 0.82380098 -0.59747702
-0.17797101 0.82332402 -0.59767801
-0.157333 0.82428998 -0.59525502
-0.092001997 0.82287502 -0.59957498
-0.089734003 0.82230997 -0.59587198
-0.081873 0.82273102 -0.59931201
-0.083006002 0.75462502 -0.59154999
-0.054584 0.77166498 -0.59224999
-0.074202001 0.798361 -0.59437299
-0.086934 0.80930901 -0.59319001
-0.085809 0.75825602 -0.58738101
-0.092472002 0.809614 -0.585051
-0.175598 0.81698102 -0.58940297
-0.070455 0.74857903 -0.58109301
-0.0496375 0.75329202 -0.58433497
-0.090676002 0.75901401 -0.58412898
-0.083545998 0.759642 -0.58148098
-0.069023997 0.755849 -0.58149898
-0.092320003 0.76093501 -0.58238298
-0.067874998 0.77471 -0.58300602
-0.049001001 0.77870798 -0.584225
-0.091565996 0.78412402 -0.58459198
-0.082569003 0.78403699 -0.58175999
-0.066826999 0.79934204 -0.58176553
-0.048023999 0.80294698 -0.58466101
-0.087132998 0.80571002 -0.58154303
-0.088569999 0.81080902 -0.58041799
-0.072843999 0.759381 -0.57983398
-0.087993003 0.76576602 -0.57912201
-0.081877999 0.78010303 -0.57891601
-0.088278003 0.78813899 -0.57977003
-0.075260997 0.809403 -0.576841
-0.085989997 0.74168903 -0.57020998
-0.057904001 0.74253303 -0.57063597
-0.062171999 0.75225198 -0.574435
-0.044307999 0.75078899 -0.57051897
-0.090554997 0.76879501 -0.57305998
-0.055633999 0.78262103 -0.574857
-0.091681004 0.79183501 -0.57343298
-0.092821002 0.74093699 -0.569121
-0.085169002 0.74746698 -0.56932098
-0.063775003 0.74863499 -0.567608
-0.042158 0.74519998 -0.56848401
-0.054726999 0.75792801 -0.56779099
-0.093231998 0.76330602 -0.56946301
-0.048367999 0.76250499 -0.56809002
-0.062655002 0.77276403 -0.56778502
-0.046944998 0.78677499 -0.56800997
-0.061517 0.79725999 -0.567958
-0.065632999 0.810179 -0.56599098
-0.045352999 0.73648602 -0.560179
-0.075190999 0.74208999 -0.56108898
-0.074427001 0.74073601 -0.56380898
-0.050308 0.74182802 -0.56413001
-0.03021 0.74144101 -0.56368297
-0.053766001 0.74618602 -0.56381601
-0.033829 0.74644601 -0.564556
-0.072347 0.76991701 -0.56271601
-0.069204003 0.76644802 -0.56423098
-0.084177002 0.79154998 -0.56196499
-0.070969 0.79426998 -0.56233799
-0.067985997 0.79104602 -0.56386101
-0.030409001 0.73308301 -0.555323
-0.079492003 0.74347001 -0.55848902
-0.038446002 0.742419 -0.55590701
-0.080168001 0.74882001 -0.55583203
-0.090499997 0.75253803 -0.55518103
-0.062890999 0.75367397 -0.55820799
-0.090178996 0.75788599 -0.55533302
-0.029315 0.75641698 -0.55549997
-0.064452998 0.76361001 -0.55761802
-0.080848999 0.76720202 -0.55900699
-0.037361 0.76710302 -0.55561602
-0.080429003 0.77086103 -0.556238
-0.091086 0.78038502 -0.55543399
-0.080664001 0.79326802 -0.55673099
-0.056685001 0.793576 -0.55746299
-0.036253002 0.792225 -0.55537802
-0.0073210001 0.731709 -0.554407
-0.059422001 0.73535198 -0.55487502
-0.045026999 0.73615199 -0.55339497
-0.064166002 0.74575102 -0.55434799
-0.043042999 0.76165801 -0.55401498
-0.045991998 0.79761499 -0.55110198
-0.074762002 0.730335 -0.54606599
-0.025336999 0.73387599 -0.549187
-0.015193 0.733446 -0.54877001
-0.083958998 0.745987 -0.54614401
-0.050340001 0.74762702 -0.54775101
-0.077243999 0.75285947 -0.545614
-0.050487 0.75234598 -0.54699498
-0.030389 0.75195801 -0.54654801
-0.053272001 0.75664198 -0.54682899
-0.033335 0.75690103 -0.54756898
-0.067878 0.76481402 -0.54578102
-0.050372001 0.76987797 -0.54818797
-0.051757999 0.78071398 -0.54634303
-0.068028003 0.78718102 -0.54620397
-0.025123 0.727121 -0.54048902
-0.064135 0.74581701 -0.540654
-0.023728 0.75071901 -0.54045302
-0.095008999 0.76338798 -0.54015201
-0.066733003 0.77496803 -0.54079998
-0.085492 0.77825999 -0.54435098
-0.096531004 0.78745401 -0.54052198
-0.096130997 0.79087597 -0.54134798
-0.060256999 0.72492301 -0.53684002
-0.059939999 0.72542101 -0.53839701
-0.020582 0.72748297 -0.53715003
-0.00062300003 0.72616303 -0.53511298
-0.082790002 0.739173 -0.53528398
-0.029762 0.73743802 -0.53705198
-0.070292003 0.74016303 -0.53638297
-0.037788998 0.74158102 -0.53729498
-0.068104997 0.74969101 -0.535281
-0.060775001 0.74844301 -0.53763247
-0.047290001 0.74742103 -0.536708
-0.019365 0.75187302 -0.53673202
-0.083852001 0.76166499 -0.53536701
-0.028219 0.761154 -0.536744
-0.061671 0.76941001 -0.53672498
-0.041777998 0.77252603 -0.537512
-0.084936 0.78444999 -0.53542101
-0.055392001 0.78109401 -0.53567702
0.012806 0.71872002 -0.530092
-0.041746002 0.722063 -0.53177398
0.019337 0.72484201 -0.53307599
-0.066858999 0.726215 -0.53488898
-0.04913 0.74043298 -0.53171998
-0.014702 0.74382198 -0.53191203
-0.042249002 0.74651498 -0.531838
-0.0276 0.74514502 -0.53250003
-0.088765003 0.75686002 -0.53292799
-0.080582999 0.76285499 -0.53205502
-0.032841001 0.76735699 -0.53058201
-0.012904 0.76761597 -0.531322
-0.089148998 0.779338 -0.53302199
-0.081423 0.78538901 -0.53199297
-0.045752 0.71951199 -0.527614
-0.023551 0.718705 -0.52515101
-0.050976999 0.72149098 -0.52629399
-0.056625001 0.73434001 -0.526622
-0.012113 0.73806602 -0.52956802
-0.0047010002 0.73994797 -0.52710003
-0.052108001 0.74493301 -0.52662402
0.014474 0.74207002 -0.52996802
-0.068847001 0.75628197 -0.52643299
-0.082639001 0.76447499 -0.52928102
-0.050666001 0.76286298 -0.52986002
-0.030568 0.76247603 -0.52941197
-0.069825001 0.779028 -0.52642399
-0.042757001 0.77500701 -0.52514899
-0.090135001 0.78931898 -0.52969497
-0.083458997 0.78943902 -0.52932698
-0.051259998 0.79124999 -0.52922601
-0.031168999 0.79151201 -0.529971
-0.075098 0.75103599 -0.52316701
-0.042776 0.75272202 -0.524867
-0.049552999 0.75869101 -0.52002102
-0.072714001 0.76067001 -0.52073097
-0.064305998 0.76109201 -0.52260798
-0.022472 0.76150501 -0.52407497
-0.075387999 0.77347499 -0.52319402
-0.027279999 0.77182901 -0.52009302
-0.040513001 0.78339398 -0.52100903
-0.064985998 0.78602999 -0.52260202
-0.021046 0.78554797 -0.52392
-0.031246999 0.7141 -0.51838899
-0.080054998 0.72268802 -0.51662201
-0.042957999 0.72851598 -0.51686102
0.0036490001 0.73093897 -0.51649201
-0.001649 0.73686498 -0.51812202
-0.081458002 0.74606001 -0.51675701
-0.053842001 0.750898 -0.51749903
-0.045972999 0.75770801 -0.51593399
-0.020399 0.76265901 -0.51960897
-0.00028499999 0.76132798 -0.51755702
-0.054715 0.773606 -0.51742703
-0.030296 0.72479498 -0.51428097
0.0058849999 0.72438002 -0.51284099
-0.050726999 0.72985798 -0.513722
-0.010856 0.72921002 -0.51192802
-0.061430998 0.74521297 -0.51340598
-0.01229 0.74850303 -0.512564
0.0076540001 0.748119 -0.51212001
-0.056717001 0.75591201 -0.51207298
-0.050843999 0.77338099 -0.512725
-0.030747 0.77299398 -0.51227701
-0.010649 0.77260602 -0.51182997
-0.01241 0.778072 -0.51433498
-0.011708 0.71313298 -0.50695902
0.007528 0.71431297 -0.50879902
-0.063651003 0.71831602 -0.50854403
-0.038090002 0.72313398 -0.50866902
-0.029291 0.72269201 -0.50709999
-0.027247 0.72981298 -0.50936699
0.0086829998 0.726951 -0.50775403
0.0093259998 0.73748797 -0.50826699
-0.064934 0.74165601 -0.50862002
-0.029267 0.74493599 -0.50701702
-0.02764 0.75432402 -0.50926101
-0.070987999 0.76782399 -0.50877702
-0.077322997 0.771649 -0.50617999
-0.047246002 0.71394402 -0.50046498
-0.017828001 0.71878803 -0.50389302
0.021725999 0.71825403 -0.50130802
-0.036222 0.72444701 -0.50449699
0.028221 0.724693 -0.50357902
-0.039671 0.72766799 -0.50325203
-0.009052 0.72645497 -0.50274402
-0.047764 0.739389 -0.503645
-0.035250001 0.73586202 -0.50193501
-0.040720001 0.75115401 -0.503416
-0.085933998 0.75682998 -0.50183803
-0.066237003 0.75608599 -0.50019002
-0.035211999 0.75781602 -0.50198299
-0.051816002 0.76995999 -0.50333399
-0.049697001 0.76889998 -0.50002998
-0.001319 0.77211303 -0.50043398
0.023611 0.71090001 -0.49636501
-0.0224535 0.71841103 -0.49753398
-0.015624 0.716869 -0.49733901
0.015795 0.72207701 -0.49978599
0.025501 0.73435599 -0.495525
-0.032639001 0.74265099 -0.49954501
-0.013101 0.74039203 -0.49537
0.0041350001 0.74123698 -0.499762
0.0074760001 0.75855601 -0.495116
-0.061326001 0.766891 -0.49752301
-0.032125998 0.767685 -0.499127
-0.030841 0.70957202 -0.492387
-0.0068244999 0.71261156 -0.49221501
-0.023788 0.72294402 -0.49465701
-0.010791 0.72356999 -0.490679
-0.022782 0.729855 -0.49154699
-0.0419835 0.73415899 -0.492576
0.0064369999 0.73813403 -0.49119499
-0.022160999 0.74105799 -0.49489599
-0.024723001 0.74639601 -0.49475801
-0.0091289999 0.74681503 -0.49001199
-0.069411002 0.75242603 -0.49370101
-0.05257 0.75026202 -0.49042901
-0.022661 0.75177002 -0.49152601
-0.041777 0.75692499 -0.49019799
0.027419999 0.75817102 -0.494672
-0.022592001 0.763439 -0.49457499
-0.031364001 0.765517 -0.493357
-0.012436 0.76540899 -0.494919
0.039535999 0.70576602 -0.48636001
-0.0072130002 0.71362299 -0.48604599
-0.001957 0.71104503 -0.487578
-0.051690001 0.72463697 -0.48565301
-0.060006 0.728526 -0.486269
-0.027868999 0.72817898 -0.48567501
-0.012748 0.73756301 -0.48695999
-0.0075559998 0.73560798 -0.485607
-0.052887 0.74802202 -0.48556399
-0.045329001 0.762133 -0.48886499
-0.013031 0.762133 -0.48668301
0.041072998 0.69762599 -0.480142
-0.014436 0.70520002 -0.484308
0.0071080001 0.70677501 -0.48311701
0.032972999 0.70750898 -0.48172301
0.044408001 0.70902699 -0.48337501
0.005591 0.71003199 -0.480663
-0.010314 0.723849 -0.48116001
-0.02043 0.72774202 -0.48412299
0.0074280002 0.72853702 -0.48304
0.022209 0.72847497 -0.484703
0.0054469998 0.73420501 -0.48033601
0.014777 0.73269701 -0.48292601
-0.047449 0.74391699 -0.480425
-0.038903002 0.74443901 -0.48066801
-0.01011 0.74572402 -0.481069
0.0046219998 0.751535 -0.483031
-0.029332001 0.757375 -0.48020801
0.016259 0.75694901 -0.482104
0.0072920001 0.708211 -0.47681999
0.0079760002 0.71349698 -0.47746599
-0.035286002 0.72026402 -0.47757399
-0.012969 0.72283202 -0.476803
0.043079998 0.720801 -0.47918001
-0.036362998 0.74361801 -0.47742701
-0.013541 0.74520999 -0.47647601
-0.057376001 0.76113498 -0.47721401
0.019576 0.70076901 -0.47273001
-0.011632 0.70599198 -0.471719
0.023649 0.70669901 -0.47409001
0.019979 0.72249001 -0.472583
0.022791 0.72236502 -0.471086
-0.012482 0.72912002 -0.471616
0.023641 0.73084599 -0.47371301
-0.064947002 0.738801 -0.472473
-0.032549001 0.73857099 -0.47155401
-0.025235999 0.73861498 -0.470907
0.002441 0.73967701 -0.47061199
-0.012566 0.74602699 -0.47161901
0.0041919998 0.74931699 -0.474637
0.00241 0.695503 -0.468373
0.018373 0.696455 -0.46815199
0.023858 0.70877302 -0.468871
-0.018881001 0.71589202 -0.46949601
0.001931 0.71748602 -0.46793199
0.001464 0.73982602 -0.46754199
0.022692 0.73869503 -0.468097
-0.043708 0.75531203 -0.46745199
-0.015097 0.75686401 -0.468642
0.058086999 0.68233949 -0.4628695
0.077629 0.68418598 -0.46373999
-0.00166 0.68852401 -0.461633
0.0066300002 0.69418502 -0.46495801
0.032044999 0.694763 -0.46234199
0.060346998 0.69359398 -0.46347201
0.041623998 0.69712001 -0.461844
-0.011718 0.71076798 -0.46152601
0.0023169999 0.71855801 -0.462928
0.0322465 0.717246 -0.4635585
0.0034 0.724397 -0.46302
-0.011569 0.73279101 -0.461146
0.014992 0.73363101 -0.46015501
0.0071769999 0.73829299 -0.46422601
0.033566002 0.74200702 -0.464044
0.053371999 0.74069703 -0.46202201
0.0017509999 0.74531299 -0.46455199
0.020204 0.68840098 -0.45526299
0.017207 0.69019401 -0.459562
-0.017058 0.74001998 -0.45717001
0.019946 0.74195498 -0.45792899
-0.0025460001 0.75081801 -0.45818499
0.044512998 0.68875599 -0.45195401
0.016959 0.691378 -0.45425501
0.037944 0.69055402 -0.45239699
0.052340001 0.69126999 -0.450535
0.077823997 0.69669902 -0.45436901
0.0018570001 0.70498401 -0.45183101
0.037481003 0.70755053 -0.45104349
0.016821999 0.71314597 -0.45370299
0.020571001 0.710271 -0.45484
0.038040001 0.71439099 -0.45185
0.045081001 0.71039802 -0.45166901
0.019282 0.71967298 -0.45442501
-0.023325 0.72658497 -0.45468399
0.020750001 0.73294598 -0.45452648
0.038139999 0.73859602 -0.45130599
0.0023380001 0.74924099 -0.45091999
-0.0032480001 0.75029099 -0.45332199
0.030913999 0.679842 -0.44559199
0.066558003 0.67903101 -0.44641301
0.047196999 0.68031198 -0.44838899
0.031364001 0.68600398 -0.44509301
0.055868 0.68724501 -0.44587201
-0.0060729999 0.69914001 -0.44692701
0.01256 0.70051402 -0.44553801
0.034237999 0.70444697 -0.445079
0.058136001 0.70460701 -0.44716501
0.056097999 0.71105802 -0.44527599
-0.0069209998 0.72221297 -0.446605
-0.002659 0.72890502 -0.449036
0.027543001 0.72758502 -0.44969901
0.059339002 0.72898 -0.44636899
-0.001176 0.73529702 -0.44857401
0.010005 0.74477202 -0.44772801
0.076045997 0.67839402 -0.44387001
0.056981001 0.68274999 -0.44156599
0.031327002 0.707735 -0.44447699
0.012152 0.72253102 -0.444938
0.056334998 0.73523802 -0.444682
0.011756 0.74490702 -0.444388
0.016099 0.74337798 -0.44109201
0.027625 0.673437 -0.43727601
0.047277 0.67616653 -0.43672198
0.063056 0.68542099 -0.439226
0.010214 0.69479901 -0.43890601
0.027357001 0.69520402 -0.43672699
0.047905002 0.69862401 -0.43531799
0.046783 0.70242101 -0.439502
0.063297004 0.70648098 -0.43943101
0.074157 0.70772499 -0.438703
0.0094839996 0.71784103 -0.43852699
0.030510999 0.71942002 -0.43977699
0.011846 0.72349298 -0.43981099
0.040093999 0.72153801 -0.43924201
0.046920002 0.72359002 -0.43970799
0.063548997 0.727826 -0.43965399
0.014706 0.730573 -0.43997899
0.022555999 0.73872602 -0.437271
0.0087310001 0.74117702 -0.43809599
0.030543 0.74069798 -0.43998599
0.028580001 0.67179698 -0.433002
0.031660002 0.679932 -0.43212
0.069449 0.67674398 -0.431178
0.091716997 0.68062901 -0.43282199
0.026501 0.690458 -0.430886
0.046201002 0.69069397 -0.431907
0.031133 0.70274401 -0.43177301
0.027892001 0.71670049 -0.43122399
0.036683001 0.717843 -0.43496999
0.030587999 0.72584897 -0.431384
0.042321 0.66816401 -0.42852601
0.062207997 0.67110395 -0.42786449
0.060174 0.675255 -0.42676899
0.073771998 0.67957097 -0.42791799
0.090458997 0.68348497 -0.42777199
0.042155001 0.68989497 -0.42791599
0.052026998 0.69381702 -0.429221
0.061572 0.69279999 -0.42555699
0.074082002 0.70059401 -0.42805001
0.041951999 0.71183801 -0.427194
0.052645002 0.71549201 -0.428785
0.074403003 0.721901 -0.42819899
0.035107002 0.73267901 -0.42681399
0.041328002 0.73481101 -0.42860401
0.040824 0.66949099 -0.422961
0.081917003 0.67073703 -0.420791
0.042789001 0.68611699 -0.422865
0.046902999 0.69805402 -0.42323899
0.022709999 0.70552403 -0.422703
0.042696998 0.70929646 -0.422236
0.070488997 0.71875 -0.42303699
0.046470001 0.72112602 -0.42278901
0.022372 0.72757697 -0.42194501
0.074501999 0.66526401 -0.41648301
0.062976003 0.670618 -0.41517201
0.064494997 0.68781102 -0.41883299
0.084866002 0.69470698 -0.41666901
0.022089001 0.701074 -0.41618001
0.085258 0.715976 -0.41674399
0.021445001 0.72416103 -0.415636
0.024627 0.72619402 -0.41864699
0.047658 0.72663301 -0.41635701
0.071712002 0.65761799 -0.411026
0.094384998 0.66473103 -0.41040301
0.096061997 0.66247898 -0.41350999
0.059076 0.68177599 -0.41484499
0.0577325 0.70419848 -0.41331649
0.037273001 0.72223002 -0.413073
0.075630002 0.65487802 -0.40746501
0.088077001 0.65947998 -0.40678799
0.043260999 0.66352898 -0.409953
0.088983998 0.66450602 -0.40844399
0.052400999 0.67313999 -0.405848
0.035916001 0.67969602 -0.40925899
0.075363003 0.67743498 -0.40682399
0.076963 0.681804 -0.408445
0.095468 0.68751597 -0.40756452
0.052305002 0.69490498 -0.405081
0.059540998 0.69887799 -0.40648699
0.035886999 0.70117998 -0.40833801
0.037849002 0.71978903 -0.40755799
0.038293999 0.72036999 -0.40888599
0.060208999 0.72058702 -0.4059
0.086407997 0.652345 -0.40227601
0.069436997 0.65881503 -0.404762
0.106853 0.65872502 -0.400015
0.050223 0.67435801 -0.40016001
0.069729 0.676063 -0.403357
0.058463998 0.68136501 -0.40092999
0.070433997 0.69784999 -0.40257999
0.058127999 0.70418602 -0.400361
0.067097001 0.667867 -0.397098
0.091650002 0.67309499 -0.39880401
0.107836 0.68016601 -0.39938501
0.072008997 0.69287199 -0.39610001
0.050292 0.69580501 -0.399176
0.090297997 0.69735301 -0.397414
0.051961001 0.71454602 -0.39912501
0.072760001 0.71454 -0.39544401
0.05232 0.71651101 -0.39886099
0.101103 0.64707202 -0.39352599
0.107973 0.646258 -0.39153799
0.122192 0.64502299 -0.39371601
0.074358001 0.65428001 -0.39312401
0.089207999 0.658216 -0.394288
0.10592 0.66202301 -0.39399201
0.06453 0.66902101 -0.39105999
0.083673507 0.67253006 -0.394155
0.074121997 0.67670798 -0.392456
0.106435 0.68293297 -0.393906
0.070950001 0.68805099 -0.39211801
0.064696997 0.690431 -0.39001399
0.084100999 0.69202602 -0.39281899
0.073898003 0.69949597 -0.39182699
0.090057999 0.700041 -0.39418301
0.047658 0.70522499 -0.39105701
0.070658997 0.71104503 -0.39140099
0.098050997 0.648139 -0.386563
0.115226 0.64791101 -0.387398
0.119321 0.65271801 -0.38962701
0.081793003 0.66259402 -0.38834801
0.120387 0.67412001 -0.388928
0.102849 0.69130701 -0.38695699
0.065628 0.70872301 -0.389364
0.081973001 0.706191 -0.386457
0.064889997 0.71219301 -0.389016
0.132908 0.63917297 -0.38240701
0.095996 0.643071 -0.38485301
0.089906 0.64965498 -0.384709
0.116636 0.65617299 -0.38268301
0.096878 0.66449499 -0.38396701
0.089780003 0.67205101 -0.38398299
0.062481999 0.67811602 -0.38317001
0.11722 0.67704499 -0.382525
0.087237 0.68371099 -0.38409799
0.079101004 0.68505698 -0.38085201
0.089667 0.69480598 -0.383293
0.100843 0.69415402 -0.38280201
0.062456001 0.69991601 -0.38224599
0.026102001 0.70010698 -0.38185501
0.085311003 0.70849401 -0.384987
0.084466003 0.711263 -0.38308001
0.112358 0.642802 -0.37746301
0.1288 0.64212698 -0.37770301
0.105455 0.64503098 -0.376295
0.131789 0.64671201 -0.37923899
0.096487999 0.65732098 -0.37959799
0.132938 0.66807401 -0.37847099
0.1154 0.68526101 -0.37650099
0.079295002 0.70289898 -0.379603
0.096873 0.70084399 -0.37758499
0.14362399 0.63332403 -0.371099
0.111184 0.65204799 -0.370848
0.127352 0.65032297 -0.37137401
0.093144 0.65834498 -0.372861
0.110453 0.65871102 -0.37427199
0.077177003 0.67284298 -0.37441999
0.128005 0.67115802 -0.371144
0.092105001 0.67529398 -0.37084001
0.111628 0.68826699 -0.37142101
0.105437 0.69011599 -0.37475899
0.097861998 0.70244801 -0.37452999
0.095251001 0.70537603 -0.37169799
0.126665 0.63746399 -0.36836299
0.14237501 0.636343 -0.36800799
0.14425801 0.64070499 -0.36885199
0.127257 0.65865803 -0.36716199
0.091872998 0.66756999 -0.36567
0.111496 0.67366701 -0.369838
0.127951 0.679214 -0.36604401
0.127885 0.68019903 -0.36600599
0.082824998 0.694327 -0.36939201
0.074160002 0.69533199 -0.36705601
0.092961997 0.69707501 -0.36984199
0.111773 0.69549799 -0.368714
0.13806801 0.64447403 -0.36006501
0.10745 0.65300697 -0.36376101
0.124027 0.65292698 -0.364577
0.105679 0.66951001 -0.36114499
0.107911 0.674308 -0.362528
0.122412 0.68238002 -0.36004001
0.106629 0.69125199 -0.36008099
0.106035 0.699489 -0.36031699
0.110413 0.696401 -0.36407301
0.15434 0.62747401 -0.35979
0.140971 0.63212597 -0.35926399
0.1563375 0.63262904 -0.35838902
