# .PCD v0.7 - Point Cloud Data file format
VERSION 0.7
FIELDS x y z
SIZE 4 4 4
TYPE F F F
COUNT 1 1 1
WIDTH 1605
HEIGHT 1
VIEWPOINT 0 0 0 1 0 0 0
POINTS 1605
DATA ascii
1.0710855 0.1121875 0.31299901
1.078451 0.111469 0.314089
1.052137 0.119799 0.31480101
1.070215 0.117319 0.31013301
1.084475 0.115671 0.31318
1.065008 0.123933 0.313398
1.071713 0.120167 0.31273299
1.081174 0.120979 0.311317
1.045399 0.12696549 0.313411
1.036433 0.134293 0.31202999
1.0421414 0.132678 0.31060049
1.0239021 0.13755 0.312222
1.0383115 0.13754499 0.3106325
1.0516 0.139599 0.313427
1.05787 0.138089 0.31228
1.052977 0.14420199 0.310853
1.017823 0.146853 0.314913
1.023214 0.146678 0.314834
1.000316 0.15364499 0.311685
1.010414 0.153712 0.314051
1.020357 0.152714 0.31283301
1.0259809 0.153227 0.31093401
1.036896 0.152163 0.31282401
1.0420769 0.151986 0.314004
1.00832 0.159297 0.312204
1.023682 0.15717149 0.31128198
1.0394599 0.159328 0.31112999
1.015771 0.16418301 0.31419501
1.020144 0.163361 0.314915
1.0460629 0.163829 0.31484899
1.016562 0.16722301 0.31375399
1.013813 0.172662 0.31292799
1.017174 0.171624 0.31251499
1.021266 0.170829 0.31034601
1.032825 0.17413101 0.31215301
0.9881416 0.176394 0.31256035
0.96775198 0.181816 0.31093001
0.989007 0.180355 0.312581
0.9811635 0.1921095 0.31042498
0.98969501 0.194205 0.31063601
0.99451703 0.192719 0.31176901
0.99870801 0.19255599 0.31287801
1.008532 0.191792 0.31319901
1.015821 0.19441301 0.31268001
0.99198002 0.197366 0.312199
0.97759098 0.201437 0.31189099
0.96641302 0.206917 0.31492299
0.97241402 0.208847 0.3131665
0.98313898 0.20844901 0.31225201
0.98671103 0.206093 0.31000799
0.96745998 0.212559 0.312143
0.98026198 0.21022201 0.31208301
1.12392 0.063501999 0.316183
1.1448989 0.062207997 0.31690252
1.152331 0.060904 0.31516501
1.089375 0.068801001 0.31856701
1.1088721 0.069834001 0.31693399
1.09545 0.074683003 0.31824499
1.10665 0.074119002 0.31775501
1.110315 0.073383003 0.31935301
1.140751 0.070398003 0.31603801
1.0898809 0.075135 0.315321
1.091244 0.077354997 0.31669801
1.105834 0.077535003 0.3195765
1.1122646 0.083385326 0.31745669
1.123643 0.080614001 0.31691501
1.065009 0.089143001 0.317433
1.110214 0.087523997 0.31508699
1.0823057 0.091861501 0.31721249
1.0992711 0.090977997 0.31736401
1.079542 0.099610001 0.31522301
1.095884 0.097002998 0.31816599
1.067713 0.102254 0.31872699
1.0570509 0.106345 0.31931099
1.074912 0.1094 0.317404
1.08235 0.108655 0.31707799
1.039288 0.113817 0.31872499
1.048035 0.111807 0.31787199
1.058408 0.116523 0.316755
1.061138 0.118518 0.31869501
1.05638 0.123258 0.31756699
1.047246 0.128297 0.31902799
1.0537416 0.12699133 0.31763968
1.065429 0.126332 0.316791
1.077796 0.12565 0.31597999
1.038857 0.133802 0.31886899
1.053817 0.13383301 0.31785101
1.0712841 0.132842 0.31941801
1.016816 0.13854399 0.31829599
1.040604 0.13572 0.31574899
1.048508 0.14400899 0.316504
1.0588551 0.14383 0.31927899
1.0316985 0.1462065 0.31824452
1.037985 0.14620399 0.31832901
1.022029 0.151632 0.31545001
1.031389 0.15115 0.316854
1.039902 0.15239 0.315207
1.058912 0.15187199 0.319518
1.0082383 0.16233967 0.31843299
1.02812 0.16113301 0.317651
1.031587 0.161686 0.31621799
0.99289697 0.169544 0.31732801
1.005554 0.166954 0.31978101
1.012578 0.169928 0.319543
1.02477 0.168947 0.31594801
1.02193 0.170913 0.31846601
1.003196 0.176661 0.317561
1.014666 0.179363 0.31593099
1.020081 0.17815299 0.31623301
0.98954701 0.183689 0.31610101
0.994672 0.182694 0.31747401
0.99786597 0.182493 0.31684199
1.001617 0.180289 0.31863001
0.98230648 0.187756 0.316854
0.99580401 0.186415 0.31807801
1.007463 0.18590701 0.317893
1.014044 0.1893125 0.317352
0.962102 0.194839 0.318369
0.97881299 0.190846 0.31716099
0.99444598 0.192296 0.31759501
1.0039411 0.19040801 0.31765199
0.99774599 0.19704001 0.31564501
0.96381599 0.204326 0.315662
0.99015599 0.202868 0.31983799
0.99800754 0.20241401 0.31872702
0.96921533 0.20816934 0.31699899
0.97158802 0.207288 0.316484
0.98904598 0.20736399 0.315317
0.97968203 0.21003801 0.31533101
1.1658801 0.058011666 0.322777
1.1087461 0.063253 0.32268199
1.117938 0.063054502 0.3233355
1.138203 0.062748998 0.32157499
1.1401989 0.067208998 0.32418299
1.111131 0.071820997 0.32348299
1.1271369 0.072939999 0.32132399
1.140461 0.073314004 0.32279
1.098447 0.079962 0.321448
1.127066 0.077578999 0.32234901
1.140363 0.075967997 0.321183
1.083534 0.084510997 0.322687
1.087032 0.080714002 0.320555
1.115118 0.084322996 0.32352799
1.083571 0.088247001 0.323614
1.092697 0.087544002 0.32407701
1.127707 0.089162 0.32195401
1.066202 0.094237998 0.32131499
1.097914 0.091619 0.321495
1.116335 0.092 0.323466
1.125003 0.094085999 0.320997
1.068058 0.099624 0.32072601
1.0872254 0.097108498 0.32180852
1.093349 0.095504001 0.32269499
1.052353 0.10492 0.32398301
1.059783 0.102314 0.32428101
1.0902719 0.101182 0.322914
1.079128 0.105361 0.32250401
1.085654 0.108495 0.32139301
1.090386 0.107612 0.323396
1.098147 0.109055 0.32236299
1.0584739 0.113076 0.32327399
1.078011 0.111462 0.322447
1.09038 0.11429 0.32450601
1.065755 0.11782 0.322308
1.084971 0.11704 0.32210201
1.085606 0.116035 0.320252
1.071647 0.12383 0.32370901
1.085678 0.122589 0.32089499
1.0685771 0.12548 0.322218
1.0408911 0.132356 0.32003099
1.047096 0.13150701 0.32219249
1.0531344 0.13206899 0.323356
1.074646 0.133081 0.32201201
1.038721 0.13974001 0.32201099
1.051154 0.136428 0.32441401
1.0582629 0.136099 0.323497
1.060636 0.13543899 0.32412601
1.038058 0.141064 0.32295799
1.0230355 0.14711249 0.32335103
1.0359221 0.14749999 0.32296899
1.053296 0.147393 0.323726
1.017698 0.15046 0.32111001
1.034623 0.153659 0.320631
1.044731 0.153152 0.320703
1.051263 0.15059 0.32376099
1.014123 0.155159 0.32221699
1.030411 0.164184 0.32344699
0.988989 0.167678 0.32464701
0.99415201 0.166472 0.32051501
1.014601 0.16598301 0.320411
1.0171551 0.168743 0.32248101
0.98985398 0.17038199 0.32241601
0.99813199 0.17347699 0.32295901
1.016809 0.17850301 0.32310399
1.039259 0.17619 0.32447001
1.0123806 0.18228634 0.32130265
0.97144151 0.18799299 0.32133099
0.97538 0.185377 0.320604
0.98429197 0.189298 0.32196
0.98223448 0.19669101 0.3222065
0.99338001 0.197301 0.32051599
0.97849339 0.20045567 0.32314733
0.98107201 0.204212 0.320259
0.98583502 0.203491 0.32350001
0.993797 0.200234 0.323699
0.99661797 0.20342 0.32082599
0.98562098 0.209263 0.32068101
1.154289 0.054067999 0.32914501
1.13688 0.057980001 0.32543901
1.15444 0.055238001 0.326796
1.100359 0.064095996 0.32964799
1.12289 0.060642 0.327831
1.132495 0.060541 0.32853901
1.148118 0.062905997 0.32993099
1.151238 0.063764997 0.325537
1.111001 0.068054996 0.32967499
1.123722 0.068572 0.32733601
1.142043 0.069464996 0.32560799
1.106823 0.070543498 0.32725501
1.119362 0.073812999 0.328715
1.120223 0.073126003 0.329889
1.127853 0.070738003 0.328973
1.137965 0.073820002 0.325486
1.088855 0.079682 0.328558
1.100931 0.077009998 0.3274
1.115121 0.078331001 0.32768601
1.1233935 0.077262506 0.3272875
1.084083 0.081959002 0.32516599
1.110413 0.084895998 0.32912299
1.092049 0.088342503 0.32529551
1.1002491 0.087287001 0.326978
1.0693671 0.093478002 0.32626101
1.0929919 0.093487002 0.32879201
1.1075555 0.091438994 0.325914
1.0679899 0.097232997 0.32553801
1.078585 0.097814001 0.329483
1.1066033 0.096309997 0.32770833
1.07491 0.103252 0.327158
1.07611 0.103439 0.32860801
1.093493 0.102573 0.32883701
1.0991451 0.103655 0.32942599
1.060814 0.107595 0.32856801
1.062797 0.112704 0.32728601
1.071368 0.111001 0.326011
1.099367 0.114383 0.32734299
1.049907 0.119009 0.32733399
1.050702 0.11945 0.328446
1.062794 0.115477 0.325481
1.074435 0.118292 0.328729
1.05955 0.122369 0.32927901
1.0682635 0.1226285 0.32592151
1.0765719 0.12025 0.32855001
1.027849 0.12958699 0.326545
1.04268 0.125082 0.32508099
1.053851 0.12683401 0.32928699
1.06768 0.129094 0.32736051
1.032565 0.134939 0.32823101
1.0651211 0.130945 0.32737201
1.038419 0.13693801 0.32820901
1.059651 0.137927 0.328264
1.021367 0.14496499 0.327169
1.050702 0.142205 0.32902801
1.0312099 0.149433 0.32606301
1.0593899 0.14688499 0.329229
1.010626 0.151407 0.32643199
1.013786 0.15814549 0.327088
1.0177543 0.15660699 0.32805532
1.032631 0.15947901 0.32553801
1.04273 0.155604 0.327977
1.0520509 0.15618999 0.32890001
1.005857 0.164022 0.32658401
1.011494 0.16337 0.329997
1.018026 0.161167 0.32808599
1.0243959 0.164279 0.32613501
1.036232 0.162462 0.327151
1.026737 0.166155 0.32651499
1.001811 0.17254201 0.32534701
1.008083 0.171707 0.329007
1.021772 0.174237 0.32678601
1.025809 0.173281 0.32769099
0.98816401 0.17957699 0.32960302
1.000421 0.17989101 0.326507
1.008845 0.179251 0.32798901
1.019848 0.179941 0.32821199
1.0097851 0.182257 0.32564399
1.028201 0.183746 0.32506299
1.036651 0.18276399 0.32771799
0.99365151 0.187837 0.32947248
0.996889 0.18968 0.326637
1.023223 0.187141 0.32638401
0.99360198 0.191962 0.32971001
1.008888 0.19095799 0.32740399
1.0127726 0.19078699 0.3274895
0.96585399 0.199149 0.327292
0.98895198 0.19588 0.32500601
1.007812 0.19930699 0.325129
1.010098 0.19839001 0.32939899
0.97439599 0.201084 0.32667801
0.97903502 0.202334 0.32903799
0.98773003 0.20449699 0.32709101
0.9960655 0.20082301 0.327263
1.1793129 0.051222 0.331231
1.134763 0.055215999 0.334627
1.185848 0.055661999 0.332679
1.1099091 0.061884001 0.33163899
1.159256 0.063323997 0.33406001
1.124191 0.066168502 0.333195
1.11483 0.073305003 0.33424401
1.111791 0.075473003 0.33236799
1.120339 0.077394001 0.332257
1.1018391 0.083998002 0.33268201
1.1072044 0.082969502 0.33147699
1.083266 0.089773998 0.333105
1.133876 0.089313 0.330529
1.107155 0.091398001 0.330167
1.128826 0.094866 0.33379301
1.0645781 0.099031001 0.33416799
1.071362 0.097929999 0.334986
1.078791 0.095118001 0.33176401
1.086557 0.097222999 0.330708
1.096293 0.099689998 0.333446
1.077262 0.101358 0.33190599
1.101171 0.103922 0.33149701
1.07521 0.109377 0.331341
1.091319 0.106497 0.33091199
1.109858 0.105369 0.33278599
1.062161 0.11067 0.333213
1.083946 0.114347 0.33197799
1.054557 0.115484 0.331128
1.074577 0.117366 0.33238301
1.081417 0.117905 0.33417901
1.083889 0.121582 0.33259299
1.091298 0.121498 0.33204699
1.0432041 0.1265825 0.33248749
1.057536 0.12578399 0.33384499
1.082047 0.12582999 0.334591
1.0594701 0.130899 0.331312
1.0683405 0.13243249 0.334629
1.078889 0.134836 0.33106101
1.028891 0.139668 0.331689
1.042357 0.139219 0.331211
1.0514375 0.136143 0.33107799
1.0648431 0.13619 0.33333001
1.0293911 0.142537 0.33081201
1.0361335 0.142629 0.33196151
1.049814 0.14336801 0.33048701
1.066689 0.142396 0.33224499
1.073873 0.14421199 0.334501
1.032811 0.145932 0.33411101
1.0436389 0.145108 0.332185
1.051518 0.148265 0.33359599
1.068118 0.145183 0.332706
1.0319936 0.15317833 0.33114198
1.0156111 0.158233 0.33474699
1.004436 0.164271 0.33456799
1.016544 0.163019 0.33028099
1.027483 0.161073 0.331249
1.044675 0.16284101 0.33386099
1.052385 0.163973 0.330212
1.008273 0.16952699 0.33373901
1.001249 0.17033701 0.33237401
1.009299 0.17260399 0.333516
1.027276 0.172755 0.33274701
1.008742 0.179157 0.33232701
1.018971 0.17980801 0.33110601
1.023765 0.17809901 0.33320999
0.98322797 0.1818355 0.332066
0.99823546 0.18712351 0.3316955
1.014455 0.186914 0.33402199
0.99528801 0.192827 0.33323199
1.008297 0.19487301 0.33159399
0.97082299 0.19568799 0.33313599
0.99177599 0.19600999 0.33079401
1.002236 0.19752033 0.331085
1.01039 0.1988 0.33093101
1.173094 0.051105 0.33732399
1.1308579 0.057236999 0.33598101
1.146394 0.056837 0.335383
1.1605051 0.057030998 0.338815
1.110795 0.061852001 0.33762401
1.1380105 0.064297006 0.33547652
1.149544 0.062096 0.339495
1.152837 0.063220002 0.33861399
1.123096 0.066895999 0.335686
1.128635 0.066580504 0.3389945
1.132322 0.068290003 0.337971
1.144032 0.066078998 0.33972299
1.145363 0.068024002 0.335996
1.095034 0.077333003 0.33628699
1.104005 0.075493999 0.339412
1.11917 0.076148003 0.338231
1.090034 0.083136 0.338981
1.101951 0.083460003 0.33604401
1.1062419 0.082742997 0.33566701
1.121377 0.084106997 0.33829299
1.1317 0.080518998 0.33757001
1.135208 0.081793003 0.335841
1.0971659 0.086069003 0.33995
1.106301 0.089083001 0.33975801
1.115448 0.086285003 0.336225
1.122501 0.087072998 0.33509499
1.082989 0.093204997 0.33628201
1.094298 0.093061 0.33752099
1.107371 0.095702 0.33831999
1.112637 0.098814003 0.337459
1.073792 0.103343 0.339387
1.08937 0.10498 0.335253
1.104401 0.10263199 0.33859968
1.065696 0.105731 0.33689499
1.073498 0.108276 0.33836299
1.099586 0.107601 0.33769399
1.073635 0.111118 0.33627799
1.08364 0.113943 0.33965299
1.068552 0.116334 0.336319
1.056432 0.12158599 0.33645099
1.066811 0.121312 0.338543
1.073446 0.120955 0.33519301
1.0964431 0.123172 0.33983201
1.0838521 0.12639201 0.33520001
1.0439715 0.1322795 0.33700901
1.062681 0.13225301 0.33511999
1.063707 0.139236 0.33800599
1.021646 0.142497 0.33543199
1.0358289 0.14127301 0.33780199
1.049204 0.14216501 0.33530599
1.026336 0.147884 0.336418
1.0538729 0.14952099 0.33973601
1.023692 0.152594 0.33817101
1.032468 0.151246 0.33565301
1.0188169 0.1585 0.33583999
1.0245301 0.155605 0.33748701
1.031919 0.15703499 0.335605
1.045315 0.155563 0.33628201
0.99466002 0.162747 0.33665401
1.014527 0.163268 0.339219
1.024509 0.16151901 0.33609501
1.029076 0.16023199 0.33959699
1.036952 0.167198 0.33945
1.045247 0.168551 0.33851999
0.998631 0.17225499 0.339827
1.0013 0.17433301 0.33911601
1.0135241 0.171312 0.335565
1.032234 0.17397401 0.33853099
1.0178519 0.176449 0.336169
1.0229011 0.175383 0.33929899
1.019271 0.182844 0.33974999
1.020031 0.184875 0.33916301
0.98995602 0.188178 0.33925301
1.007179 0.18708999 0.33779401
0.98182398 0.19212601 0.33817601
1.005756 0.191851 0.33836001
0.97705197 0.198512 0.33866999
0.98408699 0.19693001 0.33886799
0.98880255 0.198457 0.33619201
1.014328 0.195897 0.337531
1.0164779 0.19930699 0.336483
1.151093 0.050225001 0.34115201
1.15798 0.053137001 0.34398401
1.111528 0.059344999 0.340855
1.125312 0.057558998 0.34257701
1.13574 0.059966002 0.343986
1.155485 0.055413 0.343824
1.132895 0.062844999 0.343799
1.138477 0.061136 0.341169
1.1180451 0.065501004 0.34144199
1.1200171 0.069277003 0.34009999
1.1287301 0.069600999 0.34108901
1.131053 0.070018999 0.342682
1.109398 0.076036997 0.34149399
1.1195359 0.078237996 0.34098899
1.121556 0.078813002 0.340882
1.1414419 0.075319998 0.340166
1.1168776 0.080706 0.34252602
1.11297 0.088371001 0.34122649
1.0764484 0.091581501 0.34363949
1.08971 0.090571001 0.34292501
1.102043 0.091785997 0.34346199
1.127377 0.093891002 0.34255099
1.072629 0.098867998 0.34223601
1.079811 0.095464997 0.34167799
1.093673 0.097433001 0.34213299
1.0972 0.096675999 0.34370649
1.104635 0.096490003 0.34059599
1.086248 0.103906 0.34469199
1.052734 0.107711 0.34468901
1.0784675 0.1080585 0.34240597
1.0805711 0.109391 0.342383
1.0709521 0.11447 0.34019899
1.087714 0.114167 0.34030899
1.094908 0.113064 0.34221199
1.071586 0.118561 0.340339
1.086754 0.11599 0.343658
1.056332 0.124107 0.34088701
1.068206 0.121434 0.34496099
1.034885 0.127 0.34254801
1.072947 0.12548199 0.34439999
1.08634 0.127516 0.34485701
1.05235 0.13380101 0.3422685
1.070794 0.131844 0.34002301
1.077456 0.13486101 0.34185001
1.0396276 0.136933 0.34207898
1.0473394 0.13728151 0.342581
1.044106 0.14182501 0.34482199
1.0522844 0.142803 0.34221601
1.0372396 0.147486 0.34202451
1.0459599 0.146405 0.34368601
1.0580389 0.148551 0.34294999
1.072099 0.147083 0.34122699
1.0148261 0.151483 0.341941
1.0330091 0.151381 0.34384799
1.037468 0.150141 0.34339499
1.045812 0.15290301 0.343124
1.027617 0.159024 0.34091699
1.031321 0.15508699 0.34108201
1.0564491 0.155727 0.341793
1.061591 0.15728401 0.34340101
1.028867 0.16161101 0.34228301
1.044773 0.160431 0.343694
1.01474 0.16549601 0.34040701
1.0190811 0.1670955 0.34440702
1.024542 0.16991501 0.343813
1.026714 0.1665 0.34131899
1.033666 0.165343 0.34035501
0.99190998 0.171387 0.34357601
1.009855 0.171501 0.34232599
1.030714 0.171498 0.34086299
0.99824601 0.17713401 0.342704
1.020846 0.178295 0.34430999
1.0306261 0.179869 0.34008899
1.038088 0.175092 0.343961
1.045857 0.176075 0.34090599
1.0024514 0.18218499 0.34062898
1.0088915 0.182951 0.34238452
1.0044661 0.18559401 0.34015101
1.0167265 0.188466 0.34422052
0.978387 0.194629 0.34274501
0.98378301 0.190166 0.342392
1.014927 0.190935 0.34047601
1.02423 0.194736 0.34035099
1.1799279 0.043272998 0.346753
1.141742 0.049129002 0.345314
1.150185 0.046647001 0.34961799
1.1919971 0.047816999 0.34710801
1.122066 0.057066999 0.34870699
1.136546 0.057503998 0.349969
1.163363 0.055039998 0.348961
1.1410775 0.061947502 0.34623399
1.145283 0.062767997 0.34722701
1.1643389 0.063297004 0.348315
1.111115 0.067428999 0.346679
1.13416 0.066666998 0.345249
1.142629 0.065897003 0.34793299
1.106171 0.072663002 0.347534
1.132918 0.073112004 0.34802499
1.137578 0.072567001 0.34781051
1.14271 0.074423999 0.349729
1.102911 0.077648997 0.348178
1.11298 0.078828499 0.34811801
1.118547 0.076815002 0.345918
1.110714 0.080530003 0.34505001
1.098101 0.089102998 0.34718499
1.1380939 0.088131003 0.34707001
1.128374 0.094122 0.346075
1.079501 0.098833002 0.34565499
1.1149 0.097475998 0.34761199
1.117936 0.096565999 0.34784099
1.071146 0.103325 0.349722
1.084386 0.103809 0.34956399
1.059721 0.109882 0.34627199
1.087971 0.106226 0.34658399
1.094672 0.107761 0.34539601
1.100582 0.107948 0.34848601
1.120725 0.107641 0.346742
1.084159 0.110514 0.34978199
1.088897 0.113741 0.34731999
1.097326 0.113808 0.34619001
1.059152 0.117902 0.346928
1.0683711 0.116783 0.34668601
1.079771 0.115789 0.347799
1.093058 0.119703 0.348389
1.0554 0.120955 0.34559801
1.06347 0.122832 0.34582201
1.0663821 0.123865 0.34770501
1.053252 0.12521601 0.34623101
1.063418 0.12849849 0.3469865
1.0708309 0.12855101 0.34738001
1.07718 0.127314 0.346966
1.0536489 0.13133401 0.34970799
1.068881 0.130449 0.34793901
1.0791219 0.134619 0.34708101
1.077324 0.138493 0.34589499
1.042271 0.144324 0.34652501
1.065299 0.141803 0.346387
1.079558 0.140155 0.34943399
1.034128 0.148479 0.34916499
1.0376385 0.14532951 0.346127
1.030907 0.15380099 0.34526199
1.035007 0.15153401 0.34822801
1.045391 0.151337 0.34801099
1.062095 0.15195 0.34507301
1.043207 0.159953 0.34534699
1.0469 0.157057 0.34931901
1.011462 0.16225299 0.34680748
1.0274241 0.16278201 0.34757349
1.0142601 0.16881 0.34837201
1.027916 0.16656899 0.348241
1.039024 0.16724201 0.349085
1.022423 0.172115 0.34772301
0.988424 0.175574 0.34563801
1.027397 0.178371 0.34859499
1.004099 0.18477 0.349904
1.020756 0.182218 0.34587801
1.038443 0.180911 0.34814101
0.99349803 0.185192 0.34655201
1.0127259 0.18605 0.345171
1.019737 0.187693 0.34592599
0.99529499 0.193892 0.349343
1.178166 0.043106001 0.35229498
1.130178 0.049141999 0.350384
1.163615 0.045329999 0.35238299
1.13965 0.052526999 0.35050899
1.1480449 0.054037999 0.354238
1.157046 0.054726999 0.35338199
1.163942 0.054141 0.351284
1.131824 0.056400999 0.35470501
1.1496201 0.055054002 0.35292801
1.152844 0.059581 0.35345501
1.126519 0.060920998 0.35405201
1.131492 0.060632002 0.35109699
1.150362 0.060079999 0.35080901
1.14881 0.067828 0.35405901
1.11937 0.071257003 0.3504
1.132699 0.072731003 0.352642
1.1012551 0.075701997 0.354157
1.117144 0.077912003 0.35236999
1.1245543 0.076888673 0.35170934
1.126418 0.076214001 0.35311899
1.133615 0.076068997 0.35451901
1.1067104 0.082528993 0.35369098
1.089026 0.087252997 0.35453701
1.100795 0.087383002 0.352797
1.115301 0.087273002 0.35274899
1.1347671 0.087734997 0.35040101
1.085506 0.093381003 0.35143301
1.09304 0.094028004 0.350104
1.098781 0.092616998 0.35081699
1.1102254 0.094054997 0.35221398
1.115778 0.090407997 0.352355
1.0868649 0.099018 0.35035899
1.0934 0.095128998 0.35249999
1.109342 0.095702 0.35236999
1.0921969 0.102713 0.354958
1.108791 0.100912 0.35088301
1.073452 0.108547 0.35084
1.077736 0.10681 0.35276601
1.08026 0.106543 0.35247701
1.098857 0.108085 0.35206801
1.061836 0.111597 0.35135999
1.087323 0.110629 0.35047901
1.100778 0.1123805 0.35222751
1.079306 0.116809 0.35456252
1.047508 0.120881 0.35153601
1.071256 0.120251 0.35172901
1.0906709 0.122473 0.35499901
1.067608 0.12803701 0.35289699
1.081936 0.125762 0.35178199
1.036846 0.13347401 0.35222799
1.049904 0.13122299 0.35373801
1.05048 0.134178 0.35235301
1.062602 0.130923 0.35253051
1.057184 0.135911 0.354826
1.06169 0.136796 0.35393101
1.049772 0.14421301 0.35364601
1.0576425 0.14203051 0.3531805
1.065015 0.14343899 0.351495
1.038841 0.149588 0.353376
1.0446944 0.14756151 0.35233998
1.0597039 0.148771 0.350642
1.061802 0.146066 0.35432899
1.037279 0.15280649 0.35130602
1.030956 0.157996 0.35463899
1.027509 0.164258 0.353787
1.030116 0.16467901 0.35494301
1.0488845 0.1614805 0.35089251
1.051236 0.16091099 0.35257
1.009238 0.16831601 0.35320699
1.024245 0.16797701 0.35305399
1.0272191 0.169818 0.35443601
1.055063 0.169386 0.35409501
1.000775 0.174871 0.353282
1.006408 0.173296 0.35463199
1.038028 0.17259701 0.353793
1.002035 0.177984 0.35327801
1.005654 0.176759 0.35411
1.021263 0.178184 0.35391501
1.0311739 0.178792 0.35092199
0.98574603 0.184214 0.35240701
0.99674302 0.184643 0.351648
1.019065 0.18461201 0.352083
1.026119 0.181052 0.35369
0.99205601 0.189998 0.35083899
1.0315011 0.187343 0.35406101
0.99058002 0.19102 0.35338101
1.023881 0.192035 0.35018799
1.155992 0.044539001 0.358365
1.164 0.042964999 0.35642099
1.1698641 0.043939002 0.355551
1.1263551 0.049559001 0.35737699
1.162852 0.047920998 0.35771799
1.168081 0.048250999 0.355387
1.188092 0.045724001 0.35591701
1.133522 0.052232999 0.35991901
1.138887 0.057714 0.357512
1.1582005 0.058163501 0.35800749
1.1246541 0.062838003 0.35782099
1.140259 0.063330002 0.35587099
1.114259 0.069815002 0.35972801
1.1173871 0.067923002 0.35892901
1.1428061 0.065183997 0.35723701
1.156909 0.068471 0.35820699
1.1164064 0.071389496 0.35650152
1.1230789 0.073544003 0.35510799
1.126103 0.074212 0.35815701
1.13757 0.070629001 0.35907
1.140725 0.073078997 0.359759
1.157078 0.072738998 0.35801399
1.1573991 0.075905003 0.35812801
1.113428 0.084954001 0.35822299
1.1217411 0.082406998 0.35629201
1.135686 0.080794998 0.359272
1.0945721 0.088995501 0.35706198
1.096038 0.089339003 0.356729
1.135875 0.086753003 0.35996199
1.107299 0.091425002 0.35934401
1.100431 0.099812001 0.35534501
1.097683 0.101434 0.357472
1.1315221 0.100315 0.35783699
1.0755506 0.107709 0.356682
1.0658211 0.113748 0.35837501
1.0814101 0.112543 0.357703
1.108423 0.110845 0.35693201
1.066197 0.116628 0.35651699
1.0755399 0.119549 0.35873899
1.0816441 0.119391 0.355647
1.093052 0.115831 0.357346
1.054863 0.120733 0.358376
1.072446 0.120142 0.35969701
1.080972 0.123825 0.35882601
1.093792 0.120195 0.358652
1.082976 0.125873 0.35750636
1.090477 0.12625 0.355874
1.052608 0.130072 0.356962
1.06539 0.133774 0.35945299
1.0860136 0.13188151 0.359265
1.055589 0.137683 0.35565299
1.0576355 0.1418535 0.35649049
1.064028 0.140911 0.35699999
1.076198 0.143409 0.35957
1.031054 0.146826 0.35985401
1.045561 0.147402 0.359108
1.06366 0.149965 0.35847199
1.049401 0.151613 0.355425
1.052176 0.15315901 0.35739899
1.070796 0.15059499 0.35658899
1.032395 0.15906501 0.3561765
1.041723 0.15581401 0.356473
1.028059 0.162385 0.35665649
1.031039 0.16339999 0.35709801
1.039264 0.161026 0.35758099
1.041809 0.16243701 0.35576001
1.033654 0.168166 0.35851601
1.041559 0.168161 0.35749999
1.006708 0.174307 0.35551199
1.0419896 0.17254701 0.358596
1.015385 0.177913 0.35751
1.0216 0.178757 0.35637701
1.038215 0.17644601 0.35844499
1.004415 0.181366 0.35721201
1.026587 0.181583 0.357797
0.99560601 0.187721 0.35972601
1.019189 0.18654899 0.35653201
1.200132 0.039262 0.36366701
1.14384 0.049933001 0.36178601
1.1605561 0.048541002 0.36458799
1.16747 0.046755001 0.36386201
1.1467664 0.052476 0.3618035
1.1464421 0.055652 0.36209199
1.1703155 0.056217499 0.36142349
1.118333 0.064623997 0.36280301
1.135465 0.061818998 0.36313701
1.159732 0.063491002 0.36399001
1.1219701 0.068893 0.36459199
1.13495 0.066968001 0.36152801
1.150211 0.067055002 0.36361599
1.108608 0.071309 0.36217499
1.138863 0.074956 0.36048299
1.143875 0.073425002 0.36015499
1.096693 0.083230004 0.36475199
1.101251 0.081363998 0.36472201
1.111985 0.084164999 0.36254799
1.1183314 0.083111003 0.36269152
1.1278141 0.083393499 0.3624225
1.142134 0.080242001 0.36429399
1.147362 0.081396997 0.36034799
1.114272 0.086547002 0.36464
1.1180277 0.088422336 0.36244798
1.123208 0.088912003 0.36303499
1.100136 0.094649002 0.36146
1.082157 0.098878004 0.36072201
1.091997 0.098104998 0.36118999
1.095458 0.099299997 0.360892
1.080978 0.103625 0.36388499
1.0893866 0.10264367 0.36332631
1.096464 0.104587 0.36003399
1.1072429 0.102508 0.36349648
1.11 0.102002 0.363828
1.1280921 0.100149 0.360636
1.103354 0.106118 0.360333
1.1013546 0.113702 0.36216801
1.086293 0.116322 0.36273101
1.093079 0.119679 0.36354101
1.058071 0.120657 0.36390999
1.067094 0.121628 0.360001
1.07927 0.121436 0.36196601
1.081414 0.123931 0.36036801
1.0970426 0.121496 0.36480799
1.110388 0.12392 0.36447901
1.0608881 0.128419 0.36414301
1.073073 0.128408 0.36489201
1.075214 0.1261 0.36033201
1.066323 0.13372099 0.36100399
1.075318 0.132557 0.36471
1.043988 0.139773 0.36437401
1.0631965 0.13911399 0.36229151
1.074645 0.139961 0.363868
1.076158 0.137356 0.36325401
1.0317709 0.140884 0.36241999
1.04986 0.140449 0.362335
1.0576971 0.14193299 0.363608
1.0446219 0.146521 0.36185899
1.050899 0.14899001 0.36383
1.0207 0.154212 0.36221501
1.046442 0.154401 0.36496601
1.044481 0.15751299 0.36157799
1.049475 0.155578 0.36380401
1.057469 0.15666901 0.36312351
1.032297 0.161759 0.36340901
1.0388449 0.164417 0.363911
1.041579 0.16050801 0.36071599
1.055899 0.166503 0.36056399
1.01253 0.172608 0.36442602
1.023994 0.170064 0.36122599
1.0253071 0.171868 0.364988
1.0338759 0.174383 0.36483401
1.0433745 0.17299101 0.362436
1.009703 0.179121 0.36090401
1.023913 0.17610399 0.36087799
1.036083 0.176084 0.36164901
1.003034 0.181226 0.36209401
1.018452 0.181329 0.36068001
1.031283 0.184763 0.36389199
1.048535 0.18148699 0.36478901
1.1826224 0.035300002 0.36643451
1.164578 0.040582001 0.36867499
1.166297 0.042964999 0.36637601
1.1427951 0.047013998 0.36907202
1.159098 0.048289001 0.36946499
1.164547 0.047357999 0.36726999
1.184472 0.045669999 0.36581299
1.127857 0.050602999 0.36506799
1.15792 0.051635001 0.36838201
1.160257 0.051970001 0.36889499
1.171203 0.051723 0.36573899
1.1363029 0.056138001 0.365381
1.149464 0.056641001 0.36906001
1.1431561 0.064960003 0.36642101
1.156177 0.060334999 0.36795199
1.128173 0.065813005 0.36699498
1.13146 0.068320997 0.36794499
1.136021 0.067084 0.369508
1.153685 0.067556001 0.36901501
1.141212 0.073122002 0.36899099
1.163653 0.070366003 0.369609
1.11913 0.076535001 0.36525801
1.142114 0.077652 0.368714
1.103832 0.084468998 0.36851099
1.106709 0.08439 0.36794901
1.111997 0.081321999 0.36564901
1.128969 0.080755003 0.36940199
1.151261 0.084409997 0.36956301
1.112693 0.085313998 0.36717799
1.1211981 0.087719999 0.366189
1.137388 0.086770996 0.36950099
1.1504591 0.088514 0.36794099
1.093233 0.094764002 0.369663
1.106192 0.092 0.36513099
1.120138 0.090388998 0.36811
1.102049 0.099362999 0.36757901
1.1110899 0.096623003 0.365455
1.078353 0.10076 0.36535999
1.0896615 0.103362 0.36506248
1.111467 0.102954 0.369398
1.12335 0.103654 0.36896801
1.063707 0.108835 0.36996001
1.076661 0.109314 0.369697
1.094647 0.108259 0.36884999
1.09882 0.107838 0.36722901
1.084877 0.115199 0.369892
1.101946 0.124214 0.36625099
1.058329 0.129438 0.36668
1.062448 0.129756 0.36691999
1.075955 0.126068 0.36504701
1.067156 0.13347401 0.36662799
1.077624 0.134977 0.36915001
1.06363 0.137512 0.36545399
1.083629 0.13869201 0.36555699
1.046064 0.142243 0.36699599
1.069688 0.14171299 0.36843401
1.07603 0.140301 0.365834
1.080002 0.143906 0.36977801
1.037057 0.147222 0.36522999
1.052024 0.153805 0.365078
1.058051 0.15406349 0.36671999
1.039957 0.15937801 0.368049
1.0425315 0.15645051 0.366357
1.050547 0.156206 0.365392
1.040641 0.16062599 0.36586201
1.0642689 0.162696 0.367284
1.028569 0.168859 0.36924699
1.037486 0.165223 0.369259
1.045431 0.165325 0.36749801
1.023697 0.17343 0.366492
1.037806 0.17197201 0.36839601
1.015416 0.17748 0.368009
1.025571 0.17802601 0.36658901
1.039911 0.176368 0.36965299
1.006266 0.184314 0.36598
1.03433 0.18321501 0.367327
1.1883889 0.032623 0.372733
1.15782 0.039600998 0.37300801
1.165198 0.03785 0.37155399
1.179621 0.038183998 0.374309
1.1916291 0.035602 0.37002701
1.159793 0.042171001 0.370691
1.186833 0.042702999 0.37407801
1.145162 0.047348998 0.371263
1.1572859 0.045674503 0.37241352
1.123974 0.054742999 0.37222299
1.156256 0.050965 0.37369099
1.1393321 0.059307002 0.37437201
1.12868 0.063110001 0.370473
1.1421155 0.06318 0.37452698
1.150745 0.062627003 0.372798
1.161015 0.060185999 0.373108
1.124223 0.066197 0.37213999
1.131471 0.069454998 0.37179199
1.163507 0.068112999 0.37246001
1.171729 0.065309003 0.37155399
1.135535 0.077432998 0.37215301
1.143376 0.079383999 0.373849
1.133034 0.080062002 0.37173599
1.093245 0.094361998 0.37186801
1.106608 0.094722003 0.37236801
1.112045 0.092354998 0.3719385
1.1244971 0.091812998 0.373438
1.1354589 0.092657 0.374529
1.14079 0.09358 0.37111399
1.093855 0.098137997 0.373081
1.099057 0.097627997 0.37484699
1.101354 0.097887002 0.374966
1.12904 0.099081002 0.37019601
1.103534 0.100484 0.371894
1.113465 0.102952 0.37175801
1.111469 0.106324 0.37476599
1.071995 0.113841 0.37452099
1.08567 0.111271 0.370253
1.093472 0.110784 0.370179
1.101244 0.112875 0.372448
1.121416 0.112564 0.37086999
1.07197 0.116953 0.37075499
1.0837331 0.115758 0.37209803
1.091575 0.115509 0.372217
1.075855 0.124945 0.37490299
1.073725 0.126449 0.37470901
1.080389 0.129932 0.37050399
1.095736 0.12511501 0.37227201
1.060683 0.132652 0.37128699
1.074381 0.132358 0.37414899
1.077436 0.133406 0.372926
1.081369 0.133853 0.37195399
1.0430861 0.13965601 0.37246999
1.0705 0.13959301 0.37239099
1.103493 0.136444 0.37422699
1.044831 0.14391699 0.37164399
1.045697 0.143132 0.370754
1.053637 0.142369 0.372906
1.055236 0.140065 0.37157199
1.066486 0.140659 0.37499201
1.083867 0.140074 0.371463
1.046072 0.149564 0.374962
1.059751 0.149435 0.373431
1.061867 0.146805 0.373559
1.0689909 0.145722 0.37377399
1.07038 0.14895 0.37472701
1.0138071 0.150419 0.37100601
1.038601 0.15313099 0.371627
1.073274 0.152198 0.37205899
1.062021 0.158126 0.370556
1.031831 0.160393 0.37207699
1.044614 0.16206799 0.372834
1.015843 0.16506299 0.37431899
1.0377671 0.169679 0.37342101
1.042943 0.16811967 0.37387368
1.045714 0.166917 0.37337101
1.053459 0.166627 0.37444001
1.022663 0.173599 0.37016001
1.025753 0.17392901 0.37344301
1.035722 0.173849 0.37261701
1.174412 0.032210998 0.37799901
1.201907 0.032152999 0.375265
1.205278 0.031207001 0.37879801
1.191889 0.038127001 0.37979901
1.145613 0.044684 0.37535
1.1715032 0.042708337 0.37817064
1.144841 0.046301 0.37563699
1.174072 0.048287999 0.375698
1.1766456 0.048304334 0.376789
1.186162 0.045479 0.37523201
1.142208 0.052556001 0.37797099
1.146156 0.051288001 0.37685099
1.162113 0.052257001 0.37900299
1.15546 0.059032999 0.37667301
1.177752 0.058168001 0.37611601
1.140059 0.061066002 0.37827
1.154984 0.060566001 0.37616
1.1666451 0.062034 0.37827101
1.118449 0.068439998 0.37966099
1.1429369 0.068742 0.37975401
1.151399 0.065094002 0.37776399
1.100334 0.072586 0.37919801
1.149501 0.072750002 0.378187
1.155521 0.072841004 0.376697
1.10945 0.076228 0.37623999
1.113471 0.079864003 0.37985101
1.1189744 0.078627497 0.37799549
1.1237863 0.07621 0.37858966
1.124983 0.081689999 0.37726399
1.1276635 0.081951 0.3777715
1.171037 0.085896 0.37674499
1.092764 0.092588998 0.37715501
1.0963939 0.092215002 0.37682599
1.115273 0.094429001 0.37599
1.1045901 0.099982001 0.37694901
1.106302 0.098595999 0.375579
1.1113991 0.095182002 0.37690899
1.117433 0.096780002 0.378739
1.121143 0.095918998 0.37558699
1.130901 0.100116 0.37884799
1.143519 0.101122 0.37775499
1.087782 0.108101 0.37809101
1.106879 0.105974 0.378162
1.07645 0.11387 0.37633699
1.085501 0.1130545 0.37633198
1.1038926 0.1133345 0.37617648
1.083186 0.117484 0.37611699
1.105024 0.11621 0.378681
1.058758 0.122139 0.37675601
1.071337 0.122552 0.376335
1.079343 0.124436 0.37931699
1.080343 0.121015 0.378602
1.089157 0.121869 0.376241
1.054305 0.12971701 0.37645999
1.059045 0.129601 0.379592
1.078806 0.129197 0.377749
1.080129 0.128281 0.37619099
1.087301 0.131273 0.37501401
1.095681 0.131211 0.37716299
1.046571 0.139846 0.376939
1.058237 0.13910601 0.37962601
1.0543749 0.146777 0.378952
1.059652 0.146988 0.378012
1.0388429 0.1536465 0.37812749
1.05314 0.152243 0.37614
1.0673211 0.153349 0.37741351
1.039868 0.156569 0.378429
1.048944 0.15530001 0.379132
1.008608 0.16334499 0.37748799
1.041877 0.163894 0.37771201
1.050977 0.160382 0.37729201
1.055954 0.163645 0.37930799
1.023078 0.168909 0.37585601
1.033213 0.16648801 0.37887999
1.0378084 0.1670665 0.3787145
1.046123 0.167935 0.379594
1.051059 0.16673601 0.37607801
1.019469 0.17353 0.37510601
1.026606 0.173563 0.37892401
1.057741 0.174798 0.377978
1.225989 0.022158001 0.38420701
1.222326 0.028759001 0.38496301
1.161075 0.032912999 0.381964
1.174404 0.031160999 0.38474199
1.192945 0.033403002 0.38224199
1.159217 0.036550999 0.381982
1.162359 0.037857 0.38388199
1.168211 0.037175 0.381726
1.171823 0.039971001 0.38170901
1.184958 0.036254998 0.384992
1.206447 0.038592 0.38443801
1.156878 0.042388 0.382761
1.187886 0.044606 0.38250101
1.1586699 0.049952 0.38224801
1.137707 0.050048999 0.38359401
1.152474 0.054404002 0.38273099
1.138407 0.059670001 0.38409299
1.1404641 0.057841502 0.381937
1.166757 0.058228999 0.384215
1.180335 0.056225002 0.383387
1.141294 0.064684004 0.38330099
1.1508 0.064715996 0.38084
1.156514 0.060973998 0.38136899
1.168687 0.062368002 0.384523
1.101159 0.069228001 0.38137001
1.150121 0.067933001 0.38270199
1.133175 0.074882999 0.381908
1.154561 0.073616996 0.38235399
1.125142 0.077343002 0.380236
1.1435565 0.0776655 0.38251901
1.164849 0.077720001 0.38185599
1.139618 0.08106 0.38074499
1.104409 0.089777 0.38316
1.128498 0.089495003 0.38440099
1.137904 0.087002002 0.381421
1.10763 0.091651 0.3815625
1.117835 0.090074003 0.383995
1.136541 0.091711998 0.384083
1.145445 0.096082002 0.38111201
1.087687 0.104839 0.38114801
1.108081 0.103928 0.380133
1.081477 0.107754 0.38279101
1.0987114 0.10904034 0.38239267
1.1039979 0.108656 0.381387
1.128783 0.105071 0.384763
1.0979545 0.1116305 0.382981
1.102533 0.11087 0.38416001
1.122205 0.111409 0.380429
1.106988 0.116321 0.38107699
1.079752 0.123164 0.38449901
1.089262 0.120135 0.38288501
1.06692 0.1264675 0.38349402
1.076987 0.12892801 0.38176799
1.086686 0.126431 0.38440099
1.0928485 0.127211 0.381506
1.095601 0.126046 0.38169301
1.05285 0.132379 0.38498601
1.081038 0.13246 0.38056099
1.053809 0.135442 0.383551
1.0616369 0.138779 0.38293651
1.06698 0.138615 0.384808
1.083668 0.135479 0.38363099
1.089208 0.137216 0.38296601
1.045149 0.142435 0.38258401
1.0732715 0.1435405 0.38330901
1.078463 0.14259 0.38436899
1.037011 0.14974301 0.380191
1.063212 0.145633 0.38067099
1.068058 0.149829 0.38045001
1.04324 0.156363 0.38307399
1.062664 0.158887 0.382837
1.073474 0.15600701 0.380472
1.069931 0.16357601 0.38492501
1.0703501 0.160988 0.38454899
1.051838 0.165929 0.38034999
1.0617726 0.16657349 0.38349497
1.0332479 0.174633 0.38204601
1.047791 0.17434201 0.38262299
1.038329 0.175147 0.38183701
1.2329021 0.020713 0.385508
1.157131 0.031401999 0.387595
1.157308 0.039686002 0.38712701
1.183265 0.035223 0.38686201
1.193714 0.038059998 0.389213
1.154353 0.042847998 0.38784999
1.162057 0.041944001 0.386345
1.198668 0.044851001 0.38830999
1.201701 0.040924001 0.38930401
1.175436 0.047476001 0.38693601
1.1449 0.05119 0.38887501
1.15475 0.054854002 0.38681
1.163347 0.050129998 0.38776699
1.151742 0.056191001 0.38981101
1.170329 0.057293002 0.388172
1.179281 0.057890002 0.385535
1.169616 0.060320999 0.386792
1.1257 0.069586001 0.38509101
1.134825 0.068681002 0.386958
1.150571 0.069954999 0.38885599
1.120828 0.071512997 0.387622
1.1378577 0.07205233 0.3873837
1.149206 0.072159998 0.38763201
1.132591 0.078170002 0.38991299
1.1129251 0.082135998 0.38709801
1.151311 0.082190998 0.38940299
1.099486 0.089920998 0.38886201
1.108618 0.086326003 0.38701099
1.114538 0.086304002 0.385885
1.116258 0.086061999 0.38898799
1.142826 0.085164003 0.38842201
1.095637 0.09014 0.38782099
1.110286 0.092203997 0.386572
1.1236501 0.092604995 0.38787651
1.118506 0.095059 0.38658401
1.120675 0.099634998 0.387954
1.16405 0.098589003 0.38662499
1.102586 0.104348 0.38867
1.108526 0.103817 0.38917899
1.110737 0.103863 0.38865599
1.089184 0.1089795 0.3856605
1.1029871 0.107964 0.38876799
1.115365 0.107514 0.387059
1.0689369 0.114819 0.38982999
1.124414 0.113461 0.38819399
1.069694 0.117807 0.38792101
1.102877 0.11844367 0.38658568
1.0719219 0.124114 0.38878801
1.0767291 0.120837 0.38909
1.100673 0.121759 0.389395
1.081574 0.12551001 0.38800001
1.098444 0.125191 0.38677299
1.0727 0.13378051 0.38815552
1.050539 0.138776 0.38901001
1.073017 0.137601 0.38837999
1.092774 0.13994899 0.389579
1.095688 0.13644999 0.388605
1.0821655 0.14315599 0.38793552
1.060688 0.149027 0.38961199
1.074605 0.14574 0.389819
1.03987 0.151932 0.38697201
1.054687 0.15292101 0.38951099
1.059898 0.15290999 0.38509199
1.048064 0.158875 0.38787299
1.064468 0.155541 0.38532501
1.03175 0.16282301 0.386751
1.0483 0.1617135 0.38807899
1.064602 0.16054501 0.38620001
1.033111 0.16634351 0.38652098
1.0379829 0.169614 0.389963
1.044252 0.168231 0.38535801
1.05959 0.166642 0.387079
1.208811 0.021915 0.39075899
1.2108256 0.022786334 0.39189434
1.1713099 0.027884999 0.39366001
1.206268 0.028623 0.39017501
1.169641 0.030952999 0.394393
1.175912 0.033826001 0.39121801
1.1846991 0.034483999 0.39090601
1.189867 0.034534 0.391684
1.199306 0.030584 0.39378601
1.226315 0.034419999 0.394945
1.168775 0.037372001 0.394398
1.17388 0.036102001 0.39133
1.176052 0.035038002 0.39167601
1.182664 0.039919998 0.39131001
1.142674 0.043664999 0.39005899
1.180251 0.040934 0.39002699
1.18876 0.042695999 0.394869
1.152831 0.048512999 0.394108
1.1550061 0.046957999 0.39335701
1.165616 0.049501002 0.39108899
1.151818 0.053335 0.39397201
1.167295 0.050214998 0.39416099
1.184144 0.053610999 0.39497501
1.185168 0.050625 0.39010301
1.156028 0.056274999 0.3937735
1.117769 0.060345002 0.394063
1.152142 0.062052999 0.39294201
1.158483 0.063086003 0.39380699
1.120813 0.068717003 0.39097801
1.137931 0.065968998 0.39384899
1.152771 0.069978997 0.39384201
1.156868 0.065256998 0.39208001
1.116955 0.071762003 0.39318401
1.1309996 0.073418498 0.39232001
1.123178 0.075194001 0.391334
1.162156 0.075804003 0.393933
1.096428 0.081887998 0.39152601
1.130319 0.083466999 0.394106
1.136409 0.080844 0.390448
1.117682 0.086154498 0.39302999
1.121399 0.086346999 0.39271
1.1481071 0.087047003 0.39160001
1.109588 0.094475999 0.39308599
1.135901 0.092171997 0.39366099
1.133693 0.096352004 0.39412701
1.090862 0.103299 0.39415699
1.099079 0.1018105 0.39141449
1.102204 0.102896 0.39473
1.122713 0.104114 0.39052099
1.129706 0.10404 0.394317
1.113667 0.105839 0.391289
1.122523 0.108438 0.39295301
1.083369 0.116315 0.39392301
1.0939385 0.1182135 0.39394
1.102669 0.115324 0.39086801
1.122108 0.117486 0.39499801
1.127647 0.117946 0.392647
1.07695 0.12128 0.39155999
1.0833075 0.123296 0.39162552
1.0956841 0.123312 0.39384401
1.093518 0.12516101 0.39238101
1.100511 0.12969001 0.39039701
1.054518 0.139845 0.39204401
1.057373 0.136546 0.39276901
1.0635051 0.135776 0.39259899
1.075521 0.135592 0.39298201
1.086367 0.139505 0.39036
1.111807 0.13686401 0.390136
1.0592771 0.14000399 0.39284399
1.072363 0.14189899 0.390149
1.0472219 0.14834401 0.391114
1.078179 0.14908899 0.39102101
1.08268 0.14931799 0.39366099
1.0422616 0.152592 0.39384753
1.060236 0.15078101 0.394907
1.068494 0.153963 0.394642
1.055674 0.156463 0.39057001
1.067295 0.15698451 0.3920815
1.082516 0.16432101 0.39421001
1.066947 0.168109 0.39116701
1.046088 0.170219 0.39130101
1.203647 0.019393999 0.39958799
1.217072 0.018578 0.39568901
1.222542 0.018255999 0.39752099
1.18361 0.024472 0.39793101
1.219592 0.023841999 0.39810801
1.171194 0.026481001 0.39922601
1.189466 0.029795 0.39855301
1.16908 0.03461 0.39906099
1.1899509 0.032472 0.39673501
1.196407 0.03032 0.39522001
1.167006 0.037882 0.399443
1.215516 0.037241999 0.39610699
1.167876 0.043262001 0.395437
1.178757 0.044597998 0.39944801
1.151535 0.045274001 0.39512801
1.1588919 0.046624001 0.39744201
1.1831613 0.047567334 0.39778665
1.167821 0.050069999 0.399308
1.17372 0.054370001 0.399436
1.186833 0.050471999 0.39951599
1.137813 0.057061002 0.39650899
1.1479535 0.0558585 0.39676499
1.147966 0.063777998 0.39531699
1.151911 0.063389003 0.398938
1.1323889 0.066748001 0.399138
1.147836 0.067171998 0.39656699
1.158668 0.065332003 0.397255
1.162675 0.072929002 0.39660501
1.1724 0.070300996 0.39583701
1.109982 0.077857003 0.39886099
1.126588 0.077616997 0.39856401
1.165033 0.075370997 0.39716801
1.109571 0.082650997 0.39564699
1.1153899 0.082199 0.39773899
1.120842 0.080436997 0.39719599
1.129704 0.082909003 0.39904499
1.135214 0.082664996 0.39951301
1.1437349 0.084048502 0.39853752
1.105227 0.085569002 0.399277
1.093295 0.092170998 0.39747301
1.127782 0.090976998 0.39588401
1.138358 0.092014 0.39653
1.103761 0.097176999 0.399115
1.123961 0.098929003 0.39706701
1.136151 0.097579002 0.39865601
1.094131 0.103417 0.395879
1.102291 0.103732 0.398671
1.108691 0.100142 0.39832601
1.1267805 0.1027205 0.39808699
1.11203 0.108428 0.39590299
1.080706 0.113407 0.39923301
1.093399 0.113695 0.399468
1.116076 0.110513 0.39885101
1.157063 0.111283 0.39650401
1.0847991 0.118627 0.39798501
1.087438 0.117557 0.39760599
1.0963235 0.1183245 0.39674348
1.1019059 0.117802 0.396409
1.109586 0.119108 0.398532
1.116302 0.117455 0.39970601
1.051319 0.12764899 0.39699399
1.0636131 0.128057 0.39646801
1.0726643 0.13331866 0.39747801
1.091379 0.13423701 0.398552
1.097033 0.131321 0.39500701
1.0644391 0.13507199 0.39585501
1.081797 0.137353 0.396584
1.092666 0.136785 0.39824501
1.094035 0.143059 0.39971599
1.067169 0.14551701 0.39880201
1.06669 0.150766 0.397443
1.0756505 0.1528945 0.3973715
1.028609 0.157603 0.39959201
1.062915 0.15617651 0.39819449
1.075959 0.15588699 0.399068
1.036409 0.162617 0.397057
1.043911 0.162049 0.39714199
1.055364 0.162265 0.39625099
1.0726891 0.162699 0.39841199
1.042328 0.16708 0.396348
1.04882 0.166444 0.39723501
1.053311 0.165161 0.395192
1.236683 0.013427 0.40249902
1.2165951 0.016438 0.40482101
1.228352 0.016159 0.40313399
1.230196 0.016138 0.40108499
1.184312 0.024328999 0.401622
1.1970744 0.0274115 0.4035055
1.203851 0.029906999 0.401795
1.209548 0.025417 0.403579
1.1644681 0.033690002 0.40122899
1.185285 0.032937001 0.40494001
1.190155 0.031500001 0.402946
1.2012661 0.030641999 0.40319401
1.1526819 0.038722001 0.401741
1.2027714 0.037445001 0.40153751
1.1726179 0.043325499 0.4036395
1.180171 0.044728 0.40335801
1.192585 0.043081999 0.40408999
1.149159 0.048105001 0.40375999
1.197958 0.049929 0.40177801
1.176216 0.053173501 0.40193647
1.161108 0.058874998 0.40367499
1.132242 0.063890003 0.40278399
1.140995 0.060492001 0.40120301
1.178448 0.063123003 0.40040699
1.1291521 0.067024 0.404677
1.166586 0.066297002 0.40064499
1.132952 0.070456997 0.40295899
1.140838 0.073417 0.40099201
1.145615 0.074155003 0.40363699
1.150193 0.077671997 0.40231499
1.132485 0.081678003 0.40067101
1.139762 0.082275003 0.403644
1.167339 0.083268002 0.40200499
1.111567 0.085341997 0.400244
1.12554 0.086409003 0.401005
1.155625 0.089239001 0.40334201
1.092523 0.091190003 0.40385401
1.113402 0.094646998 0.40118599
1.129881 0.092945002 0.40114301
1.096833 0.095389001 0.40377301
1.103629 0.096348003 0.40347001
1.1099679 0.095680997 0.40450001
1.122561 0.098539002 0.40128899
1.13643 0.096936002 0.40425301
1.110448 0.101018 0.402982
1.120199 0.10242 0.40481499
1.1416529 0.100478 0.400846
1.101877 0.109529 0.40197301
1.129414 0.105517 0.403007
1.086679 0.113917 0.401034
1.1072525 0.113549 0.40220299
1.087431 0.11668649 0.40169448
1.122872 0.116369 0.40454999
1.0984581 0.124674 0.403575
1.103546 0.121575 0.402679
1.115629 0.120963 0.40270099
1.081026 0.125872 0.402412
1.067394 0.134358 0.40123999
1.077226 0.131695 0.40002501
1.0907021 0.131743 0.40431699
1.097784 0.130445 0.401737
1.121075 0.13012899 0.403413
1.087981 0.137099 0.40215451
1.04637 0.140953 0.40379
1.054621 0.143765 0.40317199
1.067434 0.143646 0.400316
1.0716161 0.144794 0.40118501
1.046774 0.147836 0.40156001
1.052516 0.147396 0.40487301
1.069618 0.149202 0.40075499
1.072468 0.149744 0.402134
1.080875 0.149616 0.402946
1.089867 0.14868601 0.40199399
1.091508 0.145017 0.40244499
1.052918 0.15308601 0.402006
1.076152 0.161419 0.40435499
1.226096 0.013295 0.40720099
1.252534 0.014012 0.40939501
1.212043 0.016047999 0.40529501
1.215569 0.015096 0.40906101
1.18071 0.024909999 0.40607399
1.185246 0.022924 0.40660501
1.206722 0.023041001 0.40777299
1.20302 0.025764 0.40588799
1.218822 0.027205 0.40991899
1.180855 0.032297999 0.406178
1.1883841 0.032267001 0.40833199
1.1770819 0.036573 0.40862501
1.1918989 0.039694 0.40780601
1.163901 0.042470001 0.40579
1.165562 0.040442999 0.40680701
1.1871279 0.040957998 0.408793
1.193655 0.042587999 0.40918499
1.1481681 0.046923 0.40852302
1.157992 0.047148 0.40974101
1.211773 0.046247002 0.40858099
1.147792 0.052198999 0.40822899
1.160252 0.050365999 0.406414
1.1314631 0.055686001 0.40557399
1.1529024 0.056638334 0.40672037
1.161348 0.055364002 0.406131
1.13437 0.064839996 0.407336
1.147092 0.060031001 0.405505
1.1627671 0.060458999 0.40661299
1.1789615 0.062144499 0.40875798
1.180401 0.062615 0.40744799
1.167189 0.067805998 0.40884599
1.1190799 0.071647003 0.406176
1.123536 0.073825002 0.406196
1.133067 0.074547999 0.40738001
1.135092 0.074504003 0.40597701
1.143458 0.073152997 0.40790299
1.113205 0.077160001 0.40836099
1.126786 0.077454999 0.409587
1.1471956 0.0775875 0.40809202
1.12809 0.083852999 0.40940899
1.136236 0.084914997 0.40895301
1.106721 0.087738 0.40893799
1.1360019 0.086297996 0.40699801
1.155735 0.085537001 0.406418
1.115985 0.091288 0.4093
1.100423 0.098807 0.40564999
1.118382 0.097564995 0.4073225
1.137208 0.096671 0.40820399
1.093228 0.109683 0.407116
1.098542 0.107251 0.40934199
1.1194251 0.108362 0.40973201
1.129475 0.109993 0.40889099
1.131837 0.105473 0.40591201
1.097676 0.11314 0.40718201
1.105667 0.113751 0.40891901
1.112077 0.114062 0.40792099
1.118333 0.11251 0.40936401
1.068727 0.124407 0.40972301
1.105553 0.121797 0.40522301
1.07189 0.127151 0.406445
1.075696 0.126873 0.406111
1.081311 0.129618 0.406829
1.0874286 0.12676567 0.40706268
1.090947 0.12761401 0.40744999
1.11201 0.127819 0.40691599
1.064178 0.132217 0.40736499
1.083421 0.13041 0.40991199
1.094101 0.13142499 0.406836
1.095116 0.13004801 0.40657499
1.1098911 0.130796 0.40889001
1.0808409 0.138835 0.40829799
1.060673 0.144131 0.40840501
1.07068 0.142031 0.40983
1.091886 0.142629 0.406849
1.059552 0.145193 0.40507901
1.066306 0.14810701 0.405507
1.076908 0.148275 0.408768
1.086888 0.14838 0.40971801
1.052964 0.154532 0.40974501
1.080735 0.15172499 0.40918201
1.049816 0.15780701 0.40503901
1.054756 0.157961 0.40843099
1.060581 0.157768 0.40890199
1.086771 0.1575705 0.40945899
1.039694 0.161332 0.405673
1.053491 0.162947 0.40500599
1.072649 0.160065 0.40920001
1.257387 0.0078950003 0.41138601
1.2215695 0.0138295 0.411762
1.1928149 0.017782001 0.41111901
1.1965359 0.018440001 0.411807
1.213432 0.016803 0.41327399
1.185456 0.021499 0.41100401
1.2078055 0.0227715 0.414022
1.2147731 0.021796999 0.414646
1.216573 0.021732001 0.413223
1.22269 0.020514 0.411937
1.181483 0.029350001 0.411659
1.2072071 0.028506666 0.41473636
1.179848 0.032857999 0.41117999
1.178057 0.035802998 0.41290051
1.1870825 0.03932 0.41213602
1.1943851 0.043053001 0.41349599
1.173494 0.045614999 0.414298
1.178754 0.046372 0.41435
1.184055 0.045561001 0.41097701
1.156507 0.054575 0.410732
1.1438529 0.059012 0.41473201
1.185865 0.055580001 0.41439301
1.194216 0.058933001 0.414251
1.1434386 0.063129999 0.410945
1.146839 0.060293 0.410712
1.137089 0.069793999 0.41353101
1.149147 0.068602003 0.412202
1.168784 0.065136001 0.41093701
1.170143 0.067371003 0.41219699
1.140345 0.073018998 0.41019401
