# .PCD v0.7 - Point Cloud Data file format
VERSION 0.7
FIELDS x y z
SIZE 4 4 4
TYPE F F F
COUNT 1 1 1
WIDTH 543
HEIGHT 1
VIEWPOINT 0 0 0 1 0 0 0
POINTS 543
DATA ascii
-0.162902 -0.58530599 2.575294
-0.164727 -0.58353102 2.5792761
-0.15701801 -0.57143998 2.5750279
-0.137977 -0.56652099 2.5759261
-0.13384999 -0.56087601 2.5771201
-0.141111 -0.56727099 2.580044
-0.115472 -0.55833697 2.584794
-0.105281 -0.592839 2.593518
-0.157675 -0.55787402 2.5941269
-0.14478099 -0.59694803 2.5974269
-0.12503099 -0.59489399 2.5954731
-0.141238 -0.58545798 2.599777
-0.14676499 -0.57710999 2.598233
-0.127014 -0.57505602 2.5962789
-0.141664 -0.55359399 2.599319
-0.16651499 -0.57916498 2.600188
-0.15071499 -0.573717 2.602016
-0.14481901 -0.56814599 2.6032801
-0.116425 -0.566486 2.6029971
-0.14157 -0.58424503 2.6081519
-0.122812 -0.58305299 2.6075311
-0.15068799 -0.57848501 2.6083
-0.102566 -0.616633 2.6128321
-0.082663 -0.61456299 2.610862
-0.133982 -0.60542297 2.6133111
-0.19570699 -0.59480101 2.6122601
-0.084661998 -0.59457302 2.611675
-0.16045199 -0.58787 2.612216
-0.135928 -0.55347002 2.614712
-0.158335 -0.54413497 2.613493
-0.178216 -0.60107601 2.615747
-0.131429 -0.58675998 2.6159379
-0.181959 -0.583341 2.6189251
-0.163865 -0.57048601 2.618777
-0.14222001 -0.53974003 2.6188619
-0.105091 -0.52804601 2.6189661
-0.14984 -0.57652301 2.6221421
-0.152851 -0.55771101 2.6246631
-0.114387 -0.55552298 2.623378
-0.17040201 -0.550345 2.623491
-0.094952002 -0.55218101 2.620342
-0.13828 -0.53927201 2.6243081
-0.125891 -0.53528798 2.6243119
-0.117581 -0.535864 2.6245739
-0.098145999 -0.53252202 2.6215379
-0.205717 -0.62843603 2.629477
-0.173262 -0.58789301 2.6251359
-0.167585 -0.58021897 2.6285269
-0.163624 -0.58102399 2.62854
-0.155968 -0.57549798 2.6296711
-0.146045 -0.57963198 2.626353
-0.14388099 -0.567958 2.6298151
-0.153257 -0.562208 2.6294501
-0.13055401 -0.51941401 2.6285429
-0.20946001 -0.61070001 2.6326549
-0.157244 -0.58378202 2.6305799
-0.172692 -0.56555003 2.6324861
-0.161878 -0.56801099 2.634784
-0.170596 -0.56140703 2.631047
-0.116243 -0.517304 2.6330431
-0.18755101 -0.626441 2.639168
-0.210457 -0.601861 2.638263
-0.189932 -0.57843399 2.6393099
-0.127344 -0.57715398 2.6351941
-0.13235199 -0.57032198 2.6377151
-0.131088 -0.55935198 2.638741
-0.13678201 -0.53780699 2.636117
-0.191321 -0.60857803 2.6423681
-0.14846499 -0.59273702 2.640929
-0.174023 -0.57426202 2.644846
-0.183127 -0.56800801 2.640255
-0.167688 -0.56406301 2.6412461
-0.152628 -0.54268801 2.6446919
-0.19509099 -0.590716 2.6455691
-0.090961002 -0.56890702 2.64942
-0.146395 -0.564394 2.6478951
-0.133063 -0.56212097 2.6466539
-0.178657 -0.558492 2.64905
-0.177954 -0.54557198 2.6460299
-0.172281 -0.54900402 2.645577
-0.157407 -0.54436702 2.649976
-0.210824 -0.59556198 2.654083
-0.18381301 -0.58665198 2.654161
-0.19529 -0.58182299 2.652518
-0.162063 -0.57467598 2.6539719
-0.16467699 -0.56555903 2.650043
-0.15601 -0.560435 2.6506841
-0.146065 -0.55260998 2.6517889
-0.172004 -0.545026 2.652807
-0.155866 -0.54567897 2.650919
-0.142335 -0.539675 2.6544609
-0.115925 -0.53877503 2.6512599
-0.13865 -0.527466 2.6544931
-0.098283999 -0.52797103 2.6510849
-0.186847 -0.56770098 2.6566999
-0.16170201 -0.56943703 2.657048
-0.183116 -0.55531698 2.6560349
-0.13742 -0.55782598 2.658942
-0.133288 -0.553635 2.6598289
-0.117053 -0.53104901 2.6565909
-0.102517 -0.514153 2.6592319
-0.226557 -0.60040802 2.6625979
-0.176422 -0.580001 2.663944
-0.149523 -0.57621998 2.6630681
-0.145952 -0.56308103 2.6600239
-0.165445 -0.55163503 2.6605949
-0.114741 -0.53735602 2.6646609
-0.135112 -0.52592403 2.6640511
-0.100534 -0.51790798 2.6640091
-0.168293 -0.57929897 2.6685741
-0.177009 -0.57448 2.6662011
-0.18075199 -0.55667698 2.6697481
-0.15205701 -0.55671299 2.6653359
-0.108467 -0.55914098 2.6660981
-0.19099499 -0.55497199 2.6654119
-0.14675801 -0.54893202 2.669697
-0.135536 -0.545461 2.6684101
-0.152364 -0.54374301 2.665875
-0.109971 -0.52721298 2.6658189
-0.282998 -0.64364499 2.6719689
-0.18452799 -0.60188401 2.6718121
-0.187062 -0.58237702 2.6740799
-0.196813 -0.56594199 2.674638
-0.18701699 -0.566746 2.6749561
-0.189399 -0.55282801 2.6729791
-0.14524899 -0.55435401 2.672157
-0.165737 -0.54987699 2.6719091
-0.147232 -0.53640002 2.674099
-0.093904004 -0.52872503 2.6736391
-0.116062 -0.52302301 2.673295
-0.210254 -0.58888799 2.679177
-0.200647 -0.57535499 2.6788001
-0.192316 -0.57952201 2.675354
-0.204391 -0.56070101 2.6751721
-0.160772 -0.55951601 2.6786709
-0.15669499 -0.54783303 2.679347
-0.13466901 -0.52405602 2.676631
-0.237238 -0.60967302 2.6808829
-0.227734 -0.60236198 2.681397
-0.20028199 -0.59318399 2.6801989
-0.22805899 -0.58508199 2.684345
-0.147191 -0.57172102 2.6816089
-0.107694 -0.55800498 2.6803441
-0.16893101 -0.53720999 2.6800289
-0.134239 -0.53669202 2.6822829
-0.15383001 -0.53244501 2.684763
-0.28152099 -0.63941002 2.686398
-0.23512501 -0.61234599 2.6889911
-0.22717001 -0.59333199 2.6867931
-0.208313 -0.57807797 2.6876571
-0.19383299 -0.577829 2.685936
-0.199242 -0.57303798 2.6850851
-0.18237101 -0.57284999 2.6872561
-0.17781401 -0.56399298 2.6863439
-0.124787 -0.55359298 2.6886179
-0.15241601 -0.54747099 2.689992
-0.153152 -0.53979403 2.6878309
-0.118333 -0.539653 2.6890919
-0.12773199 -0.534208 2.6858101
-0.26329601 -0.645827 2.691211
-0.21918599 -0.607409 2.6901131
-0.193699 -0.59553701 2.6931181
-0.24390499 -0.58996201 2.69292
-0.209793 -0.58274502 2.6945729
-0.16951101 -0.56255299 2.6910939
-0.179904 -0.543603 2.6906199
-0.112187 -0.54112399 2.692641
-0.066988997 -0.544227 2.6939089
-0.29661301 -0.644382 2.6954229
-0.20223001 -0.60807002 2.6976199
-0.179809 -0.584683 2.6991949
-0.211468 -0.57932901 2.6952131
-0.18842401 -0.56565499 2.6966419
-0.19300701 -0.56416798 2.6973529
-0.163726 -0.56106699 2.6969979
-0.17904501 -0.55716199 2.699461
-0.17456201 -0.55549902 2.6954761
-0.186865 -0.55378199 2.69874
-0.133531 -0.54473299 2.6986649
-0.066836998 -0.54421502 2.6988029
-0.065739997 -0.53935301 2.6999719
-0.208683 -0.60054499 2.7025559
-0.23823699 -0.59464997 2.7028141
-0.201932 -0.57679898 2.702692
-0.211896 -0.57294601 2.701689
-0.201011 -0.56018001 2.7002699
-0.18319599 -0.56480402 2.7011881
-0.148848 -0.55484998 2.703913
-0.28283399 -0.62469298 2.708148
-0.215361 -0.61203498 2.7055831
-0.206332 -0.602512 2.708333
-0.251531 -0.59599501 2.7094271
-0.216998 -0.59981602 2.7066441
-0.212339 -0.58286703 2.7061319
-0.20017999 -0.55913198 2.705471
-0.166541 -0.55588001 2.7063539
-0.104007 -0.55281699 2.7053161
-0.091636002 -0.53978503 2.7063351
-0.26587799 -0.629547 2.7135921
-0.235144 -0.60359502 2.713172
-0.22007 -0.592255 2.712218
-0.22893 -0.58402097 2.7112031
-0.286414 -0.63168299 2.7156241
-0.298033 -0.62970001 2.717237
-0.26510701 -0.62253702 2.7175729
-0.25904301 -0.61801702 2.715286
-0.25329 -0.60737503 2.7197011
-0.26367599 -0.60224599 2.7194891
-0.257687 -0.59963101 2.715955
-0.227323 -0.58787501 2.71557
-0.245979 -0.58189899 2.7170351
-0.186958 -0.551745 2.7167389
-0.31175199 -0.61555099 2.724875
-0.271411 -0.61777502 2.7221079
-0.20372 -0.59141499 2.720531
-0.26302001 -0.58637601 2.7247069
-0.201634 -0.58983302 2.7218089
-0.206294 -0.57160699 2.7228341
-0.27504101 -0.60022098 2.7256589
-0.21832401 -0.59544897 2.7286439
-0.218787 -0.58335799 2.7295151
-0.23925699 -0.579404 2.725009
-0.202115 -0.57164901 2.7264299
-0.25363401 -0.61557001 2.73087
-0.25729001 -0.59789199 2.734446
-0.23794501 -0.59921497 2.732867
-0.243349 -0.57696903 2.7342601
-0.27206901 -0.624111 2.7358551
-0.255573 -0.60017198 2.7396901
-0.26503301 -0.58862197 2.739959
-0.23707099 -0.58716702 2.736094
-0.23709901 -0.57813102 2.736058
-0.23927601 -0.59553802 2.743422
-0.224929 -0.57453603 2.744983
-0.20240501 -0.57432997 2.7444561
-0.32520801 -0.65245903 2.745362
-0.311028 -0.63766402 2.7450321
-0.28360099 -0.62558597 2.7497461
-0.233363 -0.61629301 2.7471581
-0.230948 -0.59303701 2.7466061
-0.251748 -0.58848101 2.7485991
-0.249405 -0.58446401 2.746253
-0.20952301 -0.57013297 2.746531
-0.18992101 -0.56704599 2.7470701
-0.210821 -0.632658 2.75477
-0.287258 -0.60790801 2.7533219
-0.190678 -0.58116102 2.7536509
-0.221332 -0.57861203 2.752142
-0.218045 -0.57948202 2.753809
-0.26026201 -0.60391301 2.7583671
-0.295881 -0.59808302 2.7599821
-0.23490199 -0.58511299 2.7561591
-0.224722 -0.57521302 2.756104
-0.20623399 -0.57207 2.755898
-0.27946901 -0.607063 2.7640009
-0.254325 -0.59385502 2.7633779
-0.25731701 -0.58451098 2.7625101
-0.34578601 -0.66322798 2.765815
-0.327124 -0.63607597 2.768959
-0.296083 -0.63017499 2.7673149
-0.279273 -0.61540902 2.768235
-0.210567 -0.59318602 2.765394
-0.223674 -0.58541399 2.769417
-0.23992001 -0.580293 2.765677
-0.36883199 -0.67935199 2.7702041
-0.25130701 -0.60019302 2.7717581
-0.28307 -0.59735 2.7718339
-0.27734399 -0.59633797 2.772444
-0.187608 -0.59148902 2.7737329
-0.16656999 -0.58930099 2.771652
-0.33190399 -0.65643799 2.776264
-0.36068401 -0.64761502 2.7783401
-0.34765199 -0.64026999 2.7784419
-0.294801 -0.620525 2.7775199
-0.26114199 -0.61312902 2.7782421
-0.28632301 -0.60346401 2.77684
-0.24085499 -0.58568001 2.7782259
-0.212147 -0.58665001 2.7781961
-0.35111099 -0.65958798 2.781898
-0.34385699 -0.630391 2.7800479
-0.276362 -0.63037097 2.783077
-0.27490601 -0.611871 2.7823169
-0.25358501 -0.61058801 2.7806029
-0.270731 -0.59937799 2.7834251
-0.26496699 -0.59493899 2.781867
-0.25478899 -0.58921701 2.781625
-0.38382 -0.68067902 2.787251
-0.34817699 -0.64813298 2.788619
-0.31032899 -0.62563998 2.7868061
-0.26757899 -0.61069 2.7878931
-0.29862899 -0.609797 2.7870359
-0.37111601 -0.66303998 2.794127
-0.35009101 -0.64122403 2.7934999
-0.32567799 -0.628887 2.79266
-0.29833201 -0.613428 2.791095
-0.27184501 -0.60064602 2.7910759
-0.25910801 -0.59937298 2.7939999
-0.36669499 -0.6789 2.7972591
-0.36425301 -0.65308499 2.797318
-0.33052501 -0.64622098 2.7997401
-0.31866652 -0.61705899 2.7974186
-0.31093499 -0.61612999 2.797231
-0.290411 -0.60451299 2.797756
-0.37046501 -0.66096997 2.8008311
-0.33443299 -0.63989598 2.800113
-0.34884799 -0.62792999 2.8032751
-0.270237 -0.625655 2.804162
-0.249026 -0.62344903 2.802063
-0.425587 -0.68780798 2.809001
-0.389927 -0.67734998 2.8064251
-0.33903101 -0.64179999 2.8097501
-0.333222 -0.62332201 2.8079579
-0.27728999 -0.61722797 2.8069501
-0.31188801 -0.61039603 2.8099251
-0.31080601 -0.608302 2.8086469
-0.27800199 -0.63724703 2.813571
-0.29738399 -0.62108499 2.811275
-0.40477699 -0.70444202 2.8168769
-0.35156301 -0.667624 2.8157909
-0.37344101 -0.64646202 2.8184681
-0.323704 -0.63373899 2.8156531
-0.34680101 -0.62912899 2.8178511
-0.327402 -0.62870401 2.819489
-0.33070299 -0.62404901 2.81618
-0.281939 -0.61858898 2.816915
-0.32823199 -0.61287999 2.816493
-0.408629 -0.68619102 2.820148
-0.40924901 -0.67271298 2.8204889
-0.41248 -0.66794002 2.8234179
-0.345658 -0.61745799 2.8243389
-0.293024 -0.61487699 2.8234279
-0.27232099 -0.61131698 2.820194
-0.42085299 -0.70939398 2.825577
-0.38754001 -0.70294201 2.8282051
-0.428606 -0.675888 2.8261671
-0.353879 -0.64658099 2.8277791
-0.38298601 -0.64279902 2.829325
-0.33934399 -0.63889098 2.8250051
-0.323883 -0.63516998 2.8299971
-0.36037999 -0.63493598 2.827744
-0.29222101 -0.632236 2.829638
-0.43692899 -0.71434599 2.8342769
-0.41095701 -0.68525898 2.833107
-0.39142001 -0.68455702 2.8315001
-0.39540249 -0.66662651 2.8336785
-0.39435801 -0.66088599 2.8308401
-0.37338901 -0.64978099 2.833503
-0.31086999 -0.64737099 2.8313589
-0.349145 -0.63581401 2.8320341
-0.31480801 -0.62871301 2.834702
-0.341645 -0.624861 2.834501
-0.29829001 -0.62225097 2.8310161
-0.440781 -0.69609398 2.837548
-0.41092101 -0.69063002 2.836606
-0.40300399 -0.693959 2.8366129
-0.43105099 -0.689116 2.8374319
-0.425901 -0.67506701 2.8362379
-0.404228 -0.67223197 2.837652
-0.288578 -0.664204 2.8396561
-0.39918 -0.64778697 2.838088
-0.36209801 -0.64789402 2.8352051
-0.35779801 -0.63886398 2.838635
-0.31783801 -0.62861103 2.8382609
-0.45300499 -0.71929699 2.842977
-0.45114401 -0.69297302 2.8417561
-0.39683899 -0.673549 2.842833
-0.29254499 -0.64540601 2.843024
-0.365459 -0.64083898 2.840863
-0.338094 -0.63249999 2.8426199
-0.331242 -0.633775 2.843596
-0.35408601 -0.62918901 2.841557
-0.45685601 -0.70104599 2.846247
-0.46070799 -0.68279499 2.8495181
-0.376598 -0.659886 2.8497159
-0.340251 -0.63677299 2.848495
-0.46908101 -0.72424901 2.8516769
-0.45704699 -0.721205 2.8515699
-0.43510199 -0.69958401 2.851105
-0.413342 -0.69973999 2.8500371
-0.392373 -0.69042897 2.851609
-0.42768699 -0.676148 2.8523209
-0.380014 -0.64686197 2.850193
-0.35302499 -0.64715302 2.8543839
-0.47386 -0.71351302 2.8594999
-0.474235 -0.70761502 2.8564539
-0.47778901 -0.68869698 2.8596001
-0.41559601 -0.66873401 2.8579841
-0.39872399 -0.65075898 2.856925
-0.37358299 -0.65427297 2.8583441
-0.35271001 -0.650684 2.855083
-0.37162399 -0.64358002 2.8557689
-0.314574 -0.63893002 2.855551
-0.44388101 -0.68113601 2.8610849
-0.43177 -0.678913 2.8633881
-0.39866999 -0.669563 2.8632081
-0.42921001 -0.65940797 2.860399
-0.311813 -0.65508699 2.861275
-0.38555399 -0.65408999 2.8610899
-0.36877999 -0.65234298 2.8638051
-0.48060101 -0.721856 2.869983
-0.47837999 -0.69651997 2.8653619
-0.446282 -0.68973601 2.866775
-0.38068199 -0.67585599 2.869576
-0.37086701 -0.64700598 2.86778
-0.493797 -0.701599 2.8745799
-0.401914 -0.68714797 2.8733261
-0.44685999 -0.68395698 2.8728931
-0.38244 -0.67018402 2.873769
-0.37591699 -0.66495699 2.8724251
-0.411403 -0.65810502 2.873836
-0.361619 -0.64786798 2.87466
-0.482214 -0.72678602 2.876781
-0.47233501 -0.71230799 2.8756671
-0.47626799 -0.69111198 2.878612
-0.46180999 -0.69485199 2.87606
-0.43795201 -0.68317902 2.875844
-0.405846 -0.66925102 2.8751271
-0.371528 -0.65886998 2.8763051
-0.37562999 -0.65213501 2.8795111
-0.49982399 -0.71952701 2.8836
-0.455883 -0.69755697 2.8836
-0.41444901 -0.67808598 2.883074
-0.36495101 -0.66829503 2.8838921
-0.39267749 -0.66134149 2.8829041
-0.383012 -0.652358 2.8842721
-0.543419 -0.72578901 2.887603
-0.41781399 -0.70595402 2.8893239
-0.41992399 -0.69847 2.8887351
-0.43330601 -0.68201399 2.889858
-0.43718299 -0.67671698 2.8856101
-0.42210799 -0.67662698 2.889622
-0.41177201 -0.66598803 2.8866761
-0.409408 -0.66039002 2.8874049
-0.47092199 -0.72625798 2.890219
-0.50918102 -0.72041798 2.89329
-0.50463498 -0.71381301 2.8920009
-0.47447401 -0.70540798 2.8923099
-0.35617301 -0.66505802 2.8914621
-0.413528 -0.66350597 2.8901329
-0.38277501 -0.66077 2.8937221
-0.37244299 -0.662736 2.890357
-0.49433401 -0.73638898 2.8965559
-0.50472897 -0.729361 2.896456
-0.494124 -0.71423501 2.896791
-0.427448 -0.692716 2.8975611
-0.45216301 -0.68594199 2.8966429
-0.464468 -0.68010998 2.899826
-0.38701701 -0.67503703 2.899214
-0.40508199 -0.67077398 2.897974
-0.43335101 -0.66675699 2.8959489
-0.52660799 -0.72499597 2.9011359
-0.52096897 -0.72446001 2.901608
-0.46764401 -0.71446401 2.9027891
-0.46335801 -0.71062899 2.9008529
-0.43132001 -0.67444903 2.900007
-0.398646 -0.66599798 2.903213
-0.504071 -0.70348299 2.9080999
-0.48191401 -0.70348299 2.9080999
-0.43759999 -0.70348299 2.9080999
-0.48010799 -0.68526298 2.909178
-0.415443 -0.68132597 2.9080999
-0.4321 -0.66747302 2.9063489
-0.46271601 -0.67427099 2.914746
-0.44374099 -0.70583802 2.9155819
-0.45734301 -0.69898498 2.918025
-0.47938499 -0.67950398 2.91522
-0.43287399 -0.67344397 2.915309
-0.49629799 -0.72775 2.9233489
-0.52711302 -0.72421801 2.9202349
-0.49671799 -0.713745 2.9203711
-0.430859 -0.67624497 2.9226091
-0.517519 -0.73140001 2.9266651
-0.48900601 -0.71620798 2.9268889
-0.530707 -0.70959902 2.925981
-0.49164701 -0.703053 2.9291911
-0.47135299 -0.69786203 2.9284711
-0.46649599 -0.694031 2.9264121
-0.54826599 -0.71421099 2.933887
-0.495848 -0.704023 2.932056
-0.491337 -0.70113999 2.934334
-0.490666 -0.697586 2.9329259
-0.48604 -0.68716002 2.9330001
-0.562217 -0.73803002 2.9385979
-0.515118 -0.71571398 2.939225
-0.49258399 -0.716259 2.9392591
-0.42443901 -0.69536799 2.939853
-0.49482 -0.69386399 2.9391739
-0.44697201 -0.69482201 2.9398191
-0.56582499 -0.71882403 2.941792
-0.46796501 -0.713328 2.942868
-0.51354098 -0.70867097 2.940022
-0.51131999 -0.704418 2.940196
-0.45708799 -0.69580102 2.9403541
-0.532103 -0.74244797 2.9485321
-0.54858899 -0.73174202 2.949506
-0.51933098 -0.722224 2.9489191
-0.51220399 -0.71793002 2.9472461
-0.53130299 -0.70769501 2.946059
-0.479844 -0.70414901 2.9473181
-0.457306 -0.70436502 2.9475
-0.450955 -0.69566399 2.945322
-0.506432 -0.707358 2.951164
-0.48389801 -0.70765698 2.9507599
-0.56857198 -0.73501903 2.955369
-0.56346399 -0.73356903 2.9575789
-0.50382102 -0.73050201 2.95614
-0.58247 -0.73752803 2.964417
-0.533041 -0.71654201 2.962956
-0.510625 -0.70541799 2.962853
-0.49996099 -0.732871 2.967623
-0.52653098 -0.72971702 2.967025
-0.529782 -0.70940799 2.9697461
-0.52989399 -0.75526398 2.9721749
-0.57536399 -0.75482899 2.9718089
-0.53693497 -0.74070102 2.9740601
-0.52967799 -0.73253 2.9724159
-0.49261299 -0.720963 2.9706969
-0.50672698 -0.71001297 2.9728401
-0.58902103 -0.749264 2.9794841
-0.54395002 -0.74521703 2.979737
-0.52138102 -0.72523898 2.9753361
-0.54090202 -0.72190398 2.9774289
-0.55299097 -0.71515298 2.9758191
-0.52591503 -0.719675 2.977694
-0.56273502 -0.76736599 2.9842
-0.56325698 -0.73486501 2.98246
-0.54749697 -0.723387 2.981065
-0.58711398 -0.75264102 2.98648
-0.557459 -0.72700399 2.9863889
-0.55549598 -0.72453099 2.9926419
-0.52417201 -0.72048801 2.990298
-0.50252199 -0.718301 2.9920399
-0.59942502 -0.75533098 2.9991951
-0.54019397 -0.731062 3.001195
-0.58985698 -0.76827103 3.0070441
-0.56838602 -0.75417 3.00863
-0.58681399 -0.74366701 3.0120239
-0.60792398 -0.74771899 3.016567
-0.60486603 -0.749928 3.0182619
-0.57421798 -0.73590302 3.017381
-0.575185 -0.75406802 3.020329
-0.54820502 -0.74209201 3.0213499
-0.59467 -0.751701 3.034215
