# .PCD v0.7 - Point Cloud Data file format
VERSION 0.7
FIELDS x y z
SIZE 4 4 4
TYPE F F F
COUNT 1 1 1
WIDTH 1559
HEIGHT 1
VIEWPOINT 0 0 0 1 0 0 0
POINTS 1559
DATA ascii
0.637043 -0.59100699 1.783748
0.643731 -0.59285802 1.780725
0.64747399 -0.594881 1.780318
0.65619749 -0.59334648 1.7810349
0.66123044 -0.5919385 1.7827129
0.67220902 -0.59055299 1.784325
0.61861002 -0.58595902 1.784308
0.63358247 -0.58733201 1.7846634
0.64011699 -0.58645898 1.780416
0.64593101 -0.58600402 1.78213
0.65179199 -0.58604848 1.782634
0.66781855 -0.58735251 1.7816739
0.70474702 -0.58689302 1.782078
0.70846599 -0.58811402 1.78052
0.64570653 -0.58382654 1.7840195
0.65394902 -0.58212799 1.781767
0.66585201 -0.58419102 1.782671
0.68006599 -0.581747 1.7804511
0.6574825 -0.57849753 1.782598
0.67254198 -0.57597202 1.780171
0.70308501 -0.579822 1.780018
0.64044797 -0.57279301 1.780714
0.65990603 -0.57043803 1.783103
0.66839898 -0.57486099 1.7821389
0.67634702 -0.571145 1.781184
0.68405998 -0.57244802 1.781217
0.68689603 -0.570692 1.780035
0.70264649 -0.57164252 1.7818495
0.66203249 -0.56781501 1.7838404
0.67773002 -0.56737 1.781325
0.68791598 -0.56629503 1.7818609
0.69745302 -0.56720197 1.781937
0.65324199 -0.563245 1.783487
0.66077298 -0.56338102 1.780972
0.67417502 -0.56145698 1.78023
0.68301553 -0.56121552 1.782984
0.69721448 -0.56101602 1.7816136
0.64607102 -0.559017 1.784815
0.65444797 -0.559457 1.781033
0.66198802 -0.558155 1.780059
0.66120499 -0.55442601 1.780708
0.67212534 -0.55252999 1.7815176
0.6462 -0.54541701 1.784959
0.654778 -0.54579002 1.7813309
0.66600132 -0.54595131 1.780972
0.67164367 -0.54685467 1.7838407
0.682118 -0.54645199 1.781373
0.67578399 -0.54483598 1.783291
0.73839003 -0.64676601 1.788806
0.637959 -0.64025003 1.787943
0.65092897 -0.64189303 1.788514
0.63615501 -0.63948399 1.788398
0.64093 -0.63919502 1.787257
0.73131502 -0.63603997 1.785303
0.62425703 -0.63218403 1.785421
0.63022 -0.63465601 1.786708
0.63641298 -0.63168198 1.7871211
0.72849202 -0.63140702 1.788959
0.733913 -0.63026899 1.78782
0.63578099 -0.62540901 1.78968
0.64158899 -0.62519199 1.789377
0.64727598 -0.62686902 1.785135
0.72487301 -0.62522697 1.7868969
0.62450498 -0.62352198 1.7867399
0.633385 -0.62152898 1.785533
0.64203954 -0.6206255 1.786996
0.66277999 -0.623788 1.785406
0.642097 -0.61783499 1.785363
0.71526402 -0.61809099 1.786599
0.72618049 -0.61796802 1.789465
0.63455653 -0.61347252 1.787843
0.63872504 -0.61318552 1.788723
0.64279503 -0.61217803 1.789361
0.72405702 -0.61075503 1.787589
0.62826151 -0.60571754 1.787776
0.6361385 -0.60562396 1.7883871
0.64344198 -0.606637 1.788336
0.64801598 -0.60802001 1.787703
0.66035801 -0.608657 1.787433
0.71457899 -0.60578197 1.786109
0.72564399 -0.60521698 1.789685
0.62944901 -0.60288799 1.789539
0.63976097 -0.60345697 1.786237
0.648709 -0.60002297 1.789153
0.65176398 -0.60181302 1.787511
0.71115249 -0.60132748 1.7883861
0.62910599 -0.59509999 1.7853
0.63049102 -0.59903097 1.786828
0.66131502 -0.59919399 1.785803
0.71071899 -0.59509999 1.7853
0.63573551 -0.5924775 1.7883689
0.64672452 -0.5930075 1.788586
0.65793598 -0.59352601 1.789461
0.62801701 -0.58939451 1.7895335
0.64124298 -0.58877504 1.7875165
0.66858798 -0.58970201 1.78804
0.71381903 -0.58687103 1.785074
0.62910599 -0.58149803 1.7853
0.63909203 -0.58007503 1.78688
0.64078999 -0.580567 1.785971
0.65725398 -0.58298302 1.7877754
0.66562498 -0.58194703 1.7854429
0.67505097 -0.580594 1.78558
0.71071899 -0.58149803 1.7853
0.63535601 -0.57949197 1.787838
0.652062 -0.578035 1.785195
0.65807301 -0.57578999 1.7874629
0.66274202 -0.57533503 1.788547
0.66978598 -0.57542199 1.786353
0.67190599 -0.57955599 1.78659
0.639961 -0.574633 1.78694
0.64267403 -0.57051402 1.785216
0.64591002 -0.57225603 1.789699
0.66321802 -0.57349598 1.786913
0.67742997 -0.57126999 1.786814
0.61550301 -0.567895 1.7853
0.64377451 -0.5683915 1.7853119
0.64924502 -0.56792104 1.7879364
0.65572047 -0.56798351 1.7874351
0.661856 -0.56672502 1.789205
0.670461 -0.56585598 1.789893
0.68366301 -0.56787002 1.785596
0.69760847 -0.56728947 1.787972
0.70462 -0.56659299 1.786803
0.64885801 -0.56254399 1.788329
0.65404201 -0.56002301 1.78652
0.65746051 -0.56180251 1.7883425
0.663378 -0.56237698 1.7884001
0.66759199 -0.56178546 1.7875166
0.67238599 -0.56237203 1.786666
0.64915103 -0.55997598 1.785658
0.659648 -0.55718702 1.786552
0.67030698 -0.55840099 1.7854871
0.69128603 -0.557042 1.785569
0.65581065 -0.55290395 1.786881
0.66336101 -0.55222702 1.787746
0.667539 -0.55227947 1.787873
0.69431901 -0.55350602 1.787118
0.70480698 -0.55277699 1.787004
0.71576202 -0.55013901 1.78872
0.66812301 -0.54541302 1.786099
0.671875 -0.54682302 1.786653
0.68243003 -0.54513502 1.785
0.74881798 -0.66728401 1.794234
0.74429601 -0.65855002 1.793969
0.74180901 -0.65292901 1.7947
0.62851101 -0.64154202 1.7924989
0.63665599 -0.64486599 1.79365
0.64455599 -0.63598502 1.790606
0.74180901 -0.63925499 1.7947
0.61398798 -0.63023603 1.7903889
0.635414 -0.633286 1.792335
0.62900198 -0.62518001 1.7902091
0.648507 -0.62676102 1.790542
0.63639498 -0.62463599 1.791518
0.63308048 -0.61811304 1.7930379
0.62876701 -0.61193198 1.791603
0.640338 -0.61031199 1.791503
0.64608502 -0.61163002 1.792569
0.723876 -0.61092502 1.794337
0.62297398 -0.60579002 1.790296
0.64561749 -0.60649049 1.7928956
0.61394203 -0.60025102 1.792678
0.731143 -0.60372901 1.794438
0.62994802 -0.59987998 1.79239
0.63055098 -0.59669697 1.790737
0.63789302 -0.59626698 1.7938139
0.64289951 -0.59720701 1.792464
0.64998102 -0.59606099 1.792372
0.72813499 -0.59823298 1.7947
0.62515801 -0.59475797 1.792038
0.65164703 -0.59426701 1.7914346
0.657772 -0.59325498 1.792608
0.71637499 -0.59049797 1.790711
0.62146902 -0.58712202 1.794528
0.63556898 -0.58722401 1.793836
0.64709699 -0.58926702 1.793919
0.65330601 -0.58721501 1.794418
0.65628898 -0.58571398 1.791703
0.70866299 -0.58681297 1.7922029
0.63893199 -0.58242297 1.793466
0.64068598 -0.58149898 1.7936291
0.65182698 -0.58329552 1.790674
0.630337 -0.57712901 1.7911251
0.635692 -0.57546699 1.7939579
0.64366102 -0.57833898 1.791178
0.65557748 -0.57711351 1.7909
0.66387999 -0.57531101 1.7929879
0.71256602 -0.57740599 1.7902631
0.63241798 -0.57088602 1.7947
0.649791 -0.57321298 1.793535
0.655065 -0.570041 1.793537
0.664065 -0.57350397 1.79193
0.71446198 -0.57088602 1.7947
0.64253098 -0.565898 1.79275
0.66684997 -0.56599498 1.7925251
0.635822 -0.56179398 1.794103
0.64418697 -0.56200302 1.790459
0.645693 -0.560853 1.792835
0.65784502 -0.56178403 1.793458
0.701536 -0.56195199 1.793182
0.63566703 -0.55931699 1.790253
0.64431202 -0.55783898 1.794394
0.646092 -0.557212 1.7947
0.659392 -0.55749601 1.790846
0.66401201 -0.55920202 1.793234
0.666219 -0.55779803 1.794469
0.67302603 -0.55628002 1.79081
0.68062901 -0.55772299 1.794526
0.68802798 -0.55936003 1.79365
0.69050199 -0.55795997 1.791989
0.70631403 -0.559506 1.791158
0.65808803 -0.551503 1.792967
0.66189396 -0.55164599 1.7919791
0.66677999 -0.55133104 1.7935281
0.67632997 -0.55360699 1.793638
0.69277346 -0.55338097 1.7917595
0.65835702 -0.54989302 1.79466
0.699489 -0.549595 1.7908421
0.75119102 -0.66537702 1.795194
0.75099301 -0.661879 1.796394
0.63505799 -0.64516002 1.7965389
0.64198297 -0.64570498 1.795729
0.63687098 -0.64387798 1.799335
0.63310999 -0.638915 1.7996531
0.64417797 -0.637972 1.795862
0.62380302 -0.63131201 1.795023
0.63377303 -0.63471597 1.7955199
0.63742065 -0.63231564 1.7952245
0.63423401 -0.62973398 1.7956769
0.645441 -0.62603903 1.797434
0.735493 -0.62542999 1.795089
0.628304 -0.62234902 1.79562
0.632734 -0.62300497 1.79765
0.639548 -0.62235898 1.796177
0.71993798 -0.62330902 1.7963541
0.73604202 -0.62217802 1.798364
0.63221002 -0.61779398 1.795469
0.63599199 -0.61527902 1.79705
0.62778401 -0.61342502 1.797807
0.631836 -0.6123395 1.796741
0.6380595 -0.61183846 1.7970564
0.735681 -0.61154002 1.7952909
0.62718803 -0.60626298 1.79936
0.63028902 -0.60658199 1.7966599
0.62315953 -0.60235155 1.79704
0.62900603 -0.60230303 1.7986031
0.63403702 -0.60022998 1.7988
0.63660997 -0.60149997 1.795246
0.65067798 -0.60298598 1.797339
0.61843902 -0.59533697 1.796267
0.62475598 -0.596174 1.797482
0.63797998 -0.59708899 1.799246
0.72197998 -0.59746498 1.795741
0.64232999 -0.591631 1.797176
0.64613599 -0.59122699 1.798297
0.71889102 -0.59297401 1.798352
0.72450602 -0.59081501 1.799505
0.72981697 -0.59451002 1.799428
0.635782 -0.58718801 1.7977115
0.64374399 -0.58767998 1.795344
0.62494397 -0.58228397 1.797684
0.65090102 -0.58116698 1.798411
0.61545002 -0.57803601 1.79913
0.621696 -0.579135 1.795228
0.63315398 -0.57891965 1.7971133
0.64913702 -0.57952601 1.79591
0.65326399 -0.57847399 1.796859
0.66588598 -0.57721198 1.796379
0.72462702 -0.576626 1.799898
0.634978 -0.57255602 1.796631
0.636002 -0.57176298 1.799786
0.64829701 -0.57299352 1.7974745
0.65427399 -0.574714 1.795823
0.70536202 -0.57117403 1.795006
0.71316803 -0.57253897 1.796869
0.637375 -0.56775552 1.7971184
0.64451599 -0.56798446 1.7988214
0.649459 -0.56673998 1.798997
0.65101999 -0.56889403 1.79501
0.619968 -0.56421202 1.7998641
0.63173801 -0.56451899 1.799118
0.64399397 -0.56306601 1.7976021
0.65917099 -0.56092 1.797937
0.63416302 -0.55808401 1.797323
0.64794451 -0.55716598 1.7974989
0.65042651 -0.55738848 1.797837
0.66303998 -0.556346 1.795001
0.65293449 -0.552526 1.7966111
0.65713203 -0.55033201 1.795553
0.66208696 -0.5516265 1.798311
0.66585499 -0.553657 1.797371
0.75948203 -0.67013103 1.8042001
0.75213897 -0.65830803 1.8043635
0.62897497 -0.64541203 1.801931
0.64182699 -0.64518201 1.801743
0.74838901 -0.64825499 1.803611
0.63216501 -0.64396399 1.802341
0.639974 -0.643417 1.801083
0.63363498 -0.63890803 1.800945
0.63578802 -0.637667 1.803442
0.61529499 -0.63290697 1.801531
0.62678498 -0.630485 1.803678
0.63245845 -0.63261747 1.8029749
0.63709098 -0.63267499 1.8018039
0.63359398 -0.62829202 1.802441
0.63772297 -0.62694645 1.8034315
0.64159203 -0.62806398 1.8005691
0.745736 -0.62889302 1.8042001
0.61242801 -0.617643 1.804069
0.61753899 -0.617576 1.80284
0.621512 -0.61765403 1.801298
0.63266098 -0.61974901 1.800384
0.62416446 -0.61215848 1.8018656
0.62505901 -0.61300999 1.800081
0.63395798 -0.61407101 1.801865
0.63909 -0.61299503 1.80169
0.63708401 -0.60509801 1.804575
0.64941603 -0.60916299 1.800189
0.73074698 -0.60535097 1.800181
0.62459302 -0.60148698 1.804011
0.62514198 -0.60429198 1.803982
0.64339149 -0.600896 1.8023245
0.72363299 -0.60497999 1.803784
0.62361598 -0.59858298 1.800667
0.63322401 -0.5974685 1.801118
0.63784552 -0.598616 1.801971
0.64062703 -0.59571099 1.8012069
0.63159198 -0.593979 1.801816
0.64071399 -0.59259349 1.8020155
0.65088701 -0.59320301 1.804213
0.63411701 -0.58726001 1.800591
0.6473195 -0.58844 1.802945
0.73198998 -0.58765399 1.8042001
0.613904 -0.58488399 1.802237
0.62976903 -0.58389401 1.803161
0.63553101 -0.58371699 1.803273
0.65604299 -0.58143151 1.8042746
0.625359 -0.57712901 1.8040559
0.63836199 -0.57656646 1.803908
0.64242899 -0.57672101 1.800328
0.64744997 -0.577151 1.800586
0.72122151 -0.57912254 1.802827
0.64648998 -0.57287401 1.804423
0.66073102 -0.57112151 1.8010635
0.71206897 -0.57098901 1.800946
0.61713898 -0.56862998 1.801229
0.63509601 -0.566118 1.802353
0.64701498 -0.56565201 1.803196
0.65811402 -0.567469 1.8040841
0.71666998 -0.566553 1.80001
0.721681 -0.56552202 1.8042639
0.63968301 -0.56182599 1.8044651
0.64243102 -0.56332999 1.80286
0.64875603 -0.56369299 1.801111
0.65245348 -0.56106496 1.8033125
0.66148102 -0.562222 1.800375
0.66693997 -0.561939 1.801934
0.71195102 -0.56332999 1.8033791
0.718243 -0.56016099 1.8042001
0.6459927 -0.55647564 1.8019743
0.65840602 -0.55537701 1.8027951
0.68567801 -0.55770898 1.802366
0.71124798 -0.556436 1.8016419
1.373204 -0.73138201 1.806067
1.379594 -0.67762297 1.808646
0.75389898 -0.67074198 1.809557
0.75644302 -0.67230898 1.806273
0.756782 -0.66536802 1.806048
0.63896602 -0.65546697 1.806269
0.75488597 -0.65046 1.807205
0.75587499 -0.654176 1.80599
0.64200699 -0.647753 1.8069685
0.73470199 -0.64008999 1.809998
0.637061 -0.63317102 1.807987
0.64007097 -0.63348502 1.80987
0.62879848 -0.62733001 1.8063436
0.638421 -0.622464 1.809175
0.64100897 -0.62042803 1.8088861
0.74289298 -0.62246501 1.807933
0.62853301 -0.61920148 1.8074505
0.63219798 -0.61964399 1.807879
0.63695103 -0.61558902 1.806942
0.63137698 -0.61283946 1.8070765
0.63526702 -0.61121702 1.808695
0.644346 -0.61033201 1.809612
0.72316098 -0.61103302 1.808192
0.740641 -0.61073601 1.809178
0.61923498 -0.60144299 1.807561
0.62703902 -0.59711897 1.808652
0.63432503 -0.59515202 1.8075171
0.63628203 -0.597471 1.809146
0.72062302 -0.59613502 1.8096859
0.72693002 -0.59899497 1.805403
0.62670696 -0.59187698 1.807377
0.72048497 -0.59129602 1.805449
0.63413101 -0.58706802 1.805849
0.64118201 -0.58534902 1.809936
0.726089 -0.586559 1.8055331
0.63293666 -0.58237696 1.8068223
0.63583499 -0.58363402 1.807485
0.64262903 -0.58467001 1.807125
0.64739001 -0.58355403 1.807109
0.65434098 -0.58315301 1.805944
0.73407298 -0.583722 1.809374
0.62945497 -0.57757199 1.8067189
0.637218 -0.57726097 1.807155
0.64876997 -0.57614499 1.807665
0.62684453 -0.57187247 1.8084304
0.66141599 -0.57353002 1.80511
0.63319451 -0.567191 1.8079109
0.63718998 -0.56748301 1.80953
0.64263099 -0.56500697 1.806899
0.64993697 -0.56816298 1.80994
0.65196049 -0.56693006 1.8094599
0.63388598 -0.56153202 1.806849
0.63866997 -0.56314552 1.8082454
0.65692902 -0.56265301 1.806857
0.66892701 -0.56091601 1.805702
0.68373501 -0.56491297 1.807832
0.64333498 -0.557832 1.806669
0.65595698 -0.55739999 1.8051209
0.71698499 -0.55967301 1.809088
1.336596 -0.76307398 1.814471
1.37217 -0.73433101 1.810608
1.369984 -0.717507 1.812564
1.388555 -0.68454403 1.814154
0.76590699 -0.67939901 1.812927
0.771065 -0.67439699 1.8133399
0.766038 -0.665582 1.813074
0.64435899 -0.66030103 1.812677
0.63936049 -0.65700001 1.8107774
0.76348102 -0.659841 1.8137
0.64016402 -0.65227097 1.81411
0.6473105 -0.64753199 1.8125424
0.75740701 -0.64613301 1.814
0.63925701 -0.63537198 1.813176
0.75248301 -0.637815 1.813255
0.637016 -0.63286698 1.81453
0.75759703 -0.63209403 1.814204
0.63229603 -0.62115997 1.814232
0.73222101 -0.62459099 1.812075
0.62456602 -0.618002 1.812885
0.62388498 -0.61349499 1.811891
0.65051001 -0.614173 1.810823
0.62730598 -0.60661298 1.8139549
0.63688999 -0.60662055 1.813591
0.6312235 -0.6020565 1.8121519
0.63721251 -0.60230249 1.811939
0.74393898 -0.60382903 1.814864
0.62866801 -0.59775102 1.812368
0.63244802 -0.59462202 1.8120871
0.73452598 -0.59361202 1.811013
0.62699604 -0.58624697 1.8124545
0.63345051 -0.58782148 1.8121901
0.63733947 -0.58738053 1.8128465
0.61796403 -0.58084297 1.8115979
0.622998 -0.58332598 1.813599
0.63654202 -0.582546 1.814117
0.71808398 -0.581236 1.81118
0.72323197 -0.58000302 1.810704
0.641083 -0.57552898 1.812268
0.64586103 -0.579723 1.810113
0.65063298 -0.57841998 1.811723
0.73584402 -0.57692897 1.8137
0.61380601 -0.57006902 1.813594
0.617939 -0.57476598 1.812579
0.62528801 -0.57234401 1.811955
0.639732 -0.57084101 1.8105249
0.62479299 -0.56788301 1.812847
0.62878102 -0.56753802 1.812987
0.63812101 -0.56988901 1.811376
0.72726601 -0.5662955 1.8112895
0.63344997 -0.56203902 1.810917
0.63911301 -0.56311101 1.8137
0.64377701 -0.56373101 1.81389
0.72124201 -0.56468499 1.812485
0.62122601 -0.55838001 1.811626
0.65635997 -0.55996901 1.811046
1.372927 -0.785851 1.816849
1.367367 -0.78067702 1.818326
1.370757 -0.782893 1.81909
1.37652 -0.77494502 1.819838
1.370496 -0.76928401 1.818789
1.360783 -0.75986099 1.818117
1.377259 -0.75357598 1.818674
1.381723 -0.73330402 1.818521
1.382728 -0.72806299 1.815922
1.3788249 -0.71876103 1.817247
1.387554 -0.71830702 1.818509
1.386139 -0.68747002 1.818172
1.387197 -0.677306 1.815087
1.392395 -0.677122 1.819986
0.76389599 -0.671175 1.817234
0.63976198 -0.66157299 1.8175631
0.64168 -0.65858799 1.818234
1.383345 -0.65905499 1.8183579
0.647497 -0.654791 1.815253
0.76147598 -0.654459 1.816442
0.643125 -0.64569998 1.816631
0.75560898 -0.64849502 1.815783
0.63992399 -0.64266402 1.8152
0.76064801 -0.64287502 1.8169841
0.643053 -0.63138503 1.816282
0.75477898 -0.63377798 1.816487
0.64006001 -0.62501597 1.817083
0.75094599 -0.62896001 1.818126
0.63009101 -0.61804199 1.815899
0.627841 -0.61039299 1.818058
0.74751002 -0.61132002 1.818337
0.63243198 -0.60567302 1.81859
0.738437 -0.60522801 1.819075
0.61609697 -0.60468799 1.817312
0.62111002 -0.60475701 1.815402
0.62788802 -0.603028 1.817656
0.64548397 -0.60069299 1.816723
0.62531698 -0.59557998 1.819543
0.6385625 -0.59795654 1.817529
0.74763298 -0.59697503 1.818734
0.62329602 -0.591407 1.81793
0.62843502 -0.590648 1.8174415
0.63416398 -0.59076202 1.8199199
0.639826 -0.59279501 1.816421
0.72756499 -0.592242 1.81617
0.737607 -0.59051102 1.819779
0.613213 -0.58933097 1.8198659
0.62568498 -0.58801401 1.819414
0.64811397 -0.58845496 1.81609
0.73005599 -0.58694601 1.8166651
0.744129 -0.58978999 1.815068
0.64989799 -0.58218002 1.8184741
0.74775499 -0.58262998 1.819131
0.62945402 -0.57909501 1.8183
0.63730198 -0.57798201 1.817906
0.65054601 -0.57698601 1.816534
0.72477698 -0.57809401 1.8183039
0.73027998 -0.57556403 1.815524
0.62436903 -0.57028598 1.816098
0.63064498 -0.57351202 1.815258
0.63778901 -0.57199997 1.8185563
0.64095002 -0.57217503 1.819404
0.65113997 -0.570445 1.819733
0.72766697 -0.57223898 1.817559
0.738334 -0.57278502 1.8193229
0.64083499 -0.56624198 1.816013
0.64700949 -0.56766498 1.8173954
0.661524 -0.56822401 1.817766
0.61338198 -0.56426102 1.818579
0.62053603 -0.56100202 1.815591
0.6289835 -0.56451952 1.817055
0.63349003 -0.5616945 1.818439
0.63641798 -0.56267202 1.818458
0.646043 -0.56368202 1.816035
1.354407 -0.77213001 1.822935
1.371598 -0.77440602 1.823234
1.3645999 -0.763394 1.820642
1.366847 -0.76429701 1.822796
1.373167 -0.75709498 1.822806
1.3667765 -0.753236 1.8218889
1.358725 -0.74048698 1.823688
1.365635 -0.73615003 1.822667
1.374513 -0.73745698 1.82029
1.3875386 -0.73840201 1.824122
1.379998 -0.72998399 1.822333
1.371767 -0.72133702 1.821906
1.363204 -0.71958297 1.824607
1.379293 -0.71673697 1.82046
1.382782 -0.71710902 1.821396
1.36902 -0.70521802 1.823522
1.3726031 -0.70814902 1.821723
1.378136 -0.70951301 1.820507
1.3749731 -0.70050901 1.8205169
1.376862 -0.70016998 1.8224
1.3848079 -0.70218801 1.820125
1.379429 -0.69925898 1.8243639
0.78145701 -0.69115502 1.8234
1.369836 -0.69086599 1.824038
1.388258 -0.69158202 1.824671
1.374431 -0.68360299 1.824339
1.393187 -0.68438798 1.823518
0.77377599 -0.67197102 1.824827
1.3833719 -0.670187 1.820488
1.3940409 -0.67165202 1.824139
0.65057802 -0.66818303 1.8202291
1.379315 -0.669949 1.823357
0.77552003 -0.663818 1.82342
1.3880889 -0.66418999 1.822132
0.64975601 -0.65611398 1.824043
0.77029002 -0.65521401 1.8229181
1.389043 -0.65927202 1.8229541
0.63972801 -0.65231198 1.820887
1.376569 -0.65382999 1.824973
0.64400297 -0.64561898 1.824703
0.636917 -0.64158148 1.8208804
0.64376497 -0.643659 1.824406
0.63856798 -0.63519502 1.822631
0.64324498 -0.6368615 1.820618
1.402881 -0.63091099 1.824645
0.75223798 -0.62845802 1.824659
0.75666201 -0.62729901 1.823101
1.399317 -0.62821001 1.821865
0.63998598 -0.62045902 1.824926
0.64510697 -0.62166297 1.823334
0.753672 -0.62169302 1.8234
0.76197898 -0.62128401 1.824289
0.635656 -0.610026 1.8210779
0.64308703 -0.610053 1.82296
0.62865299 -0.60804802 1.823281
0.63324898 -0.60886902 1.821018
0.753672 -0.60780001 1.8234
0.62912601 -0.60189599 1.8246911
0.63926899 -0.60210001 1.82051
0.74303401 -0.599383 1.823284
0.753672 -0.593907 1.8234
0.64045799 -0.58721298 1.822624
0.74316603 -0.58549201 1.823431
0.62279397 -0.58076698 1.821028
0.63154501 -0.583794 1.822451
0.63544202 -0.58466601 1.820732
0.640719 -0.58470201 1.822637
0.73833698 -0.58173501 1.821947
0.62458402 -0.57921201 1.821412
0.61032897 -0.57397401 1.82242
0.623483 -0.57300001 1.821172
0.62652898 -0.573825 1.823563
0.63669503 -0.57345402 1.82493
0.64192247 -0.57451046 1.8223009
0.62337601 -0.56916249 1.8222926
0.62863898 -0.566122 1.8234
0.72134799 -0.56865603 1.8232321
1.379827 -0.78263402 1.8268811
1.388375 -0.78249598 1.828899
1.355304 -0.77707899 1.828014
1.390506 -0.77349699 1.828514
1.353104 -0.760144 1.829983
1.369398 -0.75747198 1.8252029
1.345531 -0.749506 1.828823
1.362936 -0.74570203 1.826501
1.376243 -0.74625301 1.8256
1.392411 -0.74703449 1.8288569
1.367198 -0.74053699 1.827172
1.393892 -0.74432999 1.829783
1.349546 -0.73899603 1.826813
1.369815 -0.739245 1.825775
1.359067 -0.72882801 1.825273
1.347115 -0.72242898 1.828753
1.364998 -0.723602 1.829141
1.3915811 -0.72225201 1.825388
1.3563 -0.71154499 1.827588
1.349244 -0.70406902 1.829403
1.360773 -0.70301598 1.826546
1.379092 -0.70399499 1.8263299
0.78173798 -0.68909001 1.8267829
1.358343 -0.68644899 1.828485
1.366274 -0.68909901 1.825138
1.3760771 -0.681409 1.827333
1.385747 -0.680673 1.826456
1.392881 -0.68046701 1.828899
0.77041698 -0.67889601 1.829959
1.392213 -0.67833602 1.825826
1.363528 -0.672979 1.826754
0.64827502 -0.66937703 1.8264869
0.65678102 -0.66810799 1.825387
1.3720011 -0.667036 1.826279
1.390987 -0.66745299 1.825487
1.40353 -0.668437 1.827024
0.76837897 -0.66068101 1.827374
0.645962 -0.65673703 1.826444
0.65170699 -0.65630299 1.825406
0.76396698 -0.65588498 1.826623
1.360781 -0.65685999 1.82837
1.388338 -0.65959901 1.829616
0.64392501 -0.65183598 1.8279819
1.388787 -0.650518 1.827456
0.64972198 -0.648902 1.825538
0.75467998 -0.64630699 1.827659
0.65264398 -0.64322299 1.82856
0.76297903 -0.64123845 1.828477
0.76621598 -0.64342499 1.826937
1.358035 -0.64074099 1.829986
1.385691 -0.64142197 1.825922
1.406412 -0.64004499 1.829183
0.64465201 -0.63058102 1.829066
0.76546597 -0.63143802 1.828082
1.386587 -0.63358402 1.829425
1.403409 -0.63460898 1.8291709
0.63729697 -0.62708002 1.826838
1.40578 -0.62548101 1.8293051
0.63401097 -0.62469 1.828631
0.64335799 -0.62275749 1.826224
0.64794302 -0.61934698 1.829953
0.75535899 -0.61823797 1.828271
0.62997502 -0.610421 1.82592
0.635396 -0.605721 1.829239
0.640082 -0.60818303 1.829234
0.63125199 -0.59503597 1.825074
0.63837898 -0.595662 1.827908
0.62470299 -0.591775 1.8280751
0.62900001 -0.59216499 1.825913
0.64085901 -0.59280699 1.826911
0.62741399 -0.58127201 1.828411
0.63325202 -0.584746 1.826249
0.64417499 -0.58437598 1.828881
0.62819701 -0.577811 1.8269415
0.641945 -0.57534403 1.828001
0.65412098 -0.57553297 1.8298301
0.64152598 -0.57098299 1.826545
0.61996698 -0.56776601 1.8276269
0.62824798 -0.568111 1.8255759
0.63612902 -0.56996399 1.82695
1.3614939 -0.79581797 1.833726
1.3810641 -0.79871899 1.832029
1.3763361 -0.79381847 1.8320711
1.334762 -0.78746802 1.830058
1.393021 -0.78051502 1.832041
1.3393675 -0.77832699 1.8334925
1.369674 -0.77951998 1.831309
1.3746181 -0.776546 1.831933
1.331995 -0.77018499 1.832373
1.379894 -0.77244002 1.834161
1.388816 -0.77018499 1.8333189
1.392565 -0.77083898 1.834231
1.39045 -0.76980299 1.834844
1.33681 -0.76281703 1.8347631
1.34483 -0.76109397 1.8321249
1.3718539 -0.76032501 1.83356
1.384495 -0.76411098 1.832193
1.388167 -0.757029 1.8346519
1.329228 -0.75290197 1.834689
1.3545409 -0.753488 1.834038
1.372077 -0.745161 1.834461
1.350904 -0.743209 1.831952
1.359059 -0.73755199 1.831473
1.342764 -0.73222297 1.831138
1.331027 -0.72527498 1.832899
1.369594 -0.72972202 1.833889
1.3886795 -0.72725451 1.832533
1.390848 -0.725326 1.831109
1.395281 -0.72587401 1.834146
1.3399971 -0.71494001 1.833454
1.373521 -0.71366102 1.830819
1.399464 -0.71381199 1.833944
1.328596 -0.70870799 1.834838
1.344684 -0.70586199 1.8306921
1.355116 -0.70851099 1.8339109
1.362798 -0.70666802 1.83111
1.384881 -0.70559603 1.8337409
1.391335 -0.70581299 1.834491
1.400052 -0.70617002 1.8335069
1.3802069 -0.70238 1.832039
1.388214 -0.68940997 1.830161
1.392576 -0.68933898 1.833226
1.408134 -0.68922698 1.8344311
0.78277999 -0.68401599 1.8342921
0.78561401 -0.680866 1.8331
1.3966926 -0.6817916 1.8309917
1.400403 -0.68110001 1.833591
1.382172 -0.678918 1.833389
0.65241402 -0.67310601 1.833499
1.4057 -0.67006701 1.8314331
0.64928198 -0.668477 1.833333
1.399909 -0.66933 1.831087
0.64831603 -0.66045398 1.832111
0.76350498 -0.66150701 1.832394
1.3727241 -0.66355902 1.830301
1.387226 -0.661924 1.834233
1.403437 -0.661726 1.83156
1.387916 -0.658907 1.832913
1.3926769 -0.655891 1.834969
0.77164799 -0.652933 1.8331
0.78002 -0.65311903 1.833601
1.372492 -0.65319097 1.8322361
1.402936 -0.65384603 1.833059
0.76092201 -0.64634299 1.833914
0.639368 -0.64133102 1.833982
1.342247 -0.64377099 1.833384
1.393602 -0.64382499 1.834432
1.4112819 -0.643188 1.8347321
1.3702919 -0.63625598 1.834205
1.400172 -0.63762403 1.834686
1.406306 -0.63507098 1.831395
1.411586 -0.63178599 1.834215
0.64040399 -0.62917203 1.832233
0.629453 -0.61418402 1.834631
0.64722598 -0.61080003 1.831786
0.63703102 -0.60931098 1.833093
0.75029099 -0.60224497 1.830608
0.63279802 -0.597996 1.833789
0.63802302 -0.59802902 1.832406
0.642344 -0.59609902 1.834427
0.64426899 -0.59064698 1.832974
0.63366997 -0.58127099 1.832857
0.633066 -0.57887399 1.832092
0.63632399 -0.57793498 1.831189
0.741943 -0.57867301 1.830978
0.61476201 -0.57255298 1.83364
0.62283403 -0.570714 1.8344409
0.63804197 -0.57253402 1.832082
0.74727499 -0.574606 1.83328
0.62945998 -0.56942898 1.830034
1.382295 -0.800879 1.836434
1.393281 -0.79505903 1.837401
1.318459 -0.79086399 1.835923
1.363946 -0.78794199 1.836884
1.3721811 -0.78748399 1.8376631
1.388274 -0.78574699 1.837055
1.342842 -0.782646 1.8387721
1.373176 -0.78318697 1.8398269
1.349059 -0.77876699 1.838835
1.35873 -0.77959597 1.835353
1.394354 -0.77108097 1.8370399
1.320515 -0.76548898 1.839543
1.382049 -0.76545203 1.839555
1.355966 -0.76337498 1.836979
1.362806 -0.75922698 1.836614
1.3831609 -0.75164199 1.838653
1.396666 -0.750615 1.835454
1.353202 -0.74715298 1.838605
1.373778 -0.74973297 1.835124
1.380615 -0.74572599 1.835488
1.389531 -0.74520397 1.83867
1.403936 -0.74196202 1.837087
1.326461 -0.73561901 1.8370039
1.383539 -0.73833901 1.8392709
1.343037 -0.732373 1.839767
1.3882771 -0.73311102 1.8368599
1.3149379 -0.72812098 1.837045
1.3672645 -0.727153 1.8375316
1.376735 -0.727341 1.838782
1.397117 -0.72468799 1.8377759
1.323694 -0.71833599 1.8393199
1.312507 -0.71155399 1.838984
1.3635629 -0.71166003 1.838438
1.3974595 -0.71069348 1.8376325
1.333481 -0.70933801 1.839332
1.3868943 -0.70696169 1.8377633
1.404693 -0.70388901 1.836833
1.337231 -0.69765699 1.83577
1.367044 -0.69733697 1.839306
1.374456 -0.69526702 1.8377661
1.4004771 -0.69609302 1.835574
0.785043 -0.69041997 1.835312
1.38941 -0.694489 1.8374881
0.78900599 -0.68806797 1.8358639
1.3512059 -0.689915 1.837617
1.381651 -0.68928498 1.839929
1.385168 -0.685583 1.836607
1.394603 -0.68762398 1.83845
1.334464 -0.68037403 1.8380851
1.376332 -0.683644 1.835829
0.65951753 -0.67748797 1.8379116
0.66436797 -0.677481 1.837816
0.66826302 -0.67892897 1.836157
0.78575301 -0.67727447 1.836368
1.3790489 -0.67671102 1.838544
0.66114402 -0.670587 1.838827
0.77273399 -0.674151 1.835717
1.381688 -0.67296398 1.838712
0.654921 -0.665968 1.838387
0.65711302 -0.66793799 1.838789
1.3812881 -0.667198 1.839902
1.389124 -0.66825098 1.839
0.54266798 -0.66105503 1.83912
1.379373 -0.66487199 1.835036
1.3923235 -0.66305995 1.835893
0.661825 -0.65622699 1.839229
1.380514 -0.653449 1.83998
1.3959939 -0.65061247 1.8357565
0.65080303 -0.64615297 1.8378609
1.390304 -0.64535099 1.838815
0.65479499 -0.64337051 1.8386254
0.657341 -0.644853 1.837956
1.3829275 -0.64202702 1.838836
1.397988 -0.643179 1.836503
0.655119 -0.63736701 1.838529
1.389892 -0.63849002 1.837301
1.40962 -0.63897502 1.837329
1.411983 -0.63839501 1.838729
1.415935 -0.63868701 1.8361011
0.6484555 -0.63212347 1.838495
0.768296 -0.63024402 1.839738
0.77104503 -0.63229501 1.83763
1.394261 -0.63391 1.837759
0.643399 -0.62978297 1.835197
0.76457202 -0.62536699 1.838334
1.366019 -0.627859 1.836238
1.389722 -0.62544101 1.837727
0.64039099 -0.62318897 1.837918
0.64209199 -0.616337 1.838258
0.77032697 -0.619865 1.839283
0.64013499 -0.61399901 1.83839
0.76373303 -0.61048102 1.839046
0.62919402 -0.60634202 1.838276
0.63538599 -0.59876901 1.838362
0.642407 -0.59865499 1.8381
0.65175802 -0.596937 1.836448
0.63505602 -0.59470201 1.835134
0.635548 -0.58204699 1.838962
0.75259799 -0.58178103 1.835142
0.63318801 -0.57674998 1.835081
0.63927603 -0.57823402 1.8391989
0.64548999 -0.57503802 1.836216
1.39614 -0.807262 1.84047
1.352404 -0.80065799 1.8428251
1.3823376 -0.79756403 1.8417931
1.369554 -0.79241198 1.8415819
1.395998 -0.794761 1.842821
1.348985 -0.78667003 1.840324
1.3726389 -0.78663397 1.840634
1.377668 -0.782188 1.841053
1.369089 -0.77778202 1.842062
1.371546 -0.77695101 1.8442
1.387832 -0.77651203 1.842345
1.3600709 -0.76920497 1.840674
1.36905 -0.76715446 1.841887
1.38152 -0.767003 1.8430555
1.346613 -0.76209199 1.840788
1.386747 -0.76364702 1.840657
1.395745 -0.75630897 1.844319
1.4017479 -0.75580698 1.841025
1.337314 -0.75020301 1.842024
1.356196 -0.75046903 1.8444639
1.364421 -0.750714 1.844251
1.384124 -0.75411701 1.843362
1.3874335 -0.753034 1.842507
1.344166 -0.745417 1.8427401
1.399995 -0.74139601 1.842484
1.310158 -0.73901498 1.84287
1.347942 -0.73708099 1.842266
1.403129 -0.73908901 1.84047
1.33455 -0.73398101 1.8436511
1.350439 -0.73093098 1.8402309
1.373844 -0.73090202 1.8431489
1.377506 -0.73309898 1.843987
1.3969229 -0.73095298 1.842527
1.407079 -0.73137403 1.841704
1.4037991 -0.72908098 1.842983
1.379482 -0.72493899 1.841396
1.398488 -0.72432148 1.8425535
1.378912 -0.719648 1.84389
1.3391269 -0.71377802 1.843472
1.347675 -0.71471 1.841858
1.362945 -0.71319199 1.8421789
0.804277 -0.70872903 1.844475
1.3728549 -0.708956 1.842077
1.376106 -0.70696199 1.844386
1.320928 -0.70105302 1.841635
1.344911 -0.698488 1.843484
1.360799 -0.69543803 1.840065
1.3654211 -0.69753098 1.842118
1.392886 -0.69629103 1.842113
0.7925055 -0.69212401 1.8435814
1.35302 -0.69252801 1.844422
1.384962 -0.69001198 1.8430721
1.388324 -0.69030398 1.840281
0.66371047 -0.6859585 1.843869
0.79825401 -0.68529898 1.8430049
1.37886 -0.68858999 1.8419354
1.382074 -0.68812698 1.840982
0.661457 -0.68088198 1.844045
1.318161 -0.68377 1.843951
1.362635 -0.68013 1.844449
1.358036 -0.67921603 1.841691
1.384783 -0.67579901 1.8421071
1.393965 -0.67787999 1.842612
1.347296 -0.67132002 1.8413219
1.366767 -0.67298901 1.842201
1.3861099 -0.67325598 1.842263
1.401692 -0.67437798 1.842913
1.411817 -0.67098999 1.843339
0.663284 -0.66566598 1.8423409
0.77380401 -0.66707802 1.8414741
1.378135 -0.66939199 1.844715
1.389154 -0.66907698 1.843394
1.4102139 -0.669855 1.8404649
0.54910702 -0.66385198 1.841172
0.65967399 -0.66486299 1.844262
1.331697 -0.663091 1.8404011
1.3552721 -0.66299498 1.843317
1.393653 -0.66431701 1.842008
0.53595948 -0.65697455 1.8410754
0.65327501 -0.657691 1.8422484
1.36432 -0.65631402 1.844153
1.3770239 -0.65888846 1.8429251
1.413388 -0.659226 1.843038
0.77137297 -0.65211499 1.842384
1.411785 -0.65186799 1.841733
0.65350097 -0.64942503 1.8441679
0.77874899 -0.64814401 1.842663
1.377408 -0.64881301 1.843196
1.381791 -0.64616102 1.841687
1.413707 -0.64763898 1.8437181
0.53464901 -0.64269102 1.843295
0.64918 -0.64114398 1.844439
0.77581501 -0.64241701 1.8430001
0.78456497 -0.64230001 1.843884
1.3734781 -0.641909 1.843206
1.384601 -0.64340198 1.842157
1.410943 -0.64204198 1.841368
1.378067 -0.636774 1.8419321
1.409355 -0.63931298 1.841916
1.4136546 -0.6386255 1.8401855
0.64356601 -0.63144499 1.844543
0.64978802 -0.63079 1.84358
0.65790302 -0.63152498 1.84206
0.77888203 -0.634103 1.8428119
1.390654 -0.63194901 1.840325
1.3656321 -0.62750202 1.84315
0.76651001 -0.62218702 1.844205
0.64395303 -0.61878598 1.8436069
0.64747 -0.618155 1.843678
0.764974 -0.619928 1.8428479
0.77068198 -0.61357099 1.8445539
0.76510799 -0.60588801 1.842997
0.63687003 -0.59821498 1.841583
0.639884 -0.59293097 1.842968
0.64414155 -0.5929395 1.8438611
0.75506598 -0.59050602 1.8418241
0.63724256 -0.58717501 1.8443844
0.64274698 -0.58706498 1.843861
0.76177299 -0.58625001 1.8430001
0.63739401 -0.58291501 1.840575
0.64671803 -0.58284098 1.841894
0.62836498 -0.57864702 1.840947
1.390272 -0.81013799 1.847383
1.367169 -0.807347 1.847454
1.378997 -0.80241001 1.8492351
1.348529 -0.79503798 1.849501
1.376219 -0.79866898 1.846541
1.387624 -0.79765499 1.845386
1.361053 -0.79196697 1.8496439
1.381894 -0.79333103 1.849781
1.333787 -0.78630102 1.849619
1.379288 -0.78226602 1.847259
1.400046 -0.78350902 1.8498009
1.375474 -0.77795899 1.846197
1.342604 -0.77058601 1.848685
1.356531 -0.77289402 1.848182
1.364379 -0.771092 1.849388
1.3669475 -0.77291596 1.8470731
1.400883 -0.76961899 1.845638
1.37304 -0.76349801 1.845672
1.3055381 -0.756302 1.848863
1.330958 -0.75623602 1.845623
1.382383 -0.75796598 1.847288
1.361675 -0.75494301 1.849048
1.375616 -0.752083 1.8480099
1.327973 -0.748281 1.846913
1.34576 -0.74951601 1.848771
1.3568161 -0.74711502 1.848156
1.366423 -0.74723297 1.845807
1.37484 -0.74857599 1.849413
1.3804719 -0.74677998 1.849273
1.372148 -0.74004799 1.846321
1.401382 -0.74355 1.846361
1.318662 -0.73703098 1.84707
1.3270479 -0.73764098 1.849328
1.378114 -0.736673 1.845024
1.395118 -0.73777097 1.848399
1.352321 -0.73173302 1.848254
1.382901 -0.73278153 1.8475635
1.359948 -0.72977901 1.8459409
1.363047 -0.72925597 1.848796
1.307392 -0.72173202 1.845186
1.371261 -0.72329497 1.847627
1.396806 -0.72209197 1.849153
1.331787 -0.71775901 1.845277
1.381924 -0.71846598 1.845224
0.801925 -0.71278602 1.8471971
1.357734 -0.71273202 1.847923
1.371851 -0.71455598 1.849321
1.3857681 -0.713521 1.845341
1.3905981 -0.71113998 1.846344
1.400996 -0.71277899 1.848098
1.304625 -0.704449 1.847501
1.329023 -0.70153803 1.846903
1.374284 -0.70095801 1.848509
1.3360214 -0.69528747 1.8478866
1.3555191 -0.69568402 1.849905
1.367692 -0.69657803 1.849321
1.413381 -0.69701898 1.849025
1.368975 -0.69057101 1.845371
1.371922 -0.692994 1.845093
1.326259 -0.68531603 1.848529
1.360451 -0.68895203 1.845832
1.3727289 -0.68898499 1.847376
1.383674 -0.688609 1.8450511
0.79132998 -0.682432 1.846009
1.342147 -0.682266 1.8451101
1.360567 -0.68101299 1.847792
1.368103 -0.68062299 1.84613
0.79320699 -0.67653501 1.84715
1.3505729 -0.67585301 1.846374
1.369707 -0.67594701 1.847075
1.375132 -0.67573798 1.848497
0.78744698 -0.672593 1.845747
1.356576 -0.67021602 1.849622
1.365095 -0.67218602 1.848665
1.415168 -0.67269701 1.846977
0.54160202 -0.66761798 1.84781
0.55587101 -0.66780698 1.847555
0.57014 -0.667997 1.847299
0.66435301 -0.66541898 1.848946
1.315394 -0.66648698 1.846267
1.339384 -0.66604501 1.846736
1.373883 -0.66969699 1.847111
1.391813 -0.66676801 1.8470531
1.410975 -0.66690201 1.848983
0.537606 -0.66088903 1.849128
0.54774052 -0.66208303 1.8481259
0.563932 -0.66256398 1.847021
0.65757203 -0.66150451 1.8460751
0.790896 -0.66323799 1.847079
1.359849 -0.66272902 1.846781
1.348127 -0.65917802 1.848326
1.367492 -0.65890002 1.849057
1.375163 -0.65651703 1.847262
1.380155 -0.65710801 1.8467259
0.54424298 -0.650621 1.8465821
0.77713799 -0.65353 1.847652
1.3433861 -0.65272498 1.845027
1.374195 -0.65065801 1.848448
1.382562 -0.65461397 1.847625
1.415747 -0.652798 1.845239
1.33662 -0.64982301 1.848363
1.357064 -0.64532799 1.849112
1.382412 -0.64871299 1.845955
1.415977 -0.64965302 1.846014
0.53061903 -0.644512 1.846393
1.399935 -0.644036 1.846179
1.423017 -0.64218003 1.84893
0.65559602 -0.635445 1.849345
0.77748102 -0.63934201 1.847962
1.361874 -0.63963902 1.846105
1.339476 -0.63412899 1.848732
1.349744 -0.63055098 1.84657
1.389987 -0.63164902 1.846727
1.390198 -0.63321102 1.846777
0.64754701 -0.62780547 1.847052
0.77782398 -0.62515497 1.848271
0.52130699 -0.621723 1.845199
0.64048702 -0.62468302 1.846158
0.76397598 -0.61062402 1.848559
0.64683902 -0.60547101 1.849744
0.76407897 -0.60722399 1.8451149
0.642308 -0.60464698 1.849761
0.64201802 -0.59789801 1.845628
0.764319 -0.59643602 1.848869
0.640055 -0.582573 1.848801
0.76466203 -0.58224899 1.849178
0.63526499 -0.57810199 1.847308
1.407634 -0.81408399 1.851395
1.339982 -0.80595601 1.852265
1.361791 -0.80546999 1.851033
1.367787 -0.80427498 1.853741
1.370849 -0.80459201 1.850682
1.377054 -0.80172902 1.852119
1.403363 -0.80468702 1.852602
1.313693 -0.79821002 1.854084
1.3534451 -0.797719 1.851215
1.381178 -0.79558301 1.853485
1.39783 -0.79727501 1.854188
1.340305 -0.79182202 1.854627
1.317384 -0.78899199 1.854431
1.336987 -0.78802347 1.852347
1.343649 -0.78549403 1.854954
1.362542 -0.78865701 1.852073
1.369953 -0.78422397 1.854791
1.373548 -0.78386301 1.854179
1.3273211 -0.77739102 1.85051
1.332062 -0.779719 1.8549449
1.349506 -0.77898401 1.854948
1.38182 -0.77902299 1.850839
1.403213 -0.77950799 1.851778
1.34419 -0.77451301 1.850677
1.350409 -0.77023602 1.852097
1.351567 -0.76307201 1.850764
1.362888 -0.76069403 1.850288
1.365265 -0.76137799 1.852656
1.373253 -0.76381701 1.853603
1.379564 -0.76308602 1.853729
1.324536 -0.75998998 1.852841
1.340315 -0.755777 1.854467
1.369819 -0.75941497 1.851531
1.40218 -0.75873297 1.85035
1.311779 -0.75114602 1.851086
1.329358 -0.75220698 1.853583
1.375073 -0.75033998 1.852553
1.394371 -0.751405 1.852675
1.368413 -0.744807 1.850291
1.377365 -0.73892498 1.852056
1.3800679 -0.73640102 1.850812
1.407873 -0.73571599 1.852721
1.309333 -0.73447102 1.853038
1.343546 -0.73246902 1.8507529
1.363786 -0.72611701 1.85491
1.3658381 -0.72550398 1.854628
1.39473 -0.72570699 1.854171
1.393416 -0.72387397 1.850654
0.80826098 -0.71649301 1.853
1.306886 -0.71779603 1.85499
1.323138 -0.71904498 1.8530329
1.341331 -0.71542197 1.852735
1.360353 -0.71714401 1.850135
1.3769439 -0.71518302 1.853397
1.39055 -0.71515203 1.851107
1.3975019 -0.71172798 1.851337
1.2972471 -0.70763701 1.853742
1.3909121 -0.70553601 1.851162
0.802531 -0.70328999 1.852966
0.80826098 -0.70237499 1.853
0.811854 -0.70073003 1.854916
1.313135 -0.70458698 1.850322
1.375571 -0.703821 1.8535891
1.3206331 -0.69825703 1.852769
1.339116 -0.69837499 1.854717
1.3562959 -0.696661 1.850469
1.366196 -0.69601297 1.854655
1.356294 -0.69330198 1.854776
1.380319 -0.69497502 1.8502851
1.394913 -0.69418502 1.8544919
1.310371 -0.688366 1.851949
1.415189 -0.68666601 1.851862
1.42421 -0.68849897 1.8512
0.66844499 -0.68382502 1.854829
1.369657 -0.68226701 1.853128
1.388576 -0.68010497 1.853231
0.56606001 -0.67502499 1.854934
0.58509099 -0.67796397 1.850772
0.66774702 -0.676292 1.853853
0.67167401 -0.67837399 1.851313
1.3328435 -0.677652 1.8507155
1.353304 -0.67863703 1.851887
1.386307 -0.67876899 1.850283
0.54299498 -0.67094201 1.853019
0.54672068 -0.67254764 1.8509274
0.582371 -0.67413902 1.853
0.79414302 -0.67413902 1.853
0.80291897 -0.67459297 1.853384
1.3693531 -0.67100799 1.850365
1.371483 -0.67228401 1.8504471
1.378589 -0.67421103 1.851652
0.54347402 -0.66855198 1.854822
0.54926997 -0.667943 1.852649
0.55832601 -0.66765797 1.853628
1.36175 -0.66597801 1.854494
1.37787 -0.669976 1.850503
1.3886275 -0.66770446 1.851688
0.53281301 -0.66333598 1.852325
0.53634697 -0.66395998 1.853194
0.54287398 -0.66344202 1.850581
0.55413502 -0.66002101 1.853
0.55699098 -0.66357702 1.850695
0.56825298 -0.66002101 1.853
1.331933 -0.66204298 1.8525
1.35109 -0.66158998 1.853869
0.661919 -0.65584397 1.852896
0.66661 -0.65910703 1.851952
1.327397 -0.65799201 1.854588
0.65939802 -0.65325701 1.85251
0.779374 -0.65236598 1.853736
1.3527009 -0.65147901 1.853412
1.3671025 -0.65209246 1.8529
1.370001 -0.65359002 1.850825
1.391474 -0.65028799 1.850884
1.4068246 -0.65402001 1.8532109
0.540851 -0.64756697 1.852651
0.54644299 -0.64897299 1.852471
0.55712497 -0.64946002 1.850845
0.65773302 -0.64887297 1.854509
1.386902 -0.647533 1.8504241
0.66688597 -0.64419299 1.853205
0.774818 -0.64008802 1.8541
1.34568 -0.64250302 1.850278
1.365278 -0.64185202 1.8510391
1.371388 -0.64371997 1.853397
1.407041 -0.64173698 1.851458
0.53938001 -0.637389 1.8519911
1.375528 -0.63841802 1.8513449
1.405297 -0.63691401 1.850274
0.52620298 -0.63264102 1.852457
0.53894401 -0.63214701 1.854766
0.66301298 -0.63326901 1.8506351
0.77249998 -0.63040501 1.852252
0.78002501 -0.63178498 1.853
1.3702559 -0.63192302 1.852181
1.375666 -0.633416 1.850461
1.409183 -0.63444 1.852332
1.3432339 -0.62582803 1.85223
1.354278 -0.62792701 1.8514431
0.78326499 -0.62339097 1.852962
0.65268898 -0.61813599 1.852446
0.78002501 -0.61766702 1.853
0.64573401 -0.61150497 1.850981
0.64072597 -0.60582298 1.8506041
0.66307199 -0.60879397 1.85212
0.775195 -0.60246998 1.854941
0.76885349 -0.59682798 1.8518375
1.34771 -0.811225 1.858325
1.398345 -0.81121099 1.8585761
1.329812 -0.805161 1.85719
1.374427 -0.80941099 1.855837
1.37509 -0.80559701 1.859185
1.297279 -0.80162901 1.85999
1.3442219 -0.80269301 1.856109
1.356174 -0.80098999 1.8580995
1.339794 -0.79746002 1.85519
1.346759 -0.79616201 1.856884
1.363263 -0.797571 1.859761
1.37005 -0.79664201 1.85953
1.300982 -0.791682 1.859243
1.32735 -0.78837699 1.8591551
1.341656 -0.786901 1.857069
1.36339 -0.78661847 1.858992
1.310907 -0.78081 1.856416
1.318429 -0.776375 1.8589799
1.335914 -0.77907503 1.858484
1.3423491 -0.77842498 1.857987
1.334419 -0.773305 1.855538
1.33801 -0.77247751 1.8578235
1.341187 -0.768709 1.8569191
1.3469141 -0.76800001 1.8567179
1.357914 -0.76996601 1.856692
1.368099 -0.76531702 1.859122
1.393416 -0.76547301 1.857175
1.308122 -0.76340902 1.858747
1.376017 -0.76038998 1.8562911
1.331638 -0.75698 1.857175
1.350054 -0.75564301 1.856225
1.361889 -0.75887197 1.857231
1.295586 -0.75401002 1.8552589
1.3362221 -0.75450301 1.857047
1.341381 -0.75063699 1.859018
1.358152 -0.75435299 1.8579381
1.344968 -0.746665 1.858992
1.356321 -0.746898 1.855684
1.3672169 -0.74536902 1.859946
1.3566869 -0.74360698 1.858515
1.364164 -0.74087203 1.856865
1.293139 -0.73733503 1.857211
1.327143 -0.73515999 1.855565
1.33644 -0.737041 1.8582571
1.369182 -0.73871303 1.8564661
1.3503881 -0.73091298 1.8565789
1.368312 -0.73119003 1.857519
1.387859 -0.73319203 1.859713
1.374197 -0.729913 1.857888
1.359948 -0.722848 1.859031
1.373819 -0.71918201 1.859102
1.3884881 -0.71973401 1.855773
0.808568 -0.71477503 1.856586
1.343178 -0.71214199 1.857757
1.359158 -0.70742601 1.859529
1.364785 -0.70697099 1.856114
1.386837 -0.706352 1.8588229
1.390483 -0.70509499 1.8578351
0.68768698 -0.700324 1.8566411
0.80891299 -0.70050901 1.856897
1.322714 -0.701065 1.859529
1.353919 -0.70377499 1.858591
1.414665 -0.70067602 1.855796
0.80935901 -0.69782901 1.85535
1.37114 -0.69655102 1.85885
1.384177 -0.69935101 1.859687
0.67315799 -0.69309998 1.859257
0.68304098 -0.69419199 1.859273
1.344571 -0.69426 1.855835
1.391205 -0.69437498 1.859692
1.40926 -0.69482398 1.857828
0.60185701 -0.68627399 1.85677
0.669438 -0.687253 1.855461
0.67401397 -0.68837202 1.8562599
0.80925798 -0.68624401 1.857208
1.352113 -0.687922 1.855527
1.3844 -0.68732297 1.8582
0.59522998 -0.68106198 1.856885
0.67037803 -0.68313497 1.858907
1.336902 -0.681328 1.856699
1.349648 -0.68013102 1.858759
1.3612159 -0.68312001 1.857832
0.55747902 -0.67706299 1.8579969
1.340695 -0.675524 1.859625
1.352918 -0.67532498 1.857765
1.360541 -0.67747003 1.859989
1.3748699 -0.67642802 1.8552279
1.4070081 -0.67988902 1.857775
0.53185654 -0.67252898 1.8572555
0.53957897 -0.67270601 1.859792
0.54306 -0.67478198 1.855432
0.57451099 -0.672665 1.855502
0.668854 -0.67366397 1.858779
0.79587549 -0.67133248 1.857492
0.52159399 -0.66912198 1.858408
0.52781099 -0.66847903 1.8569956
0.531003 -0.667777 1.8560261
0.53850001 -0.66541499 1.857109
0.54124701 -0.66948801 1.858914
0.55720901 -0.66913599 1.856459
0.56292999 -0.66659802 1.859604
0.57328099 -0.66997802 1.856554
0.58130598 -0.66645199 1.857174
0.66314399 -0.665681 1.859913
1.418079 -0.66975701 1.857645
0.51925898 -0.66085798 1.855598
0.54205096 -0.661825 1.857909
0.55349201 -0.66376501 1.8581949
0.55689198 -0.66319197 1.8578449
1.334687 -0.66428 1.858681
1.35409 -0.664689 1.856279
1.3668211 -0.662884 1.8574059
1.379729 -0.66124701 1.858452
0.52381098 -0.65987098 1.857466
0.54483247 -0.65623403 1.8583906
0.55920303 -0.65700501 1.857958
1.364784 -0.65562701 1.8588001
0.52839702 -0.651465 1.858389
0.53198498 -0.653144 1.859067
0.538845 -0.65114999 1.857421
0.54263502 -0.65366602 1.855534
0.553114 -0.65149599 1.857442
0.56738198 -0.65184098 1.857464
0.66259903 -0.65087497 1.8587019
0.66860098 -0.65402699 1.855978
0.78495598 -0.65025097 1.859982
1.372067 -0.651344 1.855956
1.423772 -0.65428799 1.857705
1.34065 -0.64874703 1.855018
1.383527 -0.64958954 1.857775
1.404292 -0.64872199 1.856415
0.53141099 -0.64207399 1.8578759
0.54505002 -0.64246601 1.8584239
0.55939698 -0.64265698 1.8581671
0.65684801 -0.641662 1.858376
1.348875 -0.64454299 1.8558511
1.363915 -0.640926 1.859543
1.368637 -0.64007002 1.855813
1.376 -0.64097703 1.85625
0.55345899 -0.63722998 1.857753
0.65863198 -0.63826001 1.856295
1.3626 -0.63505399 1.8563451
1.398556 -0.63566899 1.859807
0.54256701 -0.63391501 1.859368
1.337864 -0.63134599 1.857349
1.362574 -0.63261002 1.857778
1.3863875 -0.6338855 1.8595614
1.34666 -0.627496 1.857833
0.64771903 -0.62145501 1.855165
0.768076 -0.621342 1.858793
0.77527201 -0.62078798 1.857407
0.78067303 -0.62427801 1.858819
0.65488505 -0.61871254 1.857955
0.66318798 -0.61968201 1.855695
0.78371698 -0.61506498 1.859781
0.52571601 -0.610672 1.857594
0.78079802 -0.60961002 1.859225
0.64217299 -0.59390301 1.8560261
0.65794098 -0.59483498 1.8578269
0.76748198 -0.59493399 1.856847
0.64704102 -0.58635402 1.858292
0.65122402 -0.587762 1.857258
0.641873 -0.58473301 1.855611
1.344888 -0.811391 1.864992
1.313513 -0.80804402 1.86139
1.33258 -0.806669 1.863289
1.3583241 -0.80858999 1.861262
1.364713 -0.80976099 1.86107
1.377319 -0.80710602 1.862148
1.3236001 -0.80244797 1.863953
1.337337 -0.80302602 1.860847
1.363418 -0.80006099 1.8642401
1.347416 -0.79512501 1.863093
1.35423 -0.79072702 1.864026
1.3690696 -0.79124951 1.861125
1.3692859 -0.78696501 1.864638
1.370773 -0.78615499 1.860576
1.294494 -0.78422898 1.862321
1.333397 -0.78429103 1.86458
1.370661 -0.78030002 1.863521
1.366142 -0.77812099 1.862849
1.374578 -0.77788001 1.8612339
1.391318 -0.77906197 1.861225
1.324183 -0.77269351 1.8607941
1.366348 -0.773431 1.86308
1.291708 -0.766828 1.864653
1.346619 -0.76852798 1.8617949
1.356477 -0.76718903 1.864409
1.2996579 -0.76311803 1.864058
1.332034 -0.76068997 1.861779
1.34069 -0.753654 1.864913
1.353287 -0.751275 1.861311
1.305336 -0.74600798 1.861078
1.358984 -0.74580503 1.861113
1.386786 -0.74743599 1.864549
1.312866 -0.74372399 1.862253
1.370213 -0.74175799 1.861744
1.31074 -0.73785001 1.860377
1.343576 -0.73839098 1.864269
1.374637 -0.73605502 1.860658
1.350054 -0.73245299 1.863934
1.3684731 -0.73263597 1.860301
1.302551 -0.728607 1.86341
1.3100851 -0.72739798 1.8638901
1.334915 -0.72846699 1.8623281
1.3620889 -0.72584903 1.862985
1.308526 -0.72080302 1.862359
1.326075 -0.72432899 1.860448
1.331394 -0.72373497 1.860912
1.3585089 -0.72232902 1.8621989
1.37147 -0.72274399 1.8603981
1.390013 -0.72154403 1.863138
1.3325649 -0.71830398 1.862048
1.370729 -0.71753401 1.863976
0.81513703 -0.71218503 1.862388
1.359529 -0.71095997 1.8629349
1.372699 -0.71476603 1.86466
0.81542498 -0.70899099 1.864854
1.388077 -0.70786297 1.861981
0.684861 -0.70288002 1.861969
1.366035 -0.702326 1.862119
1.381857 -0.70169801 1.863147
1.313393 -0.69038701 1.862167
1.358308 -0.69064802 1.8645999
0.57832402 -0.685184 1.862561
0.58301198 -0.68646598 1.862013
0.68293899 -0.68755901 1.863161
1.354531 -0.68873602 1.864148
0.57438302 -0.68202299 1.8616379
0.60249698 -0.681759 1.860975
0.68096602 -0.68166298 1.8626651
0.80121303 -0.683662 1.862574
1.3595949 -0.68210101 1.860938
0.52876502 -0.67781401 1.8631001
0.536883 -0.67803299 1.864866
0.57763302 -0.67754102 1.861277
1.365337 -0.67791802 1.864302
1.388829 -0.67558998 1.860886
0.51060653 -0.674375 1.8626831
0.5178495 -0.67169797 1.8628149
0.52314603 -0.673585 1.8621349
0.54245502 -0.671745 1.860261
0.56746 -0.67325652 1.8635385
0.57748002 -0.67021197 1.863277
0.67681497 -0.67106998 1.862093
0.78837198 -0.67105401 1.863184
1.310608 -0.67298597 1.864498
1.33372 -0.67228299 1.861917
1.345803 -0.67337799 1.863834
0.51189703 -0.66538298 1.862874
0.53196031 -0.66757965 1.862075
0.53864098 -0.66895503 1.860821
0.54815501 -0.66813499 1.861066
0.55105698 -0.66677499 1.860899
0.55725801 -0.66967499 1.86484
0.5731045 -0.66721952 1.86172
0.58843797 -0.66742897 1.861012
0.67518401 -0.66922301 1.860154
0.80134702 -0.66946799 1.862725
0.543347 -0.661901 1.8621111
0.55151248 -0.66304749 1.8632195
