# .PCD v0.7 - Point Cloud Data file format
VERSION 0.7
FIELDS x y z
SIZE 4 4 4
TYPE F F F
COUNT 1 1 1
WIDTH 278
HEIGHT 1
VIEWPOINT 0 0 0 1 0 0 0
POINTS 278
DATA ascii
1.159966 -0.305803 1.404103
1.1475919 -0.31687999 1.414428
1.182969 -0.31505001 1.411287
1.160131 -0.314484 1.4122421
1.1708025 -0.313272 1.4138625
1.15553 -0.30964899 1.413703
1.161064 -0.30970201 1.412544
1.179544 -0.305886 1.413358
1.1612675 -0.3014335 1.4131855
1.142121 -0.286538 1.413926
1.200653 -0.320371 1.419189
1.1667351 -0.319244 1.419914
1.181746 -0.317238 1.415199
1.203527 -0.31840301 1.416093
1.156099 -0.30968401 1.417587
1.180796 -0.30465701 1.419136
1.1658649 -0.298179 1.417172
1.152404 -0.294532 1.416761
1.153769 -0.32194501 1.424579
1.1478879 -0.31971899 1.421162
1.164534 -0.30549899 1.421756
1.179343 -0.30453601 1.424659
1.196659 -0.30364102 1.4241325
1.1679699 -0.29758799 1.423308
1.162334 -0.29175299 1.423597
1.1756541 -0.29241899 1.421805
1.168883 -0.285647 1.4235491
1.176209 -0.28898102 1.4232631
1.161405 -0.28300101 1.421217
1.171319 -0.28380299 1.424964
1.172966 -0.27810499 1.424185
1.14808 -0.26698399 1.424688
1.140803 -0.324646 1.429244
1.174235 -0.32425401 1.429942
1.176707 -0.32373101 1.425787
1.2017879 -0.322128 1.425827
1.135129 -0.317691 1.426579
1.179383 -0.31893301 1.42594
1.189808 -0.31530699 1.427469
1.153762 -0.314504 1.429598
1.158075 -0.31420001 1.427487
1.169683 -0.31113201 1.429863
1.17696 -0.31218201 1.427547
1.152611 -0.30901501 1.4271309
1.199301 -0.30678001 1.427905
1.155105 -0.30235299 1.425383
1.162568 -0.295856 1.4276969
1.179026 -0.29855099 1.425653
1.176249 -0.28794301 1.4257669
1.164178 -0.28457999 1.427297
1.1758291 -0.28334299 1.428683
1.1602476 -0.27889201 1.426535
1.1711839 -0.27301401 1.428359
1.161743 -0.26575601 1.428389
1.145287 -0.32174999 1.430143
1.163057 -0.32479101 1.432584
1.170772 -0.31975201 1.430245
1.1521699 -0.31360799 1.431208
1.155628 -0.30507001 1.43251
1.1720715 -0.30795899 1.433611
1.1974416 -0.3068175 1.4334645
1.166285 -0.304479 1.434316
1.183962 -0.29973701 1.434729
1.148106 -0.294312 1.4338371
1.173578 -0.28885299 1.431071
1.159879 -0.28154299 1.430077
1.175055 -0.28087699 1.433784
1.164987 -0.27036899 1.433309
1.165494 -0.268179 1.431802
1.157216 -0.26456699 1.4307081
1.13229 -0.32603201 1.437915
1.147078 -0.32556 1.437723
1.1579915 -0.32654649 1.4389834
1.172466 -0.3267985 1.4373585
1.161019 -0.32160601 1.438448
1.168923 -0.324633 1.43651
1.139084 -0.317045 1.4371001
1.14087 -0.318813 1.437718
1.172348 -0.31731799 1.438271
1.180011 -0.31685299 1.438868
1.146896 -0.31142199 1.438642
1.172098 -0.31294101 1.438702
1.186112 -0.31199601 1.437451
1.193781 -0.31165901 1.439059
1.176371 -0.30810699 1.437885
1.141905 -0.30340901 1.437199
1.165078 -0.29981601 1.438216
1.186992 -0.29596099 1.439752
1.15772 -0.29488599 1.4358031
1.1740479 -0.29378501 1.437963
1.193514 -0.29122299 1.435851
1.1622751 -0.28842801 1.437445
1.1714081 -0.276907 1.439039
1.159554 -0.272443 1.439533
1.1864901 -0.27145401 1.4386981
1.172103 -0.26962301 1.438776
1.1705725 -0.331458 1.4426025
1.136072 -0.327957 1.441481
1.180402 -0.32829899 1.442871
1.131987 -0.322236 1.441605
1.135036 -0.32378 1.443836
1.1581939 -0.32176501 1.443472
1.174872 -0.32108399 1.443077
1.145504 -0.31787601 1.4411221
1.163636 -0.318342 1.441486
1.180114 -0.31612599 1.443635
1.13386 -0.31413701 1.443332
1.143309 -0.31033799 1.441485
1.1545219 -0.310532 1.444061
1.1570849 -0.312363 1.4411401
1.1522496 -0.306449 1.4425325
1.163118 -0.30917001 1.44372
1.183341 -0.30897701 1.441301
1.144684 -0.297602 1.440493
1.158633 -0.299723 1.4414361
1.1617675 -0.29982752 1.4407389
1.166615 -0.29742151 1.4440875
1.17221 -0.29678601 1.44109
1.177682 -0.295809 1.441784
1.1809289 -0.29615301 1.442899
1.149676 -0.29195899 1.444322
1.163499 -0.29023999 1.444021
1.1714799 -0.292404 1.44248
1.192891 -0.29096001 1.44076
1.142471 -0.28378099 1.442345
1.158564 -0.284477 1.443675
1.178117 -0.28416699 1.441988
1.15879 -0.27002099 1.443555
1.182897 -0.272697 1.444084
1.181379 -0.26793399 1.440272
1.1347589 -0.33082801 1.446698
1.144109 -0.33278301 1.448043
1.147247 -0.33185899 1.449736
1.163179 -0.33359799 1.449681
1.175298 -0.33241299 1.445035
1.1458631 -0.328132 1.447132
1.160955 -0.32678699 1.449669
1.127979 -0.32312199 1.445838
1.150066 -0.32148099 1.446161
1.1513489 -0.316829 1.446599
1.164621 -0.31678799 1.447125
1.167661 -0.31597099 1.446088
1.171739 -0.31854248 1.4469864
1.139798 -0.311474 1.449111
1.165808 -0.31480101 1.449515
1.1786489 -0.31468499 1.447239
1.130355 -0.30843201 1.448251
1.167025 -0.30859599 1.4481241
1.139956 -0.302358 1.447118
1.1471155 -0.30364701 1.4480555
1.174264 -0.301404 1.446759
1.150035 -0.295259 1.448132
1.166333 -0.29725701 1.445114
1.177475 -0.29475799 1.4488475
1.180395 -0.29204801 1.445688
1.1488121 -0.28896001 1.447986
1.172128 -0.28525701 1.449044
1.163931 -0.281427 1.445281
1.172942 -0.28026301 1.446256
1.175746 -0.28031 1.448347
1.1464781 -0.27675101 1.4473521
1.156782 -0.278469 1.4466799
1.18385 -0.27765399 1.449977
1.186708 -0.27558801 1.448469
1.159707 -0.27492401 1.447807
1.155399 -0.26917401 1.446771
1.17134 -0.33729199 1.454383
1.156854 -0.33089 1.45411
1.163586 -0.33351299 1.451257
1.137354 -0.325921 1.454403
1.142486 -0.32904199 1.454029
1.135015 -0.32103199 1.450892
1.147 -0.321677 1.452541
1.13099 -0.315606 1.45046
1.142759 -0.31658599 1.453807
1.169239 -0.31844401 1.4530129
1.1744829 -0.31608 1.451389
1.176754 -0.319464 1.450265
1.138835 -0.307899 1.452418
1.14434 -0.305904 1.45253
1.152593 -0.30633101 1.4509031
1.162428 -0.30626801 1.454662
1.1676176 -0.30654651 1.4526365
1.139941 -0.30078301 1.4528511
1.158796 -0.301164 1.453963
1.166497 -0.30232501 1.45258
1.173317 -0.30248699 1.453446
1.1366 -0.29626599 1.452141
1.151103 -0.29554099 1.453053
1.160917 -0.29909801 1.45411
1.165041 -0.29814899 1.452067
1.159729 -0.29109401 1.454857
1.145594 -0.28881201 1.451845
1.1608289 -0.28839901 1.4535429
1.1668739 -0.28581852 1.4532416
1.160567 -0.28157401 1.451526
1.173825 -0.28317499 1.453391
1.182423 -0.280359 1.454128
1.196715 -0.2809 1.454682
1.145547 -0.27998599 1.452203
1.174529 -0.27631599 1.4525729
1.179827 -0.27670601 1.454585
1.197232 -0.27950901 1.452147
1.142429 -0.27351001 1.454941
1.1471336 -0.2721625 1.4512565
1.169542 -0.27402601 1.450079
1.160136 -0.33719701 1.456549
1.1521215 -0.33047751 1.4572275
1.146281 -0.32791099 1.455422
1.16291 -0.32698601 1.456864
1.1773469 -0.32504299 1.459196
1.157555 -0.32314 1.458303
1.139634 -0.31518701 1.455319
1.1498899 -0.319994 1.4576581
1.1577801 -0.31805 1.4584661
1.157562 -0.30393001 1.4564821
1.168564 -0.30386201 1.459906
1.171571 -0.30362099 1.455713
1.185403 -0.301278 1.4574
1.161235 -0.29815099 1.456793
1.190104 -0.29993901 1.456431
1.146992 -0.29089701 1.458333
1.172742 -0.29310799 1.4568371
1.1519949 -0.28915799 1.457792
1.161756 -0.28678 1.457052
1.147311 -0.280224 1.456838
1.171141 -0.28085399 1.457363
1.142871 -0.32982901 1.460108
1.1568415 -0.326628 1.463098
1.1664264 -0.32603949 1.4629641
1.155244 -0.32149401 1.461144
1.150911 -0.315911 1.461898
1.157011 -0.312361 1.464805
1.171373 -0.31045401 1.46237
1.154912 -0.307601 1.463483
1.163179 -0.30447501 1.460991
1.146361 -0.29928401 1.4623179
1.173874 -0.29276401 1.464664
1.148577 -0.28657001 1.4600509
1.166883 -0.28777051 1.4613011
1.178864 -0.289738 1.463286
1.1731319 -0.28375199 1.463138
1.183921 -0.284567 1.464139
1.155567 -0.278644 1.462163
1.149572 -0.34389099 1.468178
1.146771 -0.336629 1.46812
1.154781 -0.33973101 1.469533
1.158084 -0.33577299 1.465171
1.158736 -0.33463699 1.469548
1.148582 -0.31511399 1.46612
1.157511 -0.316378 1.465974
1.1630085 -0.31068301 1.4683895
1.1514435 -0.307818 1.4671005
1.171207 -0.309778 1.466851
1.151974 -0.302587 1.465676
1.151907 -0.293412 1.465153
1.179245 -0.29008999 1.466108
1.155445 -0.287707 1.465463
1.168224 -0.28505701 1.467173
1.169194 -0.28344399 1.466291
1.156482 -0.33411399 1.474162
1.159574 -0.31300399 1.471315
1.160816 -0.29982001 1.47429
1.165626 -0.29500499 1.470261
1.162856 -0.29335701 1.47455
1.165068 -0.29451299 1.474506
1.172212 -0.289067 1.472556
1.1763901 -0.289565 1.470567
1.165733 -0.33885601 1.4795769
1.158039 -0.33439901 1.475894
1.1684819 -0.31950301 1.47798
1.164243 -0.31263399 1.476084
1.166647 -0.29646501 1.4769239
1.168609 -0.34779 1.489668
1.171338 -0.344001 1.4857
1.177512 -0.34727901 1.5007811
1.179553 -0.36504799 1.505406
1.184744 -0.352346 1.5065089
