# .PCD v0.7 - Point Cloud Data file format
VERSION 0.7
FIELDS x y z
SIZE 4 4 4
TYPE F F F
COUNT 1 1 1
WIDTH 1470
HEIGHT 1
VIEWPOINT 0 0 0 1 0 0 0
POINTS 1470
DATA ascii
0.45087901 0.57191902 -0.147232
0.46533599 0.57145298 -0.146846
0.40101001 0.579557 -0.149573
0.412633 0.576213 -0.149257
0.41846099 0.57637101 -0.14714999
0.41412899 0.58365101 -0.149619
0.50672603 0.50864702 -0.142745
0.364948 0.51463598 -0.14351401
0.4839595 0.51234001 -0.1424225
0.49541 0.51489103 -0.143792
0.36623901 0.51608801 -0.143512
0.37645099 0.51920003 -0.142966
0.486747 0.51639599 -0.141581
0.3714585 0.52180302 -0.1422985
0.38036501 0.52032399 -0.14245901
0.49275801 0.52492398 -0.144972
0.50043499 0.52386898 -0.14317299
0.46986699 0.52907699 -0.14319099
0.48290801 0.52502799 -0.144962
0.48577899 0.52903301 -0.143957
0.498604 0.525644 -0.142326
0.509987 0.52914703 -0.140031
0.37001401 0.53436297 -0.140763
0.486992 0.53059602 -0.141791
0.49746847 0.53333402 -0.14254099
0.50219202 0.53215897 -0.14434101
0.38405001 0.53676403 -0.140496
0.49623299 0.53561598 -0.14075901
0.37685001 0.54138201 -0.140774
0.38810399 0.54139298 -0.14443401
0.40038699 0.54344398 -0.143608
0.48157001 0.54343897 -0.14261501
0.37785199 0.54802001 -0.141165
0.46976399 0.54621798 -0.14373
0.47036499 0.54912299 -0.144429
0.483464 0.54908699 -0.140839
0.46396601 0.551368 -0.143498
0.47600201 0.55031699 -0.14459001
0.45133299 0.55671602 -0.142041
0.40461701 0.56236899 -0.14057399
0.46427199 0.56165397 -0.142029
0.47242799 0.56325197 -0.143089
0.39758 0.56825203 -0.141
0.45730901 0.567168 -0.14453299
0.461761 0.56981701 -0.14228199
0.47420001 0.566513 -0.140655
0.46264601 0.57403898 -0.144375
0.47900799 0.57116997 -0.141784
0.415223 0.57696998 -0.143877
0.44750401 0.57902801 -0.14319199
0.45350599 0.57604599 -0.141297
0.46469799 0.57757503 -0.14166801
0.45132101 0.58005899 -0.14446101
0.45756799 0.58468503 -0.143225
0.46702802 0.58188701 -0.140698
0.355584 0.50616097 -0.135812
0.49497899 0.50765699 -0.136994
0.51224202 0.50531 -0.137033
0.52059001 0.50743198 -0.137115
0.35774899 0.51410002 -0.138237
0.37364 0.51585001 -0.136829
0.481271 0.51858097 -0.13927101
0.49228299 0.51637203 -0.13913199
0.499329 0.51988298 -0.135763
0.50891203 0.51658899 -0.13974901
0.362771 0.522515 -0.13880301
0.48225999 0.52021199 -0.136143
0.373613 0.526241 -0.13677201
0.47657499 0.52768397 -0.137197
0.36007199 0.53495198 -0.135612
0.37075001 0.53376597 -0.135296
0.480304 0.534639 -0.13546
0.49703899 0.53485602 -0.136081
0.463496 0.53600103 -0.137274
0.489373 0.53752297 -0.139107
0.370987 0.54070801 -0.13617501
0.38377398 0.54201299 -0.135874
0.390044 0.54311699 -0.136774
0.48296499 0.54152203 -0.135903
0.49050599 0.54490602 -0.13536499
0.47613201 0.54519397 -0.136271
0.48507401 0.55023098 -0.137879
0.3829 0.55733901 -0.13769101
0.46653599 0.55814201 -0.13797601
0.38510701 0.56395698 -0.13863701
0.39676601 0.56229699 -0.135618
0.45865399 0.56575203 -0.139568
0.464735 0.56601501 -0.137336
0.394261 0.572685 -0.13680799
0.408344 0.570737 -0.136259
0.455558 0.57795101 -0.137889
0.4082025 0.58125448 -0.1365395
0.460098 0.58221698 -0.13940699
0.49018699 0.50333101 -0.132139
0.49533001 0.503703 -0.134179
0.50669801 0.50191599 -0.130017
0.52113098 0.503272 -0.13358299
0.335684 0.50666898 -0.132596
0.34716401 0.505822 -0.131065
0.50796503 0.50967503 -0.134598
0.347913 0.51371902 -0.13472401
0.35391301 0.51436102 -0.13211501
0.35925499 0.51463997 -0.134198
0.36854601 0.51117098 -0.132028
0.375884 0.51485699 -0.13481501
0.355885 0.51877803 -0.130413
0.49113601 0.516204 -0.130053
0.50826097 0.51872349 -0.13143501
0.35875201 0.52349299 -0.133524
0.47860599 0.52272701 -0.13067099
0.49304551 0.52344799 -0.13118601
0.50916398 0.52446002 -0.132845
0.356895 0.52761197 -0.13236199
0.3719345 0.53045547 -0.13159001
0.37989399 0.53333098 -0.131736
0.482007 0.53442597 -0.130042
0.3757 0.53594297 -0.134239
0.46974799 0.53965801 -0.133431
0.491759 0.53616655 -0.13040251
0.463175 0.54254854 -0.13370201
0.47956699 0.54023898 -0.134655
0.49732 0.54318303 -0.130943
0.37840101 0.54885602 -0.13388699
0.39996201 0.54825503 -0.134123
0.479752 0.54901099 -0.134442
0.49206701 0.54509997 -0.133581
0.37441 0.55043399 -0.13335399
0.38371599 0.55184501 -0.130583
0.39057699 0.55050898 -0.133788
0.469109 0.55216599 -0.132562
0.471396 0.55797398 -0.130988
0.47643101 0.55665499 -0.13096601
0.38788399 0.56069702 -0.13222399
0.465157 0.56001002 -0.13073701
0.39426899 0.56773502 -0.13169099
0.403786 0.565005 -0.132175
0.47320399 0.56785101 -0.13352799
0.40249899 0.57400501 -0.13212299
0.47959799 0.57222801 -0.132797
0.45107299 0.57872897 -0.134317
0.51066399 0.49914199 -0.12588
0.526003 0.499446 -0.127205
0.49354199 0.50489002 -0.128304
0.50632954 0.50243002 -0.1278345
0.52266097 0.50440198 -0.125848
0.35337901 0.50972998 -0.12915801
0.35563999 0.51067698 -0.12885
0.49399301 0.51245302 -0.128672
0.50419098 0.51219797 -0.129252
0.36061999 0.52494597 -0.12985
0.3575455 0.52867699 -0.12681749
0.476217 0.52987301 -0.12667499
0.50932401 0.52530903 -0.125581
0.49766499 0.53338802 -0.126239
0.35938501 0.536843 -0.12783401
0.47811899 0.53993899 -0.126009
0.48816901 0.53913599 -0.12918
0.50501102 0.53949398 -0.126139
0.49757701 0.541655 -0.12846801
0.361036 0.54741901 -0.128124
0.37658301 0.54752398 -0.129246
0.38666201 0.54525697 -0.128922
0.49158499 0.54593599 -0.126735
0.375949 0.55078 -0.125855
0.38400099 0.55431998 -0.126873
0.47335401 0.55144399 -0.12535299
0.48650301 0.55451298 -0.126908
0.37888801 0.55692601 -0.12764101
0.47160101 0.55755401 -0.128711
0.49486601 0.55614799 -0.12707201
0.38019401 0.56473202 -0.127123
0.39041099 0.56199002 -0.126945
0.478591 0.56011099 -0.12744001
0.46032399 0.56934798 -0.128674
0.38576001 0.573632 -0.1269635
0.39438501 0.574422 -0.12624501
0.45969099 0.57465899 -0.12604401
0.47242549 0.57407451 -0.128793
0.51827598 0.496218 -0.123093
0.52383202 0.497327 -0.12154
0.53553498 0.49789801 -0.12442
0.339268 0.50479698 -0.122489
0.34677249 0.501719 -0.122937
0.49337399 0.50064301 -0.123054
0.49565101 0.50166398 -0.122129
0.49091199 0.51422697 -0.120232
0.4960885 0.51771802 -0.1232615
0.50335002 0.51992399 -0.12067
0.50740403 0.516258 -0.123726
0.52135402 0.51612598 -0.123555
0.343739 0.52376002 -0.120815
0.35808849 0.52308404 -0.1203175
0.482108 0.529145 -0.12159
0.49917799 0.52881598 -0.12121
0.359943 0.53213501 -0.120764
0.36262 0.53144801 -0.124249
0.37480399 0.53488302 -0.124011
0.47240999 0.53421497 -0.120519
0.48638499 0.53354102 -0.122032
0.51117599 0.53727901 -0.121046
0.34859499 0.54155302 -0.120162
0.362589 0.54453802 -0.124704
0.365266 0.54164302 -0.120758
0.480719 0.54341501 -0.121202
0.35668299 0.54513901 -0.121137
0.371178 0.54598498 -0.120593
0.45844099 0.54729301 -0.124678
0.48505399 0.547916 -0.12471
0.3666285 0.550762 -0.1215755
0.37842801 0.553119 -0.122831
0.45747399 0.55205202 -0.122887
0.47731599 0.55378503 -0.123586
0.483989 0.55031902 -0.122545
0.37366 0.55958301 -0.120848
0.37703699 0.55897498 -0.121714
0.45822999 0.55512798 -0.120321
0.48569149 0.55717051 -0.1227675
0.366119 0.56173003 -0.122555
0.37739599 0.56441802 -0.123748
0.385901 0.56119299 -0.120728
0.38087401 0.56743097 -0.122747
0.461871 0.56846601 -0.122217
0.38167 0.574287 -0.123959
0.46275401 0.57396102 -0.122254
0.50228 0.49854001 -0.115784
0.51656097 0.49766001 -0.118255
0.53735602 0.499129 -0.117098
0.33892548 0.50322902 -0.1169605
0.50687999 0.50201899 -0.117911
0.51925701 0.50155902 -0.117313
0.32213199 0.506239 -0.115034
0.327223 0.50928998 -0.116671
0.33385199 0.50890601 -0.115621
0.33779299 0.507972 -0.117375
0.34062901 0.50540501 -0.115223
0.50671399 0.50632501 -0.118074
0.33723 0.51008302 -0.115456
0.34199601 0.51202101 -0.119899
0.34793299 0.51457 -0.11742
0.507855 0.51030898 -0.117624
0.51618898 0.51354802 -0.119786
0.52103698 0.51339799 -0.118652
0.33234099 0.51671702 -0.118318
0.34328401 0.51982599 -0.115433
0.48734501 0.51637799 -0.118152
0.49941599 0.51563698 -0.118711
0.34303799 0.52314401 -0.119414
0.4931145 0.52383852 -0.1166935
0.49829099 0.522497 -0.119487
0.50771302 0.52661598 -0.119185
0.51047301 0.52721798 -0.115568
0.36778599 0.53369403 -0.116051
0.490058 0.53489101 -0.11636
0.50993299 0.53320801 -0.1192
0.51951599 0.534082 -0.116913
0.35489601 0.53756601 -0.117623
0.35629201 0.53525603 -0.116187
0.493559 0.53534698 -0.117653
0.346838 0.54167199 -0.116236
0.36357301 0.54188901 -0.116857
0.380308 0.54210699 -0.117477
0.506383 0.54062599 -0.117924
0.36314899 0.549694 -0.118334
0.46959499 0.54865003 -0.118781
0.47731799 0.54853702 -0.116053
0.48815849 0.54833198 -0.11789849
0.492448 0.55420601 -0.117544
0.3641355 0.55610752 -0.1177465
0.476291 0.55941403 -0.119661
0.467868 0.5623185 -0.1167285
0.37323099 0.56641299 -0.117869
0.46814251 0.56771696 -0.118747
0.47351998 0.56756651 -0.117191
0.36853799 0.571998 -0.11954
0.37043399 0.57008302 -0.117862
0.38142401 0.57020998 -0.119124
0.49998999 0.49391499 -0.110578
0.31953999 0.49509501 -0.110948
0.326783 0.49666601 -0.110095
0.34053901 0.49959999 -0.114559
0.50650603 0.49972799 -0.112753
0.51137501 0.497473 -0.114386
0.32668099 0.50051898 -0.112275
0.33292001 0.50218999 -0.112496
0.517443 0.50313199 -0.112141
0.32962701 0.50852001 -0.112648
0.50624597 0.50966603 -0.111933
0.342228 0.511114 -0.110243
0.50361902 0.51068598 -0.113081
0.51804602 0.514651 -0.11192
0.52116501 0.51039398 -0.113898
0.34388101 0.516231 -0.112376
0.35082501 0.516487 -0.114251
0.34168199 0.521716 -0.113306
0.49730599 0.52454001 -0.112064
0.50217903 0.52222198 -0.11441
0.34115201 0.52583098 -0.114698
0.35554099 0.52629799 -0.111315
0.35156301 0.53269899 -0.114499
0.49155599 0.53218299 -0.1117725
0.50835651 0.53289855 -0.110807
0.52503198 0.53137398 -0.11115
0.34676301 0.53626299 -0.113319
0.35246101 0.53557998 -0.113094
0.34539801 0.54070997 -0.110076
0.47116199 0.54116499 -0.114079
0.48017299 0.54474598 -0.112731
0.492576 0.54475701 -0.113557
0.49753648 0.5427255 -0.1137865
0.506338 0.54307097 -0.111315
0.36041501 0.54569501 -0.114394
0.46621299 0.54570299 -0.110367
0.500036 0.54984099 -0.112247
0.35028699 0.55294597 -0.111254
0.371571 0.55207902 -0.113129
0.47367001 0.55053598 -0.111965
0.49834999 0.550457 -0.114737
0.358053 0.55846202 -0.114663
0.48073399 0.55830902 -0.110313
0.486938 0.556256 -0.11271
0.49333 0.55626899 -0.113458
0.36397201 0.56406802 -0.111731
0.37380299 0.56484699 -0.111714
0.37504801 0.56017703 -0.110935
0.451278 0.56353998 -0.112735
0.47850001 0.56237602 -0.110901
0.46794999 0.56514198 -0.113688
0.47993201 0.56766802 -0.114976
0.492825 0.56631202 -0.112022
0.52848399 0.488509 -0.108046
0.53330702 0.487802 -0.106668
0.31302699 0.49373099 -0.10563
0.31751299 0.49356899 -0.10577
0.50374103 0.490017 -0.107046
0.51537699 0.49458399 -0.106137
0.52726251 0.49395749 -0.1060475
0.31352901 0.497554 -0.107131
0.32907599 0.50433201 -0.105159
0.51943499 0.50019598 -0.107475
0.32181901 0.50826901 -0.107952
0.52042001 0.50758499 -0.106965
0.32315499 0.51324701 -0.107799
0.33004701 0.51327997 -0.107886
0.346001 0.511379 -0.107632
0.496084 0.510028 -0.105632
0.50269097 0.51256901 -0.109443
0.51317102 0.51261503 -0.108707
0.50901198 0.51870197 -0.105231
0.34317899 0.520612 -0.107214
0.49508101 0.52207398 -0.109403
0.33254799 0.52889103 -0.109651
0.481148 0.52786499 -0.108
0.49320301 0.52684301 -0.10941
0.33956599 0.53380102 -0.106905
0.49400201 0.53281701 -0.105191
0.48195601 0.53807801 -0.107036
0.499026 0.53774899 -0.106656
0.50872499 0.53530699 -0.105988
0.52118099 0.535317 -0.109113
0.51070201 0.54195601 -0.105555
0.33691201 0.54993099 -0.106024
0.50630403 0.54830199 -0.107647
0.350694 0.55015701 -0.10804
0.35967401 0.55286503 -0.109654
0.48113301 0.55219102 -0.106943
0.34916499 0.55996001 -0.106808
0.35329399 0.55532598 -0.106662
0.36434701 0.55838698 -0.105498
0.48501301 0.55911601 -0.109187
0.48115399 0.56065899 -0.10768
0.46866301 0.56594801 -0.109117
0.48055601 0.56559902 -0.107581
0.50925303 0.489153 -0.102019
0.51840198 0.48969701 -0.101299
0.53549051 0.4895215 -0.1019485
0.551884 0.489052 -0.100553
0.300376 0.494589 -0.101988
0.51101899 0.49219 -0.103265
0.51866102 0.490805 -0.104724
0.52461302 0.49472499 -0.104745
0.304344 0.495536 -0.102123
0.30536699 0.49899399 -0.101512
0.52949399 0.49887499 -0.103895
0.30774099 0.50013697 -0.104796
0.53722101 0.50448298 -0.100849
0.32926399 0.50891799 -0.100828
0.50711501 0.50772297 -0.100187
0.516967 0.506271 -0.104267
0.52157998 0.50510502 -0.103635
0.53306353 0.50793099 -0.10402299
0.32208401 0.51355004 -0.1021345
0.50599098 0.51129103 -0.103191
0.51375598 0.51209301 -0.101969
0.51645899 0.51028597 -0.100474
0.52255654 0.51009703 -0.10158449
0.32840699 0.51788098 -0.103986
0.33601201 0.51585102 -0.102527
0.33216149 0.52171052 -0.1033975
0.49665999 0.52378398 -0.100196
0.52183598 0.52449298 -0.101075
0.328998 0.52676499 -0.104041
0.34292102 0.53302997 -0.103145
0.331413 0.53528202 -0.101508
0.34627399 0.53803003 -0.104756
0.48699099 0.53804898 -0.100108
0.50538403 0.53858697 -0.102886
0.35233599 0.54150099 -0.100768
0.48397401 0.54176903 -0.103501
0.51454097 0.544429 -0.103022
0.331081 0.54750901 -0.101143
0.33669999 0.547171 -0.103499
0.351964 0.54556602 -0.102523
0.34725299 0.550448 -0.101978
0.353026 0.55066502 -0.101104
0.36398801 0.55066597 -0.102598
0.380723 0.550883 -0.103219
0.46610701 0.55245697 -0.101483
0.48020601 0.55322099 -0.100204
0.50173599 0.55094701 -0.1039
0.34939799 0.55562299 -0.102231
0.46944299 0.55764198 -0.104131
0.47396001 0.55595201 -0.103429
0.49052301 0.55621803 -0.103959
0.54418099 0.483843 -0.097360998
0.56728601 0.48185599 -0.097721003
0.52652699 0.48715699 -0.098329
0.539235 0.487618 -0.097452
0.54282498 0.48909101 -0.098898999
0.52878702 0.49414101 -0.099587001
0.53215599 0.494068 -0.096876003
0.53892499 0.494809 -0.099799
0.315974 0.49673 -0.097493
0.52274597 0.49826252 -0.098614
0.32460201 0.50236797 -0.098007001
0.49756601 0.50115401 -0.097801
0.316111 0.50595301 -0.095684998
0.50785148 0.50717247 -0.097639002
0.51852697 0.50578201 -0.096138999
0.328206 0.511994 -0.099331997
0.520576 0.51290798 -0.098448999
0.31702399 0.51898098 -0.096003003
0.50622398 0.51599199 -0.097644001
0.51823902 0.51558501 -0.099408001
0.332122 0.52178502 -0.095903002
0.33779499 0.52095699 -0.096865997
0.489887 0.52151501 -0.095481001
0.50182801 0.52019 -0.097985998
0.33265501 0.52529103 -0.098750003
0.51111698 0.52732199 -0.095072001
0.48930299 0.53366899 -0.097930998
0.498469 0.53298199 -0.099600002
0.51059502 0.53096598 -0.099933997
0.33082598 0.53917599 -0.097298503
0.47495201 0.53935301 -0.097847998
0.49351901 0.54253298 -0.096629001
0.50354099 0.54209697 -0.095523998
0.51014698 0.54274899 -0.097245999
0.52016002 0.54239798 -0.097750999
0.51653302 0.54563701 -0.095089003
0.49773201 0.55206102 -0.098415002
0.50431103 0.55316401 -0.096371002
0.35279301 0.55875999 -0.095918
0.47745699 0.55955702 -0.096518002
0.48289999 0.55826497 -0.099454999
0.48935899 0.557347 -0.099065997
0.35291299 0.56148702 -0.099614002
0.469221 0.56113303 -0.097920999
0.49506 0.56018698 -0.098356001
0.51051801 0.48335901 -0.094499998
0.52608198 0.48433799 -0.090144999
0.537673 0.480966 -0.093828
0.55854899 0.4849 -0.091155
0.29448101 0.48683801 -0.090003997
0.30908099 0.489537 -0.093194999
0.52203298 0.48781601 -0.093585998
0.55336601 0.48774099 -0.090708002
0.291392 0.49119499 -0.091297999
0.31195349 0.4926765 -0.092931494
0.52712148 0.4927265 -0.093947001
0.536654 0.492872 -0.090770997
0.541345 0.49086401 -0.094968997
0.31177801 0.49718201 -0.094834
0.54520398 0.49727699 -0.094750002
0.30179101 0.50282049 -0.0912055
0.31509 0.50218803 -0.093713999
0.52284002 0.50353199 -0.092444003
0.528418 0.50316799 -0.092492998
0.55402303 0.50138199 -0.094733
0.30578199 0.50989097 -0.090354003
0.31193501 0.50655198 -0.090664998
0.323888 0.50901997 -0.091338001
0.53200102 0.50715899 -0.091719002
0.51437998 0.51148802 -0.094879001
0.31308299 0.51713902 -0.092105001
0.318288 0.51883399 -0.091412999
0.498339 0.51660401 -0.092497997
0.51700699 0.51784199 -0.092389002
0.53008699 0.51547801 -0.090764001
0.32356399 0.52191103 -0.093722001
0.34511799 0.52058899 -0.093009003
0.51016802 0.52709597 -0.092837997
0.32625699 0.53210199 -0.093668997
0.50099802 0.534729 -0.091495998
0.32277501 0.53876001 -0.091343001
0.48207599 0.53527403 -0.092338003
0.49063 0.53500003 -0.090949997
0.327234 0.54036802 -0.090461999
0.33749151 0.54233152 -0.093522504
0.489712 0.54313803 -0.090893999
0.4933295 0.54194051 -0.092299998
0.478829 0.54632801 -0.090884
0.48180401 0.54701102 -0.092482999
0.49534801 0.54971498 -0.090366997
0.477943 0.552984 -0.094255
0.50366002 0.55304497 -0.090457998
0.339169 0.55712348 -0.092879996
0.35280901 0.55614603 -0.094962001
0.501432 0.55932599 -0.094249003
0.55877697 0.47860599 -0.08867
0.56389999 0.47829002 -0.088708997
0.27913201 0.48178399 -0.085199997
0.281679 0.48181501 -0.085868001
0.28667599 0.483942 -0.087612003
0.55117297 0.48062751 -0.088778004
0.539258 0.48513299 -0.087623999
0.544595 0.48793751 -0.086716995
0.57310098 0.48841801 -0.085377
0.284154 0.49387801 -0.085068002
0.30197752 0.49378401 -0.087092504
0.53428698 0.49223199 -0.085597999
0.50726801 0.49904001 -0.087380998
0.51825303 0.498458 -0.087025002
0.53497452 0.4985075 -0.087501004
0.28979802 0.5012635 -0.085998505
0.29724899 0.50383699 -0.087454997
0.305356 0.50422698 -0.088927001
0.30206999 0.50890601 -0.087426998
0.51740301 0.50916195 -0.086026996
0.491391 0.51229203 -0.088555999
0.53380901 0.514741 -0.086273
0.50308549 0.51749396 -0.086816996
0.51244098 0.51683903 -0.087532997
0.51716202 0.51562899 -0.089688003
0.522394 0.51941901 -0.086707003
0.528126 0.51962698 -0.089241996
0.31481799 0.52374101 -0.088072002
0.32284233 0.52215338 -0.087598659
0.51899898 0.524225 -0.085931003
0.52172601 0.521254 -0.086126998
0.33139601 0.52629697 -0.089830004
0.50044602 0.52758598 -0.086171001
0.30852699 0.53014201 -0.087235004
0.33249998 0.53066701 -0.087601006
0.49380901 0.53135097 -0.087485
0.522246 0.533158 -0.086998001
0.314441 0.53742898 -0.08941
0.321529 0.535725 -0.089149997
0.53401601 0.53649402 -0.087854996
0.33260399 0.54392397 -0.088748001
0.34320101 0.54342502 -0.087981999
0.499632 0.54142398 -0.087135002
0.531331 0.54032701 -0.086277999
0.32679 0.54981399 -0.086014003
0.33688599 0.54930902 -0.085486002
0.48352501 0.54526299 -0.086457998
0.35310999 0.550304 -0.087038003
0.509565 0.55477601 -0.089129999
0.537476 0.474904 -0.083196998
0.282159 0.478872 -0.080596
0.27359599 0.480993 -0.082497001
0.29207599 0.484312 -0.081180997
0.52868903 0.481047 -0.081035003
0.56442201 0.48224899 -0.084156998
0.56536198 0.48020899 -0.082175002
0.26580301 0.48582199 -0.080863997
0.53991902 0.48897299 -0.083921
0.55096102 0.48753399 -0.081671998
0.55688602 0.48820701 -0.084775999
0.30242699 0.49357599 -0.082358003
0.52954501 0.49017999 -0.084113002
0.53959697 0.49402201 -0.083527997
0.51356101 0.49732801 -0.080594003
0.51793599 0.49728701 -0.082591504
0.52421248 0.4979955 -0.083630502
0.52636302 0.49843499 -0.080149002
0.53856498 0.49934101 -0.084700003
0.54115903 0.497751 -0.083111495
0.284199 0.50154901 -0.082695998
0.30769101 0.501782 -0.083348997
0.31159899 0.506446 -0.084289998
0.52819699 0.50549054 -0.082261994
0.54560798 0.50583303 -0.080848999
0.30393499 0.51210201 -0.082362004
0.318694 0.51435202 -0.084238999
0.32372499 0.511518 -0.083480999
0.50683898 0.51344699 -0.084164001
0.49862599 0.51516598 -0.082961001
0.51142299 0.51947498 -0.084177002
0.52668101 0.51705301 -0.082486004
0.300046 0.52100903 -0.084844001
0.50932598 0.52278 -0.082282998
0.51648003 0.52253503 -0.082456
0.52071202 0.52872401 -0.083031997
0.32705799 0.530936 -0.080139004
0.33150101 0.53301603 -0.083356999
0.49741 0.53071302 -0.084039003
0.50638098 0.53480399 -0.082363002
0.324422 0.539792 -0.084765002
0.49400699 0.536524 -0.080991
0.50128299 0.53521502 -0.081536002
0.50554597 0.53891802 -0.083097003
0.32537299 0.541417 -0.083182
0.49155 0.5402 -0.080286004
0.50762302 0.541224 -0.08134
0.523646 0.542207 -0.082873002
0.328578 0.54866397 -0.080372997
0.48459899 0.546215 -0.081703998
0.50358802 0.54841298 -0.084004998
0.51055902 0.55146998 -0.083077997
0.515288 0.55342197 -0.084352002
0.54905897 0.47413701 -0.075902
0.55463201 0.47292101 -0.079530999
0.57258052 0.47215402 -0.077922501
0.27474499 0.47898 -0.079561003
0.52849698 0.479491 -0.078226
0.58451498 0.47941399 -0.075470999
0.28264499 0.48470801 -0.079144999
0.55759901 0.48181099 -0.075678997
0.286621 0.48828599 -0.075240999
0.29528901 0.48875499 -0.077693999
0.52287 0.48607901 -0.078791998
0.54477298 0.48565 -0.075870998
0.54653847 0.48794252 -0.075410999
0.55187601 0.48908901 -0.076701999
0.56368899 0.48780701 -0.077198997
0.298123 0.49349499 -0.077884004
0.30029899 0.49120399 -0.079680003
0.540389 0.49333701 -0.075511001
0.54580897 0.492246 -0.079929002
0.53819102 0.49905699 -0.078500003
0.55439246 0.4955475 -0.077775501
0.28649551 0.50233001 -0.076783001
0.31121799 0.502886 -0.079602003
0.53174597 0.50307697 -0.077068999
0.303397 0.50771099 -0.077334002
0.30047399 0.51141298 -0.077596001
0.30595499 0.51215196 -0.077413499
0.50997198 0.51024699 -0.075094
0.51412398 0.51001102 -0.077247001
0.51858002 0.51378101 -0.078245997
0.52941197 0.51170301 -0.079533003
0.51631403 0.51726401 -0.079153001
0.31458101 0.52073699 -0.076504998
0.49728501 0.52823102 -0.078399003
0.50635499 0.52789599 -0.078927003
0.51316953 0.52712655 -0.076777503
0.31600201 0.532332 -0.075387999
0.32518601 0.53246897 -0.075203001
0.32677901 0.53674197 -0.077133998
0.323616 0.54427898 -0.077096999
0.32578999 0.54112399 -0.077010997
0.48759601 0.54255599 -0.078184001
0.51310301 0.54378599 -0.079534002
0.31029499 0.54740298 -0.075594001
0.32231301 0.54686099 -0.075485997
0.32538599 0.54725403 -0.079769
0.477658 0.545798 -0.078390002
0.509049 0.54617101 -0.077815004
0.56684399 0.470406 -0.072094001
0.265028 0.48440701 -0.073950998
0.27751899 0.48318133 -0.071299337
0.28551999 0.48487401 -0.071768999
0.54970098 0.48106101 -0.074514002
0.55358601 0.48315001 -0.074160002
0.56526703 0.482196 -0.072572
0.27294201 0.48536801 -0.070802003
0.276164 0.489346 -0.071114004
0.54543 0.48615 -0.073839001
0.563501 0.48656401 -0.073627003
0.27229699 0.49184999 -0.073894002
0.27587801 0.491566 -0.071301997
0.28105 0.49262899 -0.074276
0.52265799 0.49226201 -0.071787998
0.55968601 0.491923 -0.074009001
0.56554598 0.49040699 -0.072111003
0.51729298 0.49759001 -0.070767999
0.53746849 0.49953902 -0.072193503
0.55271399 0.499203 -0.073407002
0.55728799 0.49671 -0.070960999
0.573502 0.496921 -0.071562
0.284558 0.50243402 -0.071167
0.302614 0.50256699 -0.074081004
0.526833 0.5022285 -0.072193995
0.54068899 0.50423896 -0.071748495
0.29238901 0.50842202 -0.073951997
0.296938 0.50775701 -0.074686997
0.51365799 0.50674897 -0.071542002
0.51810497 0.50721902 -0.072751999
0.53440702 0.5081917 -0.072202668
0.290802 0.51119399 -0.073403001
0.30193201 0.51245701 -0.073914997
0.29877201 0.51881897 -0.073340997
0.30722401 0.51616102 -0.071088001
0.52204698 0.51665199 -0.071684003
0.28872001 0.52292502 -0.072438002
0.30549347 0.52122098 -0.072731003
0.50062698 0.52465302 -0.074863002
0.51158798 0.52150297 -0.074412003
0.53039598 0.52499902 -0.071698003
0.298614 0.52701598 -0.071650997
0.301229 0.52960002 -0.072159
0.50421399 0.52983499 -0.073752001
0.50852603 0.52694601 -0.070669003
0.51618898 0.52585697 -0.070325002
0.52103251 0.52843297 -0.072907999
0.30386901 0.53007698 -0.074157
0.30952501 0.53073698 -0.072861999
0.31345999 0.53439301 -0.073962003
0.306555 0.53996098 -0.072695002
0.317994 0.538836 -0.073399
0.31208599 0.54425597 -0.074568003
0.49299201 0.541237 -0.070092
0.52265501 0.54182202 -0.072920002
0.52914399 0.547517 -0.074455999
0.560597 0.46645099 -0.067341998
0.576047 0.467399 -0.06882
0.27390599 0.47446001 -0.069381997
0.52407098 0.470045 -0.069408
0.53628951 0.47370952 -0.067094997
0.56977898 0.47329301 -0.069182999
0.57032001 0.475683 -0.065081
0.53550398 0.48472399 -0.068657003
0.56000102 0.481121 -0.06763
0.27753201 0.48817301 -0.068912506
0.52668798 0.48884499 -0.068221003
0.264938 0.49485201 -0.066527002
0.292831 0.49290001 -0.067786001
0.5223 0.490978 -0.068074003
0.54605299 0.49773899 -0.067969002
0.28034499 0.50202602 -0.067194
0.29789901 0.50382102 -0.069905996
0.53501397 0.50420099 -0.069695003
0.54361397 0.50107402 -0.068797998
0.55401099 0.50363702 -0.065843001
0.52255601 0.50692999 -0.069050997
0.52820647 0.50740695 -0.066909499
0.53026497 0.50715703 -0.069847003
0.54284501 0.50793499 -0.068340003
0.277531 0.51148099 -0.068219997
0.28225401 0.51123798 -0.068351001
0.527403 0.51252502 -0.066448003
0.53206903 0.51017898 -0.069843002
0.54601198 0.51438999 -0.066947997
0.3067925 0.51797748 -0.066533498
0.304342 0.52071202 -0.068373002
0.503941 0.52146202 -0.065847002
0.52807802 0.52159202 -0.067442
0.53860748 0.52258253 -0.067096502
0.286457 0.526869 -0.068930998
0.50774002 0.52780449 -0.069547504
0.51007801 0.52882499 -0.068935998
0.53497601 0.528494 -0.068709001
0.30879101 0.53572601 -0.068130001
0.49283499 0.53765249 -0.067356497
0.51443702 0.53929698 -0.065173
0.51577097 0.53899902 -0.069236003
0.52591097 0.53761601 -0.068862997
0.29181999 0.54242003 -0.069022998
0.50738698 0.543441 -0.069247
0.57659101 0.46971101 -0.062454998
0.582461 0.46624401 -0.064404003
0.25361499 0.47311601 -0.062252
0.257388 0.47460601 -0.060322002
0.53971899 0.47094199 -0.064900003
0.55526 0.47365868 -0.061320335
0.583929 0.47288901 -0.063199997
0.27303401 0.47839001 -0.064797997
0.54635298 0.478863 -0.064139999
0.55811 0.47832099 -0.064335003
0.57472098 0.47553399 -0.060832001
0.57957399 0.47685799 -0.063472003
0.26504701 0.48159799 -0.061305001
0.28042799 0.48298299 -0.062026002
0.54979998 0.48256999 -0.062748
0.55265999 0.482741 -0.064990997
0.55657297 0.48006701 -0.06208
0.56981701 0.48075801 -0.061326001
0.26221499 0.48516801 -0.063717999
0.56410402 0.48500699 -0.061018001
0.58491498 0.48786399 -0.061742
0.26542899 0.49291 -0.060136002
0.27203199 0.49110901 -0.060061999
0.54878098 0.494023 -0.060943998
0.552544 0.493103 -0.063083
0.55813402 0.49228799 -0.060688999
0.28020099 0.495547 -0.061207
0.288672 0.496696 -0.063391998
0.53965199 0.49774399 -0.062367
0.54038501 0.49610201 -0.06202
0.54722035 0.49756801 -0.061039332
0.56029999 0.49799401 -0.062724002
0.56667 0.49856499 -0.060066
0.26320201 0.504713 -0.060903002
0.27330199 0.50048798 -0.060777999
0.28222001 0.50111997 -0.061739001
0.29393601 0.50346702 -0.064668
0.51662701 0.50347799 -0.062541999
0.54151899 0.50154102 -0.063396998
0.51171702 0.50910097 -0.062743999
0.55002898 0.50539899 -0.062758997
0.28326499 0.51074702 -0.064212002
0.291704 0.51323402 -0.060952999
0.52683902 0.51328301 -0.063367002
0.53476799 0.51052302 -0.061085999
0.54655498 0.510391 -0.064699002
0.29339248 0.51835346 -0.0613565
0.515118 0.51854599 -0.064286999
0.52273101 0.51542097 -0.062652998
0.53452599 0.51553702 -0.063692003
0.28358501 0.52049702 -0.063695997
0.29617399 0.52313298 -0.064480998
0.51432002 0.52403098 -0.064047001
0.52002001 0.52111602 -0.064098001
0.29817101 0.53323901 -0.060213
0.30043799 0.53128898 -0.062893003
0.50581002 0.53309798 -0.062940001
0.53017598 0.53362501 -0.060074002
0.30785999 0.53902602 -0.064953998
0.50832599 0.536677 -0.061793
0.52881801 0.53968197 -0.060001001
0.317186 0.540923 -0.062702999
0.54299998 0.54161298 -0.064560004
0.591052 0.46160901 -0.055525001
0.598077 0.462082 -0.056713998
0.606969 0.461817 -0.056115001
0.252942 0.46935999 -0.059726998
0.542 0.467509 -0.055932
0.258468 0.47452301 -0.056954999
0.55986798 0.47371301 -0.059080001
0.56084901 0.47366199 -0.055507999
0.569713 0.47418499 -0.056680001
0.57232106 0.47350502 -0.057714999
0.25053099 0.47891399 -0.058132
0.26267001 0.47877499 -0.056972999
0.255375 0.48420399 -0.057635002
0.274656 0.482995 -0.056067999
0.53227246 0.48338801 -0.0555765
0.56261402 0.480584 -0.057994001
0.24448501 0.48613799 -0.057372
0.52931398 0.48549399 -0.059237
0.27499399 0.49377799 -0.058952998
0.56036001 0.492401 -0.058869999
0.27281001 0.49975801 -0.057298001
0.27873299 0.49769899 -0.059730999
0.28041199 0.49508101 -0.058194
0.55358446 0.497926 -0.058319502
0.56262398 0.49571401 -0.059101
0.53224498 0.50423902 -0.057813998
0.565754 0.50120801 -0.055015001
0.55768901 0.50521302 -0.057146002
0.57390398 0.50542402 -0.057748001
0.26864699 0.51077801 -0.056660999
0.274005 0.510355 -0.057176001
0.284962 0.51099098 -0.057266001
0.29337099 0.51406503 -0.057454001
0.52700198 0.51138902 -0.056529999
0.542198 0.51306999 -0.058803
0.55276901 0.51469898 -0.057801001
0.51795602 0.51598001 -0.058479
0.523049 0.51911801 -0.057624999
0.53264302 0.51759899 -0.057837997
0.54833603 0.515351 -0.057677001
0.51887202 0.522434 -0.056336001
0.54039699 0.52157903 -0.055991001
0.29547399 0.528732 -0.059255999
0.30490699 0.53094602 -0.056171
0.49790999 0.53267801 -0.056600999
0.538719 0.53144598 -0.058192
0.28764099 0.53546 -0.056246001
0.29440549 0.53725201 -0.057908498
0.30306649 0.53854251 -0.059632499
0.31054199 0.53947997 -0.059585001
0.50967598 0.53529102 -0.058347002
0.52061701 0.53796202 -0.057266999
0.52698398 0.53525603 -0.057122
0.237902 0.46561 -0.050206002
0.24255 0.46577603 -0.053220503
0.246243 0.46944401 -0.051964
0.25576699 0.469385 -0.050260998
0.55809152 0.467942 -0.052750997
0.56944299 0.46859199 -0.053376999
0.57123101 0.467013 -0.051569998
0.58304101 0.46955499 -0.054482002
0.58837301 0.46593201 -0.050131001
0.25324699 0.47272199 -0.051346999
0.561333 0.474834 -0.054265998
0.58092099 0.47150201 -0.054637998
0.58973801 0.47128001 -0.053787
0.59388101 0.47152001 -0.054373
0.23601501 0.47623 -0.054960001
0.57823002 0.47642201 -0.050303999
0.26503399 0.48489401 -0.053792
0.54926902 0.48309201 -0.050942998
0.57822001 0.48467299 -0.054985002
0.2677395 0.48801249 -0.052831501
0.54915154 0.48772699 -0.052786
0.55796301 0.48697099 -0.050243001
0.565265 0.48697501 -0.052485
0.25183401 0.49421799 -0.052451
0.25669801 0.49288699 -0.050025001
0.26131499 0.49085999 -0.054513
0.26848501 0.49165601 -0.052450001
0.53353202 0.49454299 -0.054118
0.55074203 0.49211049 -0.050529502
0.55561298 0.49157199 -0.053778999
0.56608403 0.491956 -0.051081002
0.58732098 0.49019799 -0.051543001
0.558429 0.496721 -0.052852001
0.264072 0.503883 -0.052189998
0.293585 0.50148797 -0.054389998
0.533903 0.50448197 -0.053954002
0.53615898 0.50110501 -0.054283999
0.54748899 0.50439501 -0.050487
0.55197501 0.50347698 -0.051980998
0.27488199 0.506221 -0.050646
0.53387398 0.50933802 -0.050894
0.54189801 0.50884497 -0.052774999
0.55383998 0.50595599 -0.051089
0.28975001 0.513439 -0.051452
0.51059699 0.51469302 -0.053296
0.537844 0.51481998 -0.050721001
0.54022503 0.51126099 -0.054322999
0.296812 0.51919001 -0.051123999
0.52057099 0.51681602 -0.054412
0.52786398 0.51550603 -0.053521
0.27425501 0.52132702 -0.054228999
0.27920201 0.52052402 -0.050670002
0.28030801 0.520926 -0.054005999
0.307524 0.52462602 -0.053500999
0.50613999 0.520612 -0.054719999
0.530101 0.52273297 -0.052441999
0.53675401 0.524544 -0.052283999
0.28832999 0.52910799 -0.053776
0.50123298 0.52916002 -0.052937999
0.516532 0.52704799 -0.051254001
0.52116299 0.529414 -0.051847
0.544581 0.52825099 -0.050912
0.295479 0.53366899 -0.054473002
0.51341301 0.53361702 -0.051835999
0.52320749 0.53339446 -0.0542055
0.53359097 0.53485203 -0.052636001
0.55685699 0.53570902 -0.054664001
0.613693 0.457919 -0.049024001
0.58094603 0.462791 -0.049550999
0.58579803 0.46465299 -0.048207998
0.594441 0.46415901 -0.048744
0.232017 0.46705151 -0.046634499
0.265367 0.46932 -0.046351999
0.56396502 0.46857899 -0.049187999
0.56768501 0.46651 -0.04854
0.572716 0.46715799 -0.045846999
0.57534599 0.46845999 -0.046877
0.580396 0.46862301 -0.046535999
0.58807403 0.46810001 -0.047316998
0.60724849 0.46720201 -0.046513997
0.561589 0.474704 -0.047194
0.58213598 0.47034401 -0.045090001
0.24980301 0.47679299 -0.046840999
0.53596902 0.47872499 -0.046686001
0.23291001 0.48320001 -0.045247
0.25724199 0.483201 -0.046319
0.56980199 0.484456 -0.045442998
0.57384998 0.484624 -0.046401002
0.25169399 0.48735601 -0.045667998
0.256558 0.488231 -0.046705998
0.26522499 0.48708299 -0.045651998
0.56355399 0.485374 -0.047972001
0.57084101 0.48704299 -0.045538001
0.25814199 0.49222299 -0.047270998
0.26620999 0.49004 -0.048840001
0.27613601 0.492513 -0.049075998
0.56784499 0.49057701 -0.046785999
0.53894103 0.49742901 -0.045186002
0.58531398 0.496315 -0.048013002
0.249617 0.50120199 -0.04572
0.27704501 0.50218803 -0.047104001
0.283245 0.50313199 -0.047511
0.55545199 0.50260699 -0.045168001
0.26879001 0.50691199 -0.046011999
0.274308 0.50912601 -0.047662001
0.28130099 0.50605202 -0.048347
0.52854198 0.507137 -0.0482
0.53599799 0.50655299 -0.048168998
0.54468298 0.505992 -0.046317
0.54568446 0.5073725 -0.047129501
0.56779402 0.506724 -0.048020002
0.25906599 0.512631 -0.046709999
0.26813501 0.51020098 -0.045648001
0.27745599 0.511518 -0.046002999
0.28633201 0.51862502 -0.045258999
0.52617699 0.51552302 -0.048510998
0.54576898 0.51564902 -0.048560001
0.28440201 0.52225602 -0.045915999
0.29376799 0.52169102 -0.049036998
0.28347248 0.527601 -0.048301
0.293726 0.52808702 -0.045972001
0.538993 0.52755499 -0.045196
0.55152702 0.52527601 -0.047520999
0.29096499 0.533494 -0.048613001
0.50056398 0.53212303 -0.046695001
0.51134801 0.53413749 -0.047984499
0.53423798 0.53276801 -0.047283001
0.59726298 0.45227799 -0.042691998
0.62931001 0.45375699 -0.041333999
0.58064598 0.45900401 -0.042576998
0.59696698 0.45868999 -0.042213999
0.61328799 0.45837501 -0.041850999
0.236158 0.46173599 -0.042397998
0.24416099 0.46385801 -0.043333001
0.24567699 0.46485901 -0.044941999
0.25016499 0.463617 -0.042564999
0.58263099 0.46118951 -0.042237498
0.59481698 0.46241 -0.043722998
0.59576201 0.46342701 -0.043883
0.220358 0.46533301 -0.042146999
0.249323 0.46831101 -0.042975999
0.253564 0.46593001 -0.040668
0.55837202 0.465244 -0.041237
0.59301698 0.46781799 -0.043420002
0.24253801 0.47178948 -0.042406499
0.25669101 0.47317299 -0.044449002
0.57529598 0.47441599 -0.041409999
0.59384602 0.47226 -0.042614002
0.607364 0.470164 -0.042553
0.238801 0.47662899 -0.040192001
0.24165399 0.47969401 -0.04053
0.55267096 0.47898352 -0.041536499
0.58266401 0.477716 -0.041917
0.588916 0.47565699 -0.040828999
0.237178 0.48467201 -0.042495001
0.556297 0.48377201 -0.041769002
0.57752001 0.484164 -0.042668
0.58897299 0.48172599 -0.04067
0.275406 0.49153101 -0.042753998
0.543019 0.49436599 -0.041584
0.243625 0.49511001 -0.043127999
0.26336601 0.49926999 -0.042663999
0.271319 0.49970701 -0.041767001
0.54269803 0.498092 -0.041354001
0.55475098 0.49812499 -0.040288001
0.25418901 0.50421202 -0.042821001
0.260306 0.50135398 -0.042773001
0.26822099 0.50310397 -0.043232001
0.55376601 0.50413001 -0.044953998
0.56174701 0.50486302 -0.044574998
0.53963602 0.50740498 -0.044909999
0.55275398 0.50843602 -0.044686001
0.510481 0.513816 -0.041954
0.52990901 0.51237899 -0.044925999
0.54187697 0.51350498 -0.04273
0.54581702 0.51466501 -0.043272998
0.55809098 0.51371598 -0.043331001
0.56149399 0.51145798 -0.040817
0.26930699 0.51811397 -0.041422501
0.27125001 0.51929098 -0.040773001
0.28001201 0.51875699 -0.044571999
0.52798897 0.51987302 -0.043646999
0.54190999 0.51633 -0.043634001
0.26950601 0.52053398 -0.044803001
0.27140799 0.52402902 -0.043203998
0.50805098 0.52246201 -0.040316001
0.52861398 0.52404201 -0.040206999
0.53391147 0.52236247 -0.043246001
0.55898601 0.52287602 -0.041749999
0.27725899 0.52685302 -0.044682998
0.50106603 0.52506298 -0.044578999
0.53230602 0.52651101 -0.044481002
0.54828602 0.52957898 -0.043885998
0.52578402 0.53008902 -0.042105999
0.59353697 0.45377499 -0.036729001
0.595779 0.450225 -0.038275
0.61658901 0.45274299 -0.035502002
0.59795702 0.45706701 -0.035987999
0.2318365 0.46066001 -0.039384998
0.23628999 0.46247301 -0.039122999
0.56446803 0.46124101 -0.038534999
0.56586599 0.46044001 -0.036587
0.58984298 0.463258 -0.038245
0.62249398 0.46084499 -0.036173001
0.220893 0.46798301 -0.037763
0.22991499 0.46616501 -0.037510999
0.22785801 0.47414899 -0.038410999
0.237756 0.47415099 -0.036290001
0.244201 0.47389349 -0.039108001
0.55735099 0.473658 -0.036766
0.58913302 0.474103 -0.035533998
0.59955502 0.47053701 -0.03579
0.25152999 0.47879401 -0.037473999
0.55612898 0.47635299 -0.038242999
0.56768602 0.47813597 -0.038602334
0.57219601 0.475301 -0.038986001
0.222662 0.48198801 -0.039322998
0.25424001 0.48125601 -0.038387001
0.55772901 0.48014 -0.038972002
0.58637202 0.481397 -0.039411001
0.24458 0.48727399 -0.03647
0.55597198 0.48626101 -0.039099999
0.56239247 0.487692 -0.039354503
0.57399899 0.486601 -0.036203001
0.59659702 0.487344 -0.038426999
0.25435099 0.49071801 -0.037039999
0.25820601 0.49740651 -0.035664998
0.26477 0.49807599 -0.038708001
0.54986501 0.49763101 -0.037099998
0.551283 0.49943599 -0.036440998
0.55760598 0.49609149 -0.0377075
0.56020999 0.49826699 -0.039889
0.56975901 0.497269 -0.036068
0.57434398 0.49530199 -0.035783
0.248601 0.50393498 -0.038644001
0.25419399 0.504466 -0.036984999
0.25514099 0.50015497 -0.038116999
0.26090899 0.50024199 -0.036906999
0.54686701 0.50281799 -0.037523501
0.55122602 0.50202399 -0.039928
0.55962998 0.504246 -0.038255498
0.582232 0.50156701 -0.038860999
0.56548798 0.50612599 -0.036366999
0.26320601 0.51291299 -0.037854001
0.53971499 0.51271898 -0.036022998
0.55482203 0.51438999 -0.038282
0.25809699 0.51632702 -0.035629999
0.26341599 0.51975697 -0.0392
0.2658 0.517757 -0.035811
0.52967298 0.51534098 -0.036086001
0.256722 0.52131301 -0.039995
0.52365798 0.52365297 -0.035567001
0.52809602 0.52093297 -0.039421
0.53634751 0.52307701 -0.037965
0.54776704 0.52203548 -0.036587998
0.51858598 0.52670199 -0.039772999
0.52011001 0.52680701 -0.039207999
0.60611397 0.44584599 -0.030011
0.219969 0.458469 -0.032867
0.56923902 0.45833999 -0.034901999
0.58527899 0.45910999 -0.030056
0.59082901 0.45664501 -0.031938002
0.59856546 0.45648098 -0.031456999
0.60848302 0.45729801 -0.033284999
0.615466 0.455028 -0.030748
0.223409 0.46255001 -0.031521998
0.23354751 0.46354049 -0.034220502
0.24176 0.46254101 -0.034983002
0.59098703 0.46391299 -0.032409001
0.62091398 0.46300501 -0.034665
0.58341199 0.46860701 -0.031608
0.60946298 0.46809801 -0.034924001
0.231784 0.474958 -0.032116
0.24619 0.47217399 -0.031615999
0.56721199 0.472848 -0.031518001
0.590707 0.474718 -0.031287
0.244598 0.47758001 -0.032597002
0.25186399 0.47657299 -0.031716999
0.57079297 0.47857001 -0.033137999
0.57843697 0.478376 -0.032094002
0.589782 0.47655201 -0.031661
0.60328001 0.47638801 -0.031571001
0.24712899 0.48154899 -0.03317
0.25743699 0.481657 -0.031215999
0.57586002 0.48198 -0.034807
0.254531 0.48524001 -0.031518999
0.56964499 0.48604101 -0.033268001
0.238341 0.49311399 -0.030030999
0.24067201 0.49211299 -0.032682002
0.247465 0.49285701 -0.030278999
0.561809 0.49038401 -0.033764999
0.56643599 0.49457201 -0.031067999
0.57297897 0.493714 -0.031970002
0.59305799 0.492585 -0.034442
0.24206001 0.49720699 -0.033002
0.249532 0.49645501 -0.030941
0.25269699 0.49750599 -0.034403998
0.56645399 0.49749401 -0.031686999
0.557172 0.50151998 -0.031695001
0.56773603 0.50247598 -0.032966003
0.250018 0.50970501 -0.031904999
0.26541799 0.50767899 -0.030815
0.27415201 0.50775701 -0.031083999
0.53661501 0.50764644 -0.0316815
0.54864699 0.50947797 -0.030928999
0.55123699 0.50774997 -0.030556001
0.577218 0.507267 -0.033073001
0.54619598 0.51430702 -0.032906
0.55488998 0.51228797 -0.032908
0.56184995 0.514 -0.031292498
0.25984201 0.51605099 -0.032232001
0.54209399 0.51551551 -0.031734001
0.55352098 0.51836801 -0.033774
0.25713301 0.522255 -0.032458998
0.26346099 0.52064401 -0.033999
0.273137 0.52110898 -0.03297
0.539419 0.52482301 -0.030726001
0.53965801 0.52585298 -0.034566
0.54150897 0.52589798 -0.034361999
0.59091401 0.44443399 -0.025172001
0.60448498 0.447236 -0.029397
0.204878 0.454539 -0.029455001
0.57116401 0.454431 -0.025907001
0.597103 0.45126849 -0.0272705
0.23612 0.45795199 -0.029121
0.56944102 0.45920101 -0.029556001
0.60434002 0.45805699 -0.029614
0.636801 0.45550701 -0.027074
0.23348901 0.46305299 -0.029478
0.62507898 0.463936 -0.027233001
0.211383 0.46712399 -0.025095999
0.21852 0.46523601 -0.026411001
0.222302 0.46764699 -0.026644001
0.22813433 0.46710932 -0.026354333
0.23266301 0.46928799 -0.027225999
0.562989 0.469614 -0.025543001
0.58050102 0.46754599 -0.028662
0.59243101 0.468564 -0.028073
0.59682202 0.46723101 -0.028299
0.61314303 0.46691599 -0.027935
0.232733 0.47417301 -0.026883001
0.2381015 0.47230703 -0.026448499
0.559744 0.471562 -0.027930001
0.57845098 0.47239199 -0.026598001
0.236313 0.47993401 -0.029269001
0.57308 0.479496 -0.027089
0.23658299 0.48455399 -0.027133999
0.2410785 0.48387402 -0.028082
0.56726402 0.48289001 -0.026869001
0.57350749 0.48229402 -0.026495
0.58961499 0.48243901 -0.028512999
0.237065 0.48994499 -0.029095
0.248946 0.48834699 -0.028976001
0.54937202 0.4885295 -0.028485
0.56281602 0.489647 -0.026546
0.58557498 0.485466 -0.025005
0.22382499 0.49043 -0.026858
0.233954 0.49431801 -0.028719001
0.55149299 0.49170101 -0.028755
0.56214797 0.49143702 -0.027848501
0.57825702 0.49254701 -0.029593
0.58300698 0.491514 -0.025036
0.237985 0.49869201 -0.026186001
0.244693 0.498137 -0.02643
0.260425 0.499102 -0.027935
0.57421601 0.498669 -0.029789999
0.24276499 0.50408202 -0.028883999
0.248757 0.50108802 -0.027876999
0.251739 0.50476098 -0.026376
0.25590399 0.50388002 -0.0283
0.262225 0.50433201 -0.02534
0.27615601 0.500067 -0.029440001
0.263675 0.50826001 -0.026543999
0.54086202 0.50969398 -0.029842
0.55260903 0.50669998 -0.027364001
0.55515599 0.50955898 -0.027292
0.565898 0.506751 -0.026786
0.240759 0.51000297 -0.027093001
0.54683799 0.51247501 -0.026077
0.27926701 0.51769203 -0.026085
0.526806 0.519997 -0.02658
0.570207 0.51528901 -0.0277
0.54227799 0.522008 -0.028914999
0.55717701 0.52225 -0.027203666
0.57340997 0.44622299 -0.023472
0.60147202 0.44997501 -0.023232
0.205981 0.45303699 -0.020269001
0.236881 0.45493299 -0.023225
0.57125401 0.45356601 -0.023944
0.58717197 0.45486501 -0.020892
0.6135 0.4526 -0.023147
0.61883599 0.45285499 -0.020981999
0.62120402 0.45117 -0.022686001
0.218154 0.455762 -0.023614001
0.22273999 0.457178 -0.023830999
0.57914299 0.463999 -0.023220001
0.61077201 0.464414 -0.023953
0.222574 0.4678455 -0.0234305
0.58467698 0.46782601 -0.024572
0.59351403 0.467143 -0.022554001
0.59566599 0.46811399 -0.022461001
0.60342902 0.46858999 -0.020688999
0.22792101 0.47147948 -0.0213935
0.57432997 0.47306901 -0.024236999
0.57898998 0.47045401 -0.020640001
0.58529001 0.473369 -0.024506001
0.61705649 0.47225299 -0.021642499
0.220044 0.476841 -0.023700001
0.58471102 0.475548 -0.022127001
0.605232 0.478277 -0.020823
0.22129001 0.48300701 -0.022738
0.22825401 0.482548 -0.024766
0.58690602 0.48006201 -0.020157
0.59373897 0.482209 -0.024242001
0.223588 0.48693901 -0.023406001
0.23774201 0.48876601 -0.023838501
0.565799 0.48857701 -0.024002001
0.59746498 0.48558301 -0.021385999
0.23815601 0.49266899 -0.024974
0.569583 0.493615 -0.024525
0.58168203 0.49296501 -0.023445001
0.222589 0.49537399 -0.02004
0.56277901 0.49871999 -0.021106999
0.58097899 0.495534 -0.024188999
0.238373 0.50485301 -0.022162
0.24129701 0.50245601 -0.023368999
0.25229901 0.50447398 -0.020577
0.57419699 0.50395203 -0.021691
0.57670498 0.50000298 -0.024529999
0.244629 0.50555998 -0.021619
0.54473603 0.50937599 -0.022911999
0.55243003 0.50890696 -0.024018999
0.564852 0.50747401 -0.022366
0.231784 0.51477998 -0.021543
0.250184 0.51411498 -0.023619
0.546745 0.51219898 -0.021372
0.55149603 0.51323402 -0.023529001
0.55503702 0.51408601 -0.024648
0.263439 0.51672202 -0.024571
0.265201 0.51983202 -0.022971001
0.54507899 0.518938 -0.021848001
0.559672 0.51779801 -0.024817999
0.54069698 0.52115297 -0.023216
0.61496502 0.43941501 -0.017331
0.60116601 0.444888 -0.017601
0.21601599 0.44976699 -0.017138001
0.58744901 0.445629 -0.017219
0.60357898 0.44848901 -0.017764
0.19787 0.45021001 -0.018564001
0.20597151 0.45229951 -0.016940501
0.210384 0.452151 -0.019058
0.59218001 0.45232999 -0.017278999
0.207031 0.45609501 -0.01785
0.210968 0.45555699 -0.017666001
0.56776798 0.45786899 -0.015354
0.59983802 0.457481 -0.019729
0.624017 0.457421 -0.017386001
0.64069498 0.45977399 -0.019543
0.206028 0.46288401 -0.017132999
0.56513202 0.464688 -0.015288
0.59587097 0.46088248 -0.0158785
0.209005 0.46735901 -0.015456
0.22099701 0.46717 -0.018359
0.588884 0.466333 -0.017593
0.59357601 0.467893 -0.018413
0.60294199 0.46954101 -0.01904
0.61212403 0.465076 -0.01647
0.208607 0.47003001 -0.016881
0.213174 0.47024801 -0.015361
0.22415 0.470983 -0.018368
0.230611 0.47395501 -0.015798001
0.2379595 0.47146299 -0.019537501
0.23469201 0.47760499 -0.015508
0.58437097 0.47684699 -0.019095
0.575504 0.482135 -0.016843
0.23290101 0.48974901 -0.018071
0.57647902 0.48813 -0.017651999
0.58497602 0.487425 -0.018445
0.58565301 0.48600999 -0.018691
0.59824347 0.48844552 -0.017104
0.23969699 0.49254 -0.017111
0.55468398 0.49093899 -0.018177999
0.561589 0.49460399 -0.018704001
0.56354398 0.49998301 -0.015039
0.57776499 0.49748999 -0.019154999
0.59098899 0.497794 -0.018502999
0.23247699 0.50019503 -0.017661
0.24052601 0.50070798 -0.018678
0.25029901 0.500907 -0.019595999
0.54525697 0.503263 -0.018538
0.5560205 0.50173104 -0.0180305
0.56787699 0.50343001 -0.016694
0.57210702 0.50280303 -0.017539
0.247315 0.50771099 -0.017140999
0.56206602 0.50794601 -0.017836001
0.225172 0.51416099 -0.016347
0.243163 0.51145703 -0.018712999
0.56390101 0.510216 -0.017705999
0.56999803 0.51300597 -0.019957
0.54198599 0.51785302 -0.017797001
0.54632002 0.51804298 -0.017948
0.57295799 0.51751602 -0.018874999
0.60192198 0.43642101 -0.011712
0.617495 0.43770051 -0.0139525
0.60498798 0.44288301 -0.010476
0.6244145 0.44304749 -0.013943
0.63902199 0.44049701 -0.011827
0.1869615 0.4485805 -0.012488
0.194548 0.44898301 -0.012245
0.57664198 0.44669199 -0.011302
0.61771399 0.448053 -0.011748
0.63333303 0.447653 -0.012351
0.19891751 0.45165151 -0.011833
0.205507 0.45487699 -0.01374
0.590451 0.4535585 -0.0129325
0.18830501 0.45621499 -0.011451
0.20621599 0.45943499 -0.011458
0.217659 0.4570775 -0.012955
0.62198901 0.45829099 -0.012116
0.209169 0.461326 -0.014954
0.22095799 0.46372899 -0.013042
0.59436101 0.46127999 -0.012128
0.61615002 0.46246201 -0.01009
0.20025399 0.46837601 -0.014958
0.224967 0.467242 -0.013314
0.58106798 0.46621701 -0.011532
0.63189399 0.46571201 -0.013371
0.209822 0.47332999 -0.014232
0.223396 0.474785 -0.013615
0.226165 0.47436199 -0.012921
0.59544402 0.47016001 -0.011848
0.620848 0.47411501 -0.013133
0.2088695 0.47797501 -0.012710501
0.223378 0.47826749 -0.010813
0.22685 0.479139 -0.0119715
0.58540499 0.47611001 -0.011651
0.59667701 0.47577199 -0.014383
0.227245 0.48199299 -0.010987
0.56823099 0.48357701 -0.014353501
0.57270098 0.48179701 -0.011225
0.58073699 0.48347899 -0.010767
0.21540301 0.48509601 -0.01304
0.22779849 0.48857549 -0.0129015
0.233225 0.48891199 -0.013455
0.244835 0.48553199 -0.011476
0.55894101 0.48626599 -0.012496
0.57843399 0.487183 -0.011845
0.59223503 0.486651 -0.014839
0.228651 0.49094599 -0.011121
0.23738401 0.493808 -0.012779
0.57412499 0.49187601 -0.013816
0.58624536 0.49351966 -0.012702666
0.210472 0.49618801 -0.011221
0.224988 0.49887201 -0.014394
0.225886 0.49837601 -0.01049
0.24199751 0.497123 -0.0110415
0.55951101 0.49992001 -0.014586
0.217655 0.50010401 -0.010701
0.23204701 0.50381601 -0.014655
0.235866 0.50402802 -0.011094
0.24081451 0.50213003 -0.0144945
0.57134402 0.50096703 -0.012326
0.57964098 0.50163102 -0.010661
0.581375 0.503932 -0.010544
0.245443 0.50667298 -0.013116
0.55591398 0.50631797 -0.010538
0.56330699 0.50524998 -0.014243
0.58105803 0.50823301 -0.01404
0.237192 0.51223499 -0.010407
0.24066651 0.51159954 -0.0107545
0.253791 0.51317102 -0.014527
0.53350198 0.51318699 -0.013952
0.56701601 0.51486403 -0.014807
0.570889 0.511675 -0.012981
0.60361302 0.435478 -0.0058880001
0.61248201 0.43507901 -0.0089849997
0.62032199 0.438683 -0.0053079999
0.18875299 0.44360599 -0.0091129998
0.19837201 0.44285649 -0.0056969998
0.64209199 0.44065499 -0.0079089999
0.18868801 0.44756699 -0.0066269999
0.196758 0.44736201 -0.0065910001
0.59265101 0.4472695 -0.0069979997
0.60176802 0.44732001 -0.0077419998
0.61627603 0.448926 -0.009912
