# .PCD v0.7 - Point Cloud Data file format
VERSION 0.7
FIELDS x y z
SIZE 4 4 4
TYPE F F F
COUNT 1 1 1
WIDTH 1536
HEIGHT 1
VIEWPOINT 0 0 0 1 0 0 0
POINTS 1536
DATA ascii
0.66468954 0.503021 0.15841249
0.66889298 0.50269103 0.155746
0.68272948 0.50320148 0.1589175
0.62956297 0.50736302 0.158105
0.64954299 0.50677502 0.158741
0.66927397 0.505373 0.15976401
0.67562503 0.50796199 0.156397
0.68725801 0.46790901 0.164681
0.68280298 0.47137201 0.161028
0.69568998 0.471293 0.161762
0.69387001 0.47560501 0.16414601
0.69835299 0.47845799 0.161193
0.70055795 0.47553301 0.16232249
0.66997898 0.48040801 0.160344
0.67934197 0.481249 0.16140801
0.70256799 0.48463401 0.164231
0.65724498 0.48810601 0.163802
0.66306603 0.48819599 0.162187
0.67472899 0.48955801 0.16450401
0.69160497 0.48985401 0.160018
0.593499 0.49186999 0.161612
0.664379 0.49132901 0.164601
0.68278301 0.49074501 0.16468801
0.63357002 0.497852 0.164009
0.64085901 0.49643701 0.162728
0.65607601 0.499529 0.160889
0.66106898 0.49613899 0.162498
0.674797 0.49619499 0.16420899
0.685853 0.499349 0.164332
0.66635698 0.50302202 0.16451301
0.65397501 0.508802 0.16313601
0.66466397 0.50965703 0.16494
0.67658901 0.469616 0.16563401
0.68338799 0.46684101 0.16626
0.71099102 0.467215 0.16929699
0.716501 0.46582299 0.16566101
0.67998999 0.474069 0.16622099
0.68892503 0.470411 0.16955701
0.69267601 0.4730815 0.16825449
0.698219 0.47090799 0.168726
0.70557702 0.4745 0.167078
0.67742199 0.47605601 0.1672
0.709674 0.47595799 0.167808
0.715922 0.47908899 0.167605
0.66644698 0.480308 0.16582499
0.676884 0.48359001 0.16954499
0.689623 0.48223901 0.167051
0.69364899 0.48026001 0.169293
0.70161301 0.482508 0.16678099
0.59252799 0.48884299 0.165741
0.67345399 0.48703301 0.165456
0.68966299 0.48596099 0.16711
0.70617551 0.48701051 0.16863
0.624852 0.49216199 0.168062
0.69159549 0.49370402 0.167796
0.69879699 0.49128699 0.16800199
0.64095151 0.49814999 0.167631
0.655325 0.49895099 0.165464
0.67093098 0.49937001 0.16820499
0.705392 0.49573901 0.165281
0.61010498 0.50187498 0.16935
0.69580799 0.46543801 0.174463
0.70235002 0.46752399 0.17209101
0.71186996 0.46789551 0.1721025
0.715455 0.46622401 0.17481799
0.69387299 0.47052699 0.17185999
0.69901901 0.47488299 0.172599
0.677733 0.47859401 0.173693
0.71677798 0.479332 0.173269
0.57496297 0.48269999 0.171177
0.68136501 0.48003101 0.173171
0.591214 0.48629901 0.174666
0.67227799 0.48791301 0.173972
0.68484098 0.48974299 0.17008799
0.60581702 0.49479401 0.173456
0.65983701 0.49158299 0.17294601
0.67070103 0.497448 0.172124
0.67772001 0.49687099 0.17375299
0.69230098 0.497765 0.17235801
0.666812 0.50197399 0.17456549
0.68006802 0.50555098 0.172526
0.68974102 0.50558102 0.174006
0.66555601 0.51058501 0.17023499
0.680426 0.51131099 0.172397
0.70473701 0.46119499 0.177628
0.70494598 0.46745399 0.17538901
0.72096598 0.46979401 0.17972501
0.68842697 0.474635 0.175786
0.71262801 0.47096151 0.17732799
0.71567303 0.47446001 0.179373
0.68959898 0.475952 0.177074
0.69956499 0.47552499 0.177729
0.70402199 0.477072 0.175625
0.61810303 0.48341501 0.1777
0.67014199 0.48124501 0.17528699
0.681678 0.48249099 0.177609
0.68843699 0.483531 0.177956
0.69190401 0.482234 0.17643699
0.70066398 0.48418999 0.177102
0.70595098 0.48241299 0.179933
0.72052002 0.48186451 0.1775755
0.62333202 0.48804301 0.178544
0.66316801 0.48681599 0.175005
0.70381802 0.487708 0.179434
0.64672899 0.491844 0.178657
0.65532601 0.49180201 0.17886201
0.66339499 0.49450901 0.17564499
0.674303 0.49027801 0.17755
0.69769299 0.49476999 0.17784099
0.70230401 0.49037501 0.179052
0.66314 0.49597701 0.175147
0.67179251 0.49576652 0.1786585
0.69970399 0.49907899 0.179832
0.72139502 0.49931499 0.178142
0.67570901 0.50402898 0.17610399
0.68667001 0.50562298 0.179144
0.71770799 0.45967901 0.182357
0.72047102 0.457791 0.18162
0.728616 0.45666599 0.18297
0.700517 0.464645 0.18213899
0.72096699 0.464497 0.18122099
0.72575498 0.46280199 0.182071
0.70697403 0.46721199 0.18142401
0.697335 0.472826 0.18266401
0.70597798 0.47405899 0.180574
0.71842098 0.47190601 0.18419801
0.59246898 0.47588101 0.183984
0.66323501 0.47644001 0.18463799
0.69642103 0.47972101 0.18063299
0.70833749 0.47797048 0.18167999
0.68652797 0.48121148 0.182515
0.69086301 0.482216 0.180493
0.70797902 0.48022199 0.18406799
0.672077 0.490347 0.181127
0.67689401 0.4911125 0.1826905
0.688829 0.494652 0.18090799
0.68567997 0.50202698 0.18062399
0.69084799 0.50191301 0.18296251
0.70843399 0.50860101 0.183375
0.697927 0.45818901 0.187537
0.70691901 0.460264 0.185629
0.71234 0.46423301 0.18757001
0.71675998 0.464571 0.189124
0.72532201 0.46411401 0.18989401
0.70804399 0.46832499 0.185528
0.67983902 0.47138599 0.186692
0.71056801 0.47499499 0.185985
0.71582597 0.47409099 0.187599
0.621984 0.477714 0.187382
0.66680998 0.47947001 0.188217
0.70169199 0.47723499 0.18928801
0.73381299 0.47695699 0.18774401
0.67647898 0.48245499 0.189557
0.70486701 0.48324299 0.187929
0.707865 0.48282799 0.185127
0.71223003 0.48312801 0.18561199
0.668809 0.48605701 0.188492
0.671336 0.487221 0.187456
0.691921 0.489833 0.189833
0.69949901 0.487115 0.189271
0.69049197 0.49191701 0.18917499
0.69020301 0.49764201 0.186066
0.70565099 0.45418999 0.190585
0.72641402 0.45314801 0.194362
0.74269903 0.45125249 0.1931895
0.73847598 0.45667401 0.19267
0.71689051 0.46347702 0.192274
0.72148699 0.464412 0.190964
0.74133098 0.46305501 0.19152699
0.56582701 0.46885401 0.191355
0.72033399 0.46587601 0.194793
0.73281997 0.466739 0.192772
0.58373302 0.47106799 0.192516
0.70099002 0.47246 0.194171
0.71074802 0.47170901 0.193277
0.72142351 0.473602 0.1926575
0.72768098 0.470166 0.19125199
0.64013898 0.478706 0.192509
0.64824897 0.47936901 0.193011
0.682311 0.47829899 0.190291
0.688627 0.47542399 0.190714
0.69409198 0.47631699 0.19122399
0.65376002 0.48493701 0.19167399
0.69154298 0.48487899 0.190962
0.69873703 0.484162 0.191441
0.70409602 0.48343399 0.194456
0.714845 0.48309699 0.193085
0.71511 0.48154399 0.191351
0.73095298 0.48203099 0.194729
0.67615002 0.489932 0.19390699
0.68771601 0.48532701 0.190956
0.69378501 0.4854055 0.19156051
0.69123697 0.49012801 0.19334701
0.70632499 0.490325 0.192788
0.71534002 0.493653 0.191199
0.70187199 0.49519899 0.19374999
0.71186054 0.45264047 0.19744301
0.71689802 0.45260501 0.19942001
0.72155404 0.453522 0.19751799
0.729047 0.451736 0.19618399
0.70749098 0.45639101 0.195994
0.73560101 0.45914599 0.19994099
0.70102 0.46539199 0.196036
0.71743 0.467884 0.199991
0.72557497 0.465841 0.1952
0.73629898 0.46528399 0.197918
0.69223797 0.470009 0.195013
0.717713 0.474278 0.19512001
0.74747998 0.47113299 0.197505
0.77143103 0.474841 0.19894201
0.70600301 0.47601801 0.197285
0.71029502 0.47631699 0.198265
0.74381602 0.477229 0.197294
0.66500199 0.48179999 0.197271
0.67942899 0.48116499 0.198557
0.69488698 0.48342901 0.198891
0.70605397 0.48393101 0.199053
0.713898 0.48194799 0.197845
0.72047597 0.48154101 0.197956
0.72611302 0.48416701 0.195917
0.69849902 0.49006701 0.199193
0.69745648 0.49693549 0.198576
0.74496198 0.44879901 0.201978
0.70004499 0.450939 0.200611
0.73615199 0.45101899 0.204004
0.7509895 0.45170751 0.2025755
0.634103 0.459371 0.203032
0.71914101 0.45690101 0.20204499
0.72245002 0.45731199 0.202475
0.72996402 0.45683399 0.203528
0.602934 0.46393499 0.203935
0.61707902 0.464026 0.204487
0.71558899 0.46432599 0.20415799
0.73676503 0.46356499 0.204267
0.63859397 0.468768 0.204061
0.70153499 0.468685 0.20456401
0.69127703 0.471784 0.203136
0.72215801 0.47025299 0.20215
0.73373401 0.47132099 0.20095199
0.69524598 0.478174 0.204283
0.71203297 0.47620299 0.201197
0.72362101 0.47663301 0.20392799
0.74032301 0.478865 0.204955
0.71619803 0.48195699 0.20038
0.72900802 0.48783001 0.20096
0.752832 0.49165201 0.20242
0.71236646 0.449276 0.20935151
0.75229198 0.44502199 0.206728
0.72434998 0.45116001 0.20551001
0.72834301 0.45103899 0.20832799
0.72914302 0.459106 0.207287
0.73703599 0.45761499 0.207423
0.69435698 0.46276 0.208088
0.72709101 0.460843 0.20636401
0.74127197 0.461712 0.205007
0.70556003 0.46520001 0.207709
0.699857 0.47126099 0.208792
0.70474601 0.47426 0.207623
0.71066999 0.47363099 0.208942
0.72019702 0.47396201 0.207967
0.72594398 0.473663 0.20790701
0.74050802 0.47163901 0.205155
0.75651598 0.47058001 0.206788
0.64294302 0.47545099 0.206247
0.67213899 0.479467 0.206829
0.68455601 0.47772199 0.208572
0.72901297 0.47695953 0.20708749
0.67966503 0.48101199 0.208436
0.708341 0.48277101 0.20569301
0.72069597 0.48294401 0.207267
0.69966698 0.487802 0.207001
0.75729501 0.43926099 0.214783
0.76013798 0.44283801 0.21208499
0.71605802 0.44574299 0.212706
0.73145497 0.44908148 0.21087
0.73951 0.44794101 0.212119
0.75102001 0.44979599 0.212321
0.77235502 0.446722 0.21263
0.60422301 0.45407599 0.21209
0.73377001 0.45227301 0.211353
0.73818099 0.45195201 0.21006601
0.74245 0.452104 0.214544
0.74392653 0.45662701 0.21302101
0.75490499 0.45807299 0.214212
0.617006 0.460731 0.211023
0.73028898 0.46321899 0.212403
0.71653551 0.46736848 0.2116695
0.72962201 0.46996301 0.210398
0.75672501 0.46538901 0.210152
0.68293899 0.47302401 0.21242
0.71811002 0.47562 0.21205901
0.73032302 0.47550699 0.214821
0.741404 0.477213 0.210694
0.69884199 0.48431 0.210485
0.71657002 0.489824 0.21316101
0.76659298 0.48578799 0.212248
0.73332602 0.439881 0.217784
0.76840699 0.43893301 0.217729
0.73951399 0.441486 0.218005
0.74014801 0.44445601 0.217344
0.75417697 0.441677 0.217461
0.76884001 0.44186801 0.21691699
0.72661251 0.4482305 0.2176355
0.74859101 0.44786501 0.219374
0.75248402 0.44681999 0.218582
0.59565598 0.45275301 0.21793599
0.72814 0.45005301 0.21582501
0.74172902 0.45851499 0.215785
0.70614254 0.46159899 0.2171775
0.72198653 0.46399349 0.21533301
0.729828 0.464872 0.21662401
0.74566495 0.4632065 0.21641451
0.71467799 0.46685299 0.216813
0.72776699 0.468537 0.218366
0.73556501 0.46544099 0.215369
0.70666599 0.474107 0.218004
0.72367698 0.48128101 0.21714801
0.739685 0.48022199 0.21878199
0.70427001 0.485495 0.21942601
0.72315598 0.48899099 0.21759699
0.78153503 0.48796701 0.219699
0.74916053 0.43857449 0.220927
0.60635501 0.44338799 0.224756
0.729267 0.44395399 0.221433
0.74412602 0.44259799 0.2229
0.5983575 0.44812149 0.22341299
0.744605 0.449853 0.223095
0.750723 0.451114 0.22462299
0.75886154 0.45131302 0.2223265
0.62148601 0.45656899 0.22151799
0.67884898 0.45747599 0.22385301
0.745112 0.457367 0.22269399
0.75764501 0.455578 0.221578
0.76586998 0.45874399 0.223254
0.70181 0.46323901 0.22241201
0.72829551 0.46141899 0.22372249
0.73368901 0.461927 0.223621
0.73731297 0.46152201 0.224613
0.744874 0.46394801 0.222436
0.745121 0.462071 0.220772
0.68316603 0.467206 0.22111499
0.685978 0.46566501 0.221248
0.689098 0.47050601 0.222028
0.72258198 0.47117001 0.22379801
0.73694003 0.47005299 0.22111
0.748487 0.470009 0.224052
0.71005899 0.47818699 0.222323
0.72442597 0.47541901 0.22080199
0.75024098 0.47740999 0.22077601
0.75569302 0.47916299 0.22041599
0.764507 0.43217599 0.228135
0.74146497 0.43926901 0.226454
0.75416797 0.43922499 0.226261
0.75477397 0.442224 0.22594
0.75541699 0.44012401 0.22511899
0.763412 0.44345701 0.227395
0.76678699 0.441688 0.227098
0.78149998 0.44007701 0.225731
0.73825198 0.44637299 0.226263
0.75454003 0.449366 0.229954
0.7676695 0.44734699 0.2284015
0.77473903 0.44695401 0.22974101
0.75932503 0.45131701 0.225547
0.76327801 0.45049101 0.226375
0.77355999 0.45264 0.22737201
0.77513897 0.45027 0.22716001
0.71826249 0.45954448 0.22751099
0.72400498 0.45608401 0.228361
0.72548997 0.45751399 0.22903299
0.75886399 0.45570901 0.226463
0.78608501 0.460491 0.229352
0.73849702 0.46823201 0.229591
0.76464897 0.43335399 0.23125
0.77548999 0.43173 0.231087
0.78266901 0.432843 0.23490299
0.73251897 0.44124401 0.231379
0.74082202 0.442314 0.23052999
0.751342 0.44484299 0.23499399
0.62214601 0.446583 0.233675
0.73147899 0.44907799 0.23140199
0.74816948 0.44714499 0.234207
0.71093249 0.454422 0.23142999
0.73830903 0.45427001 0.234448
0.74887502 0.45449901 0.23439001
0.76879603 0.451904 0.23136801
0.73246402 0.45840299 0.233872
0.74431998 0.45803699 0.23285501
0.74799198 0.45679501 0.23213699
0.74415201 0.46296701 0.23446199
0.75214303 0.46404701 0.23109999
0.72844303 0.47623199 0.230368
0.79080302 0.481233 0.232977
0.60197604 0.431407 0.238446
0.75852698 0.43465301 0.239558
0.76818699 0.433994 0.23517799
0.77783048 0.43901101 0.237363
0.78109002 0.43655601 0.235614
0.74841601 0.44057199 0.23962501
0.75033098 0.44254899 0.23652899
0.77843302 0.44162899 0.236607
0.784262 0.440276 0.237184
0.74212998 0.446839 0.238262
0.74935901 0.44922599 0.23968799
0.756082 0.447694 0.236927
0.76361501 0.44536299 0.238268
0.77158499 0.449581 0.23706201
0.72736502 0.45454001 0.238317
0.73200703 0.45519 0.23728199
0.75851297 0.45979601 0.23900799
0.7087 0.46451199 0.237477
0.72396898 0.46421701 0.237817
0.73923898 0.46392301 0.238157
0.75768197 0.46185899 0.2378585
0.754412 0.46529499 0.235385
0.78257298 0.42452601 0.244444
0.75933403 0.42532 0.240725
0.78220701 0.42876399 0.244095
0.62303901 0.43486801 0.24431001
0.79539198 0.43142399 0.24413
0.74175102 0.43518901 0.24371099
0.75170201 0.43740299 0.24195801
0.75813198 0.43835601 0.241878
0.767932 0.435114 0.242861
0.77322501 0.43806499 0.242213
0.76714927 0.44228899 0.24262701
0.77605498 0.44477299 0.24480601
0.72492898 0.44899899 0.241466
0.72652602 0.45361501 0.24000201
0.74710602 0.451166 0.244717
0.75914103 0.45362899 0.240876
0.76229501 0.45166299 0.24065299
0.72557801 0.45667401 0.243534
0.74024099 0.45686501 0.242991
0.74551898 0.45694399 0.24264801
0.75490397 0.45705599 0.242447
0.769566 0.45724699 0.24190301
0.77247405 0.4578045 0.2420425
0.79013902 0.45770299 0.242235
0.733392 0.46132499 0.24401399
0.77032799 0.46235701 0.241179
0.765203 0.48123199 0.243459
0.77258801 0.42363399 0.249612
0.77937299 0.42307401 0.24822199
0.77954602 0.42521799 0.245773
0.78992802 0.425713 0.24834201
0.60228401 0.43290001 0.246429
0.78139299 0.43327701 0.24595501
0.793248 0.430365 0.247122
0.75351101 0.43742099 0.24837901
0.76454198 0.439908 0.247961
0.76337802 0.443995 0.248605
0.78430599 0.443452 0.24766
0.787278 0.444047 0.24796601
0.74952602 0.448147 0.246286
0.75262803 0.44692799 0.248008
0.77396202 0.44922099 0.248897
0.77769601 0.44790298 0.2491
0.78416002 0.44545299 0.249457
0.74310553 0.45369351 0.247015
0.76383698 0.454721 0.246859
0.74865699 0.45501301 0.24652199
0.75136399 0.45588201 0.247814
0.75674802 0.455264 0.248735
0.77069998 0.45612001 0.2474
0.775334 0.41998699 0.25312099
0.79622698 0.42353299 0.253012
0.80086702 0.42478299 0.25150701
0.57505298 0.42728099 0.254273
0.76227999 0.42708099 0.253176
0.78256381 0.42745453 0.25153828
0.79814053 0.42802 0.252662
0.65680403 0.43164599 0.252846
0.753416 0.433474 0.253001
0.77271104 0.43236148 0.25041151
0.78872102 0.432809 0.25122699
0.80528998 0.43276 0.25426599
0.7457 0.44975099 0.250606
0.79917198 0.44766399 0.25216699
0.742796 0.454409 0.25007001
0.77157199 0.45072299 0.250936
0.78582001 0.45280999 0.250949
0.734604 0.457239 0.25400901
0.76265401 0.45560199 0.25076699
0.72791702 0.46503201 0.25091499
0.77054101 0.41938299 0.255362
0.814803 0.41990399 0.25626099
0.598472 0.423013 0.25737
0.63142103 0.42276499 0.25831699
0.78595901 0.42190599 0.25862101
0.79136401 0.42087099 0.25858799
0.79902297 0.42076299 0.25992501
0.80215001 0.420607 0.256908
0.77282703 0.43496701 0.25747901
0.76673001 0.43580699 0.25731099
0.77739799 0.43876401 0.25752199
0.78331399 0.43764299 0.25824499
0.79702801 0.43732399 0.258259
0.78878301 0.444812 0.25691801
0.79089999 0.44139901 0.25768599
0.74768698 0.44952199 0.256033
0.76318997 0.44584101 0.25589901
0.77309102 0.445963 0.255081
0.778032 0.449696 0.25564799
0.78694201 0.44934401 0.25769699
0.75847298 0.45243499 0.25669301
0.77136499 0.46369001 0.25920799
0.78163052 0.4179025 0.26480451
0.78513497 0.41572401 0.26174101
0.79718602 0.41858199 0.26177999
0.80036098 0.41702801 0.26091599
0.810247 0.418302 0.26192901
0.74524802 0.42332599 0.26130399
0.78088897 0.423215 0.26204899
0.80453902 0.42471501 0.262016
0.61631697 0.42721301 0.26042899
0.77214801 0.429432 0.26377401
0.77743798 0.425724 0.261832
0.80001301 0.426644 0.26314399
0.76722598 0.43211851 0.26213151
0.78254402 0.43343899 0.26355299
0.67717999 0.439307 0.26089299
0.75638098 0.439356 0.26162699
0.78222102 0.43728301 0.26323101
0.79385602 0.43780249 0.26198399
0.79722703 0.43699399 0.263565
0.75032598 0.44240099 0.26431301
0.770464 0.44334799 0.26377401
0.78286499 0.44455901 0.26285401
0.80360502 0.440404 0.26493901
0.73513901 0.44988799 0.26113999
0.75449699 0.44519299 0.260362
0.75857598 0.44879699 0.26116601
0.76973701 0.44839799 0.26412499
0.74881202 0.45214099 0.26246801
0.76457399 0.45673099 0.261994
0.77915502 0.45692101 0.261453
0.76859498 0.46592799 0.26112899
0.78005803 0.41259199 0.267012
0.800255 0.41238901 0.26666501
0.81457001 0.41192999 0.26937601
0.60479498 0.41581699 0.26510799
0.63248199 0.41827899 0.26932001
0.79230499 0.41963401 0.26843199
0.80256099 0.415528 0.269382
0.81374598 0.41638401 0.26789299
0.79814804 0.420782 0.26657999
0.80893499 0.42014199 0.26503599
0.69478297 0.425881 0.26597399
0.78006601 0.43415201 0.26636699
0.79141802 0.433534 0.26643899
0.731466 0.43779799 0.26532501
0.78564 0.43720499 0.269925
0.79240102 0.43909401 0.267023
0.80520302 0.43626699 0.266202
0.74946153 0.44339597 0.26970798
0.78643101 0.44150299 0.26718599
0.770827 0.44964701 0.26558501
0.77670002 0.449572 0.26814699
0.77387249 0.45285898 0.26656401
0.75275701 0.45508999 0.26780999
0.80321002 0.45820001 0.26833001
0.79674 0.410119 0.27116001
0.68125302 0.41986799 0.27321601
0.80838102 0.417878 0.27175
0.67058599 0.425091 0.271718
0.7778725 0.42879999 0.27145249
0.79157001 0.42576501 0.27041101
0.80144405 0.42923951 0.27249098
0.80615097 0.42839199 0.27164
0.70873702 0.430516 0.270206
0.79057199 0.43051201 0.27168301
0.77150297 0.43807399 0.27033401
0.79415703 0.43839401 0.274771
0.80749899 0.43507001 0.27445799
0.73792303 0.44448099 0.27119601
0.76610798 0.44185799 0.272477
0.76301998 0.447043 0.270928
0.77258903 0.44876501 0.27094999
0.77601999 0.44815099 0.27212399
0.78794801 0.44881001 0.271314
0.79164201 0.44711801 0.273718
0.78216898 0.46014401 0.27082399
0.81860602 0.46103001 0.272809
0.65027601 0.40885001 0.27730599
0.82877803 0.40683201 0.27783599
0.78348702 0.41032001 0.27823001
0.79650998 0.41176 0.27556399
0.80444503 0.41145101 0.27521899
0.80515897 0.41055599 0.27705801
0.81193203 0.41247401 0.276153
0.81881201 0.414226 0.27760798
0.82846898 0.41200501 0.275861
0.64849699 0.417959 0.27651599
0.78121501 0.41810501 0.275534
0.80154395 0.41783202 0.27760151
0.81329757 0.41916502 0.278667
0.82521099 0.41758901 0.27884799
0.70592701 0.42415699 0.27517599
0.77680397 0.42203599 0.277567
0.79897201 0.422297 0.27630001
0.81130499 0.42048001 0.27506101
0.77398902 0.425118 0.27574399
0.7766 0.42670199 0.27836099
0.78226101 0.426642 0.27991101
0.795632 0.427304 0.27868199
0.80543798 0.428303 0.27535701
0.79254502 0.43240601 0.27702248
0.80189896 0.43323401 0.27565151
0.80903399 0.43118101 0.27877101
0.75824499 0.436746 0.27516201
0.78131598 0.43959999 0.27828401
0.78684598 0.436795 0.279136
0.77722901 0.44194499 0.27938801
0.78290099 0.441001 0.275839
0.78660899 0.44353399 0.27986699
0.75207603 0.445714 0.27535701
0.77581501 0.445351 0.27873999
0.78208798 0.44513601 0.276025
0.79507101 0.45036599 0.275213
0.82516098 0.459272 0.27590501
0.612122 0.40354049 0.28484452
0.80382299 0.402915 0.284518
0.81811547 0.40288001 0.28283399
0.59796101 0.40550199 0.28152001
0.82092702 0.40873301 0.28042799
0.82753903 0.40959299 0.28183401
0.84319198 0.407626 0.283829
0.80174798 0.41262701 0.28134701
0.82186401 0.41213301 0.28138
0.79661798 0.41670099 0.28436801
0.79040301 0.424366 0.28435099
0.81010699 0.421839 0.28284201
0.81945801 0.42307201 0.28427401
0.80364001 0.42860499 0.28478801
0.80950397 0.42648801 0.28128499
0.810799 0.428628 0.28227699
0.73456597 0.432538 0.28475699
0.79192603 0.433285 0.28262901
0.82275295 0.43239 0.2819995
0.77204198 0.43950999 0.28025401
0.79109901 0.43648699 0.28402901
0.80055398 0.43725899 0.28334501
0.74316698 0.44305199 0.28050601
0.78228104 0.44270301 0.2812185
0.78768301 0.444823 0.28330499
0.804694 0.44248801 0.28145301
0.800448 0.44648999 0.28213701
0.82205701 0.46162599 0.284307
0.58395201 0.40114301 0.287301
0.58828598 0.40180099 0.287433
0.59753799 0.401977 0.28600201
0.61194098 0.401344 0.28908601
0.62366498 0.40492699 0.28611901
0.65399301 0.40292099 0.28921399
0.80923003 0.402367 0.28519401
0.81170398 0.40432 0.28865701
0.84298599 0.40173399 0.28629601
0.68165398 0.40897399 0.28866601
0.7956 0.40842599 0.287889
0.82315147 0.41290399 0.28724152
0.812343 0.41579449 0.28724051
0.77810198 0.42273301 0.28532001
0.79287899 0.42137799 0.28585199
0.79582 0.42494699 0.289139
0.8087135 0.422149 0.2889955
0.82422698 0.42210901 0.289253
0.80084503 0.42564201 0.28935501
0.81291401 0.42699999 0.28645399
0.81510597 0.42582801 0.28882599
0.74764597 0.43164 0.286522
0.80545002 0.43223 0.286688
0.81902498 0.43035701 0.28774899
0.79143697 0.436847 0.287848
0.79611802 0.44379199 0.28783301
0.78541601 0.445077 0.28819701
0.827874 0.45429599 0.28608599
0.82413 0.39839599 0.292532
0.82909203 0.39800999 0.291922
0.85719502 0.39663601 0.29475501
0.80364197 0.40143099 0.29097399
0.822254 0.40303299 0.291839
0.82866699 0.40078399 0.290676
0.68387699 0.405543 0.290456
0.80395597 0.40507099 0.29497299
0.82630205 0.4071815 0.29100502
0.835347 0.40638801 0.29100999
0.83002597 0.41005099 0.293008
0.77599698 0.41951799 0.29114199
0.81215698 0.41524899 0.29333699
0.81911498 0.41775799 0.293791
0.82431602 0.41674101 0.291302
0.83347702 0.41784099 0.29319099
0.72602898 0.424025 0.29282299
0.81673151 0.42343199 0.29335749
0.79064602 0.429129 0.29292399
0.79999202 0.42791599 0.29196101
0.809389 0.42755499 0.29282299
0.81482601 0.42763001 0.29229099
0.83035302 0.42665201 0.294359
0.75423002 0.434073 0.293677
0.80526102 0.436593 0.29467699
0.80140197 0.443252 0.29259199
0.83903098 0.39442399 0.299869
0.84873301 0.39395499 0.299997
0.59291202 0.39975101 0.29749501
0.63328999 0.395592 0.29540199
0.63666898 0.39890799 0.29846901
0.676431 0.39941299 0.298796
0.812612 0.395619 0.29771101
0.82199103 0.39502999 0.29860201
0.82664299 0.39580101 0.29719001
0.834746 0.39753699 0.295744
0.63491303 0.400639 0.29531601
0.812204 0.40122801 0.29698801
0.83132148 0.40400651 0.2955755
0.83389002 0.40815201 0.298895
0.84289801 0.407038 0.29870301
0.79756403 0.41393501 0.29973099
0.82394701 0.41167098 0.2973915
0.83852398 0.411643 0.299761
0.82436901 0.419121 0.29537299
0.82883602 0.417501 0.29771301
0.83894998 0.41773 0.297221
0.79018301 0.420912 0.295021
0.8351 0.42464101 0.29956201
0.77288699 0.42652899 0.296837
0.79084802 0.429104 0.29657301
0.80658698 0.42742601 0.299339
0.816742 0.42606601 0.298605
0.76999801 0.43225101 0.29704601
0.80564499 0.431748 0.29630801
0.57375097 0.39221299 0.30445701
0.58304602 0.39490101 0.30307099
0.61570001 0.39297199 0.30364001
0.80832702 0.39398801 0.30485299
0.84086603 0.39497301 0.303013
0.85025197 0.39467499 0.301388
0.66157901 0.398426 0.30149099
0.83936203 0.39851201 0.30053401
0.79654998 0.40113199 0.30138001
0.81777501 0.40325701 0.30433199
0.83636999 0.400206 0.30434
0.84882998 0.40064201 0.300639
0.82792097 0.41379401 0.30240601
0.84749699 0.41261101 0.30210799
0.78616101 0.41740799 0.300776
0.79802799 0.417391 0.30276501
0.80246401 0.41909701 0.304818
0.81694448 0.4164905 0.3019805
0.82357401 0.419211 0.300082
0.83060598 0.41711399 0.304048
0.76045001 0.42653599 0.30089501
0.775419 0.42706501 0.30006099
0.79098701 0.42678699 0.304198
0.801534 0.428606 0.303785
0.81985301 0.42664999 0.304768
0.78576601 0.430428 0.30041599
0.80119801 0.433121 0.30150601
0.80977398 0.43127501 0.30386901
0.80968302 0.43601099 0.30226499
0.86335897 0.38960499 0.30791301
0.65894997 0.39245501 0.30630001
0.68647802 0.39140999 0.30746701
0.82080102 0.391886 0.30623701
0.83596498 0.390883 0.307785
0.82938302 0.39578301 0.30528301
0.83760899 0.39764199 0.30938199
0.81296003 0.40297699 0.30966499
0.82699102 0.40315899 0.309145
0.83484101 0.402513 0.30716699
0.82729101 0.40697899 0.30520201
0.83159602 0.407004 0.309196
0.843521 0.40718299 0.309571
0.852732 0.40654501 0.30822101
0.80944198 0.41075599 0.308386
0.81389701 0.41323599 0.308198
0.83326352 0.41094449 0.30756301
0.84383398 0.413504 0.30509901
0.84687698 0.41058701 0.308128
0.85367298 0.413351 0.30518901
0.81183302 0.41612601 0.30712801
0.83622599 0.41916001 0.30813801
0.79444599 0.42146301 0.30671099
0.804775 0.42390701 0.30543199
0.807477 0.42043501 0.30736801
0.81922299 0.42133901 0.30986601
0.78904998 0.42952901 0.307118
0.82581401 0.38731599 0.31247601
0.83837098 0.38991901 0.310285
0.681916 0.392416 0.31166601
0.82472903 0.39316201 0.313353
0.838741 0.391121 0.313685
0.86385202 0.392692 0.311232
0.692819 0.39968601 0.31439
0.808869 0.39919999 0.31121501
0.84877098 0.399546 0.31248301
0.67774302 0.400684 0.31285101
0.84614301 0.40306449 0.31282598
0.857054 0.40156499 0.31097701
0.82667398 0.40839699 0.31152901
0.84192699 0.407388 0.313086
0.82988602 0.41222799 0.314964
0.81871349 0.4183445 0.31446099
0.77852702 0.42125899 0.312711
0.81105298 0.42273101 0.31077299
0.82637501 0.422766 0.31107101
0.83406198 0.421552 0.313227
0.80933499 0.42705899 0.31164601
0.819561 0.432742 0.31157601
0.65346801 0.38554201 0.31837699
0.66347998 0.38570499 0.316919
0.83651203 0.38853201 0.31872699
0.85160297 0.386069 0.31770101
0.850963 0.394557 0.319778
0.68966103 0.397567 0.319406
0.82598698 0.395374 0.315018
0.83544898 0.39608499 0.3160305
0.84951401 0.39794901 0.318409
0.85133398 0.398384 0.31866801
0.83285701 0.40263 0.317545
0.86694098 0.401447 0.316681
0.80023599 0.40983501 0.316392
0.822923 0.407796 0.31518701
0.83135998 0.40784049 0.31785852
0.78939098 0.412992 0.319372
0.816827 0.41140899 0.31731001
0.83046103 0.41253999 0.316764
0.80368048 0.4184525 0.31740499
0.80982 0.417759 0.31513399
0.81741101 0.41882899 0.31998
0.826608 0.41653666 0.31774631
0.85333002 0.415465 0.31678399
0.80997097 0.42004099 0.31582001
0.84943098 0.42345601 0.31858101
0.86224902 0.42190999 0.31515199
0.68009901 0.38655499 0.323973
0.84166402 0.385685 0.321666
0.85113102 0.387867 0.32036299
0.839656 0.39497501 0.321327
0.84313798 0.39140099 0.32242951
0.84921402 0.394492 0.32295799
0.86625898 0.39487499 0.324166
0.84577 0.39948699 0.32344899
0.85035002 0.398011 0.32224101
0.85780948 0.397733 0.32197249
0.83359849 0.40302902 0.32078201
0.76956397 0.40712699 0.32099101
0.80479902 0.41014799 0.32497999
0.8265245 0.41219199 0.32140499
0.83262998 0.413515 0.32314801
0.83932698 0.413737 0.32243899
0.84173399 0.41118401 0.3212485
0.79183197 0.41558999 0.32221299
0.81063598 0.41758499 0.32295799
0.81539899 0.41879299 0.32447201
0.83207899 0.41854599 0.32030699
0.84674698 0.41826299 0.32063299
0.83906198 0.420912 0.32115301
0.85154802 0.42667499 0.32103199
0.83811897 0.38372901 0.326837
0.86499602 0.380362 0.32726601
0.85528803 0.388565 0.32631201
0.72042602 0.394344 0.32638699
0.84107602 0.39094999 0.32872599
0.854397 0.39213198 0.327351
0.86215001 0.391862 0.32893699
0.86526102 0.393188 0.327526
0.87014598 0.390259 0.32622999
0.84668255 0.40258849 0.3266485
0.807459 0.40849 0.32751301
0.82099998 0.406515 0.32744601
0.83359802 0.40527099 0.329649
0.838682 0.40725601 0.329501
0.830957 0.413849 0.32677701
0.84395301 0.413609 0.32829201
0.84571099 0.41443399 0.32511601
0.82572103 0.418616 0.32503101
0.85170102 0.41794199 0.32720199
0.871517 0.415176 0.32842901
0.85399997 0.42361099 0.329638
0.85185897 0.43415299 0.32894799
0.69404948 0.38223702 0.332515
0.85210401 0.38039801 0.33418
0.85889101 0.384105 0.330843
0.86776698 0.38965899 0.33464599
0.87431902 0.38860399 0.33399099
0.73554301 0.391554 0.331891
0.85746199 0.39273101 0.33055001
0.86386198 0.39088199 0.33037299
0.87248099 0.391487 0.33446699
0.84689403 0.39672399 0.330652
0.83825803 0.40247199 0.33287501
0.84917301 0.40347099 0.332977
0.82020599 0.40730399 0.330589
0.83440602 0.40714499 0.33360201
0.83520597 0.40500101 0.33081999
0.84449399 0.40916499 0.33092099
0.84620702 0.409098 0.3330605
0.8527745 0.408627 0.33443749
0.86055201 0.40812001 0.330405
0.80515301 0.41238001 0.33091399
0.82879198 0.413086 0.33403799
0.84003597 0.413443 0.33497
0.859855 0.41122901 0.33009499
0.841717 0.41805801 0.332533
0.84097499 0.42454201 0.334396
0.61899698 0.37383601 0.33889201
0.878389 0.37465599 0.33683199
0.85145801 0.378699 0.33750901
0.84889901 0.381331 0.33697101
0.85190803 0.380566 0.33871001
0.88985002 0.38052601 0.337459
0.864546 0.386116 0.33703101
0.82179898 0.39117101 0.336656
0.87414598 0.393013 0.33960301
0.8523705 0.40320051 0.338761
0.86402202 0.40300399 0.335004
0.84956998 0.406142 0.33515
0.85055703 0.406847 0.339367
0.82224602 0.41026801 0.33991
0.870314 0.42217001 0.33912399
0.65459299 0.37168899 0.34212101
0.668329 0.37186801 0.34161201
0.682064 0.37204599 0.341102
0.85800803 0.37118202 0.344037
0.86668998 0.373741 0.34180799
0.88574201 0.37128499 0.34486049
0.84708601 0.37794101 0.34392399
0.861669 0.37833801 0.340619
0.86695266 0.37899837 0.34284934
0.88188601 0.37858301 0.34176901
0.85641003 0.38404399 0.34318599
0.86336052 0.38207448 0.34424099
0.86963099 0.384368 0.34386399
0.87263 0.38302749 0.342179
0.879076 0.38179499 0.34489399
0.83618301 0.38609901 0.34141001
0.84340149 0.394059 0.34312052
0.84655702 0.393186 0.34148401
0.85711199 0.39296401 0.34396201
0.86028701 0.39101699 0.34021699
0.85102099 0.40161601 0.34180701
0.85716099 0.40296799 0.340406
0.860484 0.40312201 0.34086499
0.86677003 0.40223151 0.34399399
0.828031 0.40874201 0.34042001
0.86955601 0.40533099 0.342435
0.87031901 0.36909401 0.34746501
0.88446301 0.36926499 0.34760299
0.89178199 0.368949 0.34639701
0.63926101 0.37128499 0.34895799
0.66565198 0.37195399 0.349246
0.85268801 0.371521 0.34966099
0.87397802 0.37053999 0.34512299
0.875691 0.37330699 0.348968
0.897461 0.37018499 0.34838301
0.85987002 0.37893301 0.34720701
0.86364001 0.377235 0.346389
0.88742101 0.37968799 0.34999099
0.87905997 0.383495 0.34656301
0.88154101 0.38125899 0.34761101
0.76526099 0.38786501 0.34782401
0.851331 0.386206 0.34973899
0.87368 0.38531101 0.34978199
0.846102 0.39442199 0.34835899
0.87259102 0.391175 0.34727001
0.86717355 0.39695752 0.34827951
0.87441099 0.397926 0.34972301
0.84198099 0.40433899 0.345263
0.86226952 0.4012005 0.34676749
0.86893702 0.40028799 0.34804901
0.87632 0.40347499 0.34803301
0.85293001 0.41154301 0.345245
0.84178001 0.418253 0.34534499
0.64853799 0.3653 0.35406601
0.668827 0.36927801 0.35189399
0.87063998 0.369463 0.35312301
0.88993102 0.36952901 0.350604
0.86179298 0.37402201 0.35116699
0.87794101 0.37453601 0.35451001
0.882725 0.37396199 0.35265899
0.86638999 0.377069 0.35382101
0.89360601 0.377473 0.35275799
0.865354 0.38143799 0.35365501
0.87971848 0.38239151 0.35395449
0.88467097 0.381497 0.35054299
0.890468 0.38403699 0.351639
0.851138 0.388603 0.35146901
0.857265 0.388118 0.353908
0.86590147 0.38677049 0.351529
0.88111597 0.38661999 0.35452801
0.888071 0.389386 0.350577
0.85476601 0.39158601 0.35407799
0.85949099 0.39116299 0.351798
0.88102502 0.39206201 0.35471299
0.83174503 0.39858201 0.350719
0.85606146 0.3979415 0.35369098
0.881836 0.39592901 0.35302401
0.84285003 0.401757 0.35473701
0.85557699 0.40167201 0.35316801
0.88418198 0.40098101 0.35034999
0.833794 0.41012701 0.35374701
0.89099997 0.36249101 0.359029
0.86790103 0.36871299 0.35519901
0.87936902 0.36637899 0.35802099
0.88971299 0.368276 0.35731599
0.89442098 0.366611 0.357963
0.746153 0.372886 0.356888
0.86605197 0.37078199 0.35835099
0.87650102 0.37010199 0.35840899
0.83841801 0.37845001 0.355203
0.86647499 0.37882301 0.35891101
0.87239146 0.37724799 0.35742998
0.88707298 0.37960401 0.359348
0.89035201 0.37733001 0.35848001
0.83082098 0.38236299 0.35805699
0.900877 0.38125399 0.355479
0.84310102 0.387528 0.35720399
0.85865301 0.388376 0.358816
0.86038899 0.39378101 0.35984501
0.87499702 0.39342999 0.357645
0.884323 0.39351901 0.35875499
0.88833898 0.39273 0.35858101
0.84422898 0.396644 0.35914099
0.87320399 0.39524499 0.35819
0.84829098 0.40437499 0.35942101
0.857274 0.40147901 0.35505801
0.87979698 0.40485999 0.35560399
0.86534202 0.41536799 0.35573801
0.64766502 0.36173299 0.363702
0.66825598 0.362477 0.363994
0.910245 0.36036399 0.36356199
0.88311398 0.36590499 0.360737
0.89656001 0.36880001 0.36145899
0.89414299 0.37379402 0.36394399
0.90005702 0.37360099 0.36051801
0.874376 0.37879199 0.36424699
0.88916498 0.37751999 0.36329001
0.89569199 0.37899101 0.361422
0.85780901 0.38360801 0.364447
0.86456501 0.38208801 0.36110801
0.85971701 0.38919199 0.36325601
0.86579901 0.389218 0.36448401
0.872531 0.38909101 0.36225501
0.89513999 0.386998 0.36311701
0.86554801 0.393437 0.36228901
0.87814301 0.39359799 0.361238
0.88240099 0.39090401 0.36250201
0.87324095 0.39704651 0.3628605
0.88372302 0.39620301 0.361738
0.88629198 0.39824599 0.36369601
0.912018 0.35732701 0.368949
0.87290299 0.36172 0.36708701
0.89875197 0.36418399 0.36826101
0.90373403 0.363244 0.36566499
0.73468399 0.36538199 0.368076
0.872262 0.36957699 0.36760101
0.87913197 0.368586 0.368848
0.89120799 0.366182 0.36565199
0.87773901 0.37441301 0.36707199
0.90046501 0.37389699 0.36891299
0.90814698 0.37386 0.36919001
0.88476503 0.37531799 0.36801201
0.89787 0.37676501 0.36534399
0.88857102 0.384074 0.366339
0.82878798 0.38945401 0.36989301
0.87372398 0.385472 0.36945
0.88941902 0.387445 0.36597401
0.89141601 0.38584 0.36714399
0.90226603 0.38753399 0.367439
0.86315298 0.39135301 0.36788601
0.89428997 0.39350501 0.36557901
0.86535603 0.395648 0.365758
0.88978899 0.35442099 0.37380701
0.877119 0.359128 0.37067601
0.892672 0.35915199 0.370974
0.89504498 0.357171 0.37361801
0.91775602 0.35821301 0.37401399
0.75157702 0.36144599 0.37258199
0.87580299 0.362663 0.371216
0.87029999 0.36896801 0.37095699
0.893767 0.36831799 0.372302
0.903189 0.36868501 0.37216699
0.91269201 0.36751401 0.37104601
0.818084 0.37042499 0.37314299
0.901645 0.37116599 0.370397
0.911107 0.37101099 0.37391901
0.87251598 0.37968799 0.37168899
0.88347602 0.37610701 0.37496299
0.840262 0.384507 0.37205699
0.89503598 0.384817 0.37303001
0.90925401 0.381933 0.371521
0.84369099 0.388468 0.37141299
0.85815197 0.38657099 0.372428
0.87312496 0.3867375 0.37402952
0.87758702 0.388607 0.37169999
0.88449597 0.38907999 0.370107
0.88709098 0.38649568 0.373422
0.893924 0.38779601 0.374461
0.88236302 0.390259 0.372298
0.89096099 0.394936 0.37186301
0.85939801 0.398862 0.37035999
0.85107601 0.40121999 0.37419999
0.86066502 0.40194601 0.37139499
0.88356102 0.40266499 0.37191999
0.88377202 0.35496899 0.378234
0.89888453 0.35484451 0.37800401
0.90786999 0.35293001 0.376387
0.78087598 0.35950801 0.375572
0.85891497 0.36482301 0.377965
0.89020002 0.360542 0.379067
0.91468698 0.36120999 0.37904599
0.89126647 0.367603 0.3777805
0.90308303 0.36811799 0.37692001
0.90527302 0.36949301 0.37904799
0.913858 0.36818999 0.37847799
0.91848099 0.36691701 0.37543499
0.77008301 0.37065899 0.37983799
0.887658 0.37178901 0.37754399
0.90207398 0.37434 0.377152
0.88180399 0.37758499 0.37654099
0.88722402 0.37576801 0.378932
0.86516702 0.38169599 0.377868
0.88907301 0.380936 0.37874699
0.888399 0.38551101 0.375976
0.89112502 0.38893101 0.375442
0.90156001 0.38611099 0.37929001
0.90930998 0.38601801 0.37774801
0.91918498 0.38733301 0.37684101
0.86156303 0.392584 0.378896
0.877635 0.39067501 0.377307
0.889983 0.39331099 0.37928599
0.89070702 0.39684099 0.37649399
0.90140897 0.404753 0.37883899
0.87516499 0.35397699 0.381051
0.89686698 0.353425 0.38050699
0.90383899 0.351073 0.38355699
0.91318703 0.353744 0.38244101
0.91942 0.35005501 0.38265401
0.88623399 0.35633099 0.38142899
0.91278303 0.35594401 0.38315299
0.92532802 0.36142701 0.38157299
0.881549 0.36647701 0.38150999
0.88978899 0.36977601 0.383562
0.90352499 0.3675625 0.38337249
0.90841103 0.36815199 0.38464999
0.91293699 0.36500201 0.382314
0.91541702 0.36646599 0.3829
0.795389 0.371162 0.38016099
0.88877898 0.370105 0.382635
0.90564901 0.37350699 0.38350901
0.882644 0.384426 0.384114
0.89575601 0.384552 0.38186401
0.86172098 0.387288 0.381594
0.91064 0.38934901 0.38335201
0.87677002 0.39838099 0.38421199
0.88002902 0.39999399 0.38029301
0.89748901 0.397468 0.38077801
0.86138499 0.400159 0.380925
0.91148001 0.34953001 0.387703
0.92111999 0.34828299 0.38905099
0.89807749 0.35140699 0.3863695
0.91271901 0.350786 0.389027
0.90214902 0.35737699 0.38733599
0.88671899 0.36365101 0.386922
0.91505402 0.36304799 0.38824201
0.92725098 0.36248299 0.38804299
0.88536501 0.365181 0.38883999
0.91335201 0.36799201 0.38730299
0.92488098 0.36978099 0.38698199
0.88274002 0.37347448 0.3867535
0.892757 0.37342101 0.38578901
0.90193099 0.37184799 0.38617501
0.90961403 0.37399399 0.385692
0.91962099 0.37335399 0.386408
0.88666999 0.379363 0.38692701
0.89216697 0.37769499 0.38721699
0.89842701 0.37831199 0.38935199
0.91672301 0.37566999 0.38839501
0.88349801 0.38106599 0.38556901
0.89655501 0.38022 0.387615
0.93190598 0.38120499 0.38744
0.89525902 0.38966799 0.38686499
0.91406399 0.38743499 0.38890499
0.88755602 0.39078301 0.38936701
0.91656899 0.39176899 0.38990399
0.892156 0.396602 0.38749999
0.91412997 0.39862499 0.38943699
0.9180935 0.34767449 0.392252
0.926094 0.34563601 0.39489901
0.76748401 0.35223499 0.39255199
0.91291702 0.35366401 0.39220899
0.93080598 0.352622 0.39173099
0.749834 0.355234 0.39334401
0.89331198 0.358733 0.39355999
0.90719301 0.35806501 0.390412
0.89288998 0.36393899 0.39220101
0.90183598 0.36085999 0.392425
0.91228902 0.36142901 0.390109
0.88944298 0.368442 0.391608
0.90417498 0.36746699 0.393112
0.90647602 0.368963 0.39222801
0.91663897 0.36792901 0.393417
0.92685598 0.36743501 0.39333501
0.83651799 0.375251 0.392782
0.84439898 0.37656501 0.39477101
0.90835333 0.37810469 0.39278999
0.86594498 0.38635299 0.394173
0.887707 0.385977 0.392086
0.920403 0.34208599 0.397403
0.92682201 0.342783 0.39635801
0.93497002 0.341122 0.39888999
0.75969201 0.34824499 0.39835399
0.90954798 0.34839499 0.39599299
0.91769201 0.34825799 0.39759001
0.92665648 0.34712952 0.39825299
0.93964899 0.347435 0.397764
0.900774 0.35818699 0.39569399
0.90899098 0.359667 0.39936599
0.91704899 0.355165 0.397652
0.92268801 0.359072 0.39660999
0.94064403 0.35677701 0.397609
0.89970702 0.36091599 0.396602
0.89047998 0.36608699 0.39858899
0.90784502 0.366449 0.39885601
0.92407799 0.36547801 0.39888501
0.85103798 0.37138101 0.399932
0.88516599 0.37395 0.39949101
0.895998 0.37016001 0.395421
0.875552 0.377433 0.39528
0.88966399 0.377161 0.395594
0.90885001 0.37595701 0.397129
0.91809201 0.38202801 0.39714801
0.89967299 0.38619 0.39808699
0.91330302 0.38635001 0.395509
0.91506499 0.394705 0.39583001
0.92527097 0.33863801 0.40351799
0.73822498 0.341912 0.40218201
0.78938001 0.34481299 0.40469801
0.94070703 0.341741 0.40209499
0.94805598 0.34152651 0.40239149
0.73875099 0.347238 0.40115699
0.76065898 0.35195699 0.40090901
0.91237801 0.35075301 0.40045899
0.91740203 0.35423699 0.402877
0.92149401 0.35473999 0.40329701
0.9130075 0.35764551 0.4029305
0.91900098 0.355084 0.402565
0.926615 0.35767201 0.40299201
0.90432203 0.36135101 0.40302899
0.93184 0.363235 0.40071851
0.89755797 0.369389 0.40248001
0.92448902 0.36561799 0.40083301
0.93294299 0.36655599 0.404612
0.85545099 0.37020099 0.40154299
0.87575001 0.371714 0.40192601
0.88766199 0.37175599 0.40099901
0.905761 0.37353101 0.400803
0.92254198 0.37313801 0.400994
0.88123298 0.37502399 0.401885
0.88542998 0.37864301 0.40488499
0.90785801 0.37564501 0.400085
0.92005301 0.37979501 0.402955
0.90016901 0.38198099 0.40130299
0.91478902 0.384179 0.403146
0.70480001 0.33779299 0.40690801
0.71804601 0.33796501 0.40641701
0.75515199 0.34258199 0.40719399
0.78277701 0.34204999 0.40780899
0.90890503 0.34073699 0.40961799
0.93894601 0.34095699 0.40913001
0.89325398 0.34619701 0.40509099
0.90837502 0.3495 0.4052
0.91114801 0.346118 0.40537301
0.89430398 0.35112599 0.40763199
0.92273498 0.35453901 0.408108
0.93552202 0.35267299 0.40614799
0.910218 0.35540301 0.406463
0.932845 0.359795 0.40738499
0.84905398 0.36166301 0.408645
0.87527603 0.364218 0.40729499
0.89905703 0.362818 0.4095895
0.911385 0.36127701 0.40666601
0.95217198 0.36265501 0.40894699
0.89909703 0.36895099 0.407785
0.88894898 0.372475 0.406896
0.89557499 0.37075901 0.40964699
0.91610003 0.37132299 0.40671
0.90713102 0.37593499 0.408519
0.91133499 0.37949401 0.40734699
0.918172 0.37861401 0.40993401
0.76363599 0.33521801 0.41382
0.91339201 0.33567101 0.411082
0.92368853 0.33905399 0.41095451
0.94563699 0.33979601 0.41181499
0.922602 0.340572 0.41202801
0.94285899 0.34264499 0.41387001
0.91435403 0.34779999 0.41441199
0.91935402 0.34727499 0.41187999
0.92339802 0.34672701 0.410669
0.92966998 0.34688699 0.41106701
0.93422103 0.34893301 0.41128999
0.94878799 0.347969 0.41277701
0.89414102 0.35411701 0.41431901
0.92917448 0.3520315 0.41122299
0.91594499 0.35875401 0.41397601
0.89029902 0.36144501 0.41276401
0.90656197 0.36242399 0.41200799
0.88029999 0.36594 0.410721
0.89656401 0.36746499 0.41247299
0.90295392 0.36919466 0.41283798
0.91299266 0.36711034 0.41313735
0.93593502 0.36743101 0.410559
0.91736501 0.372933 0.41094899
0.90466899 0.38089201 0.41392401
0.93957198 0.38636801 0.41063401
0.76702398 0.33425701 0.41590399
0.92901897 0.33208999 0.41926599
0.946199 0.33218601 0.41810799
0.95149702 0.33491099 0.41958699
0.78898901 0.33763 0.41708699
0.90937799 0.338572 0.41853699
0.93977302 0.33847201 0.418928
0.95402598 0.335574 0.418203
0.921408 0.34066701 0.41824299
0.93842202 0.343954 0.41613799
0.90770698 0.348775 0.41856599
0.92324698 0.34717798 0.4165675
0.9307 0.34805101 0.416486
0.93752253 0.34745502 0.41815349
0.94273299 0.34811899 0.41988701
0.946814 0.34650901 0.41806501
0.93674803 0.351266 0.41529
0.90532303 0.35867199 0.41823301
0.92513502 0.35938299 0.41708401
0.93185598 0.35730201 0.41533199
0.94557798 0.36046901 0.41513899
0.90991598 0.36649299 0.417409
0.91453302 0.365839 0.418796
0.92586201 0.365527 0.415463
0.88281101 0.37220001 0.41776499
0.90507799 0.374295 0.415741
0.93564898 0.38227499 0.41567799
0.71644199 0.32846799 0.423879
0.75234699 0.32835451 0.42227548
0.76436198 0.32813501 0.42321301
0.95609999 0.329671 0.424826
0.75908703 0.33142 0.422041
0.963696 0.33170301 0.42229
0.920555 0.33801499 0.420605
0.93424302 0.33682299 0.421785
0.94059449 0.338191 0.42122853
0.934484 0.34499699 0.422409
0.93722802 0.34428501 0.42403001
0.95344597 0.34118101 0.42160699
0.94931799 0.34824401 0.42075101
0.95179653 0.34824449 0.4231835
0.84825402 0.35004699 0.421637
0.90057999 0.35448 0.42369801
0.91644049 0.3524375 0.42062402
0.938833 0.35215601 0.421435
0.90322 0.355286 0.42311999
0.91777903 0.35630101 0.42384499
0.92034698 0.35589901 0.423702
0.93347198 0.35674399 0.42368999
0.90924603 0.36050099 0.42078099
0.91809851 0.3645145 0.42128003
0.92337 0.36392999 0.42041999
0.92964298 0.36409199 0.422025
0.91355002 0.365253 0.42212501
0.93639201 0.36803499 0.42137101
0.94206899 0.36967501 0.42118201
0.77307099 0.32769299 0.428927
0.94497198 0.32864401 0.42996201
0.95062 0.32841501 0.427127
0.77485102 0.33225599 0.427257
0.802396 0.33281901 0.42506999
0.94920301 0.33177301 0.42758599
0.95162499 0.332156 0.42586499
0.96347898 0.330138 0.42834499
0.93524802 0.33570099 0.42648399
0.945638 0.335641 0.42959899
0.97400898 0.33558801 0.42648801
0.92388099 0.34486499 0.42567199
0.931903 0.34042999 0.42725801
0.95022398 0.34428301 0.42559201
0.957591 0.34209901 0.42881599
0.96597397 0.34347701 0.42968199
0.847628 0.34616801 0.42955801
0.939955 0.34518 0.427053
0.947236 0.347821 0.42836899
0.962951 0.34838101 0.42937899
0.90430599 0.35135701 0.42518401
0.91529697 0.35104999 0.427683
0.92188698 0.352272 0.429405
0.93412197 0.350943 0.42809498
0.93677598 0.35317799 0.427953
0.94164503 0.354462 0.42640799
0.88735503 0.359018 0.426945
0.948039 0.35578001 0.42517701
0.783544 0.322285 0.43333599
0.962363 0.32421499 0.433211
0.93875402 0.32907099 0.43061101
0.95958197 0.32997099 0.43415701
0.96404803 0.32886499 0.43004301
0.942415 0.3322925 0.43308198
0.94908798 0.330735 0.43472499
0.96056998 0.33391601 0.43279001
0.97048402 0.3312 0.43487701
0.93239498 0.33528 0.43171501
0.946033 0.34105301 0.43321201
0.95706499 0.344035 0.43245801
0.86203301 0.34521499 0.43102801
0.94651002 0.34605199 0.43201399
0.955468 0.347085 0.43331701
0.91490901 0.353461 0.432284
0.92677099 0.35336599 0.43398401
0.93429601 0.35233501 0.431012
0.93683898 0.354096 0.43218699
0.95039397 0.350353 0.43463999
0.91874301 0.35764 0.43207899
0.93120253 0.3578755 0.43207201
0.94566 0.361301 0.43464801
0.90998799 0.36660901 0.430179
0.75233901 0.31887701 0.43947399
0.71483302 0.321605 0.43584999
0.957353 0.323147 0.43752402
0.97101498 0.32426 0.43609199
0.94541299 0.32941499 0.43500599
0.95893002 0.32536301 0.43835801
0.97161001 0.32722801 0.435588
0.94558698 0.331494 0.43641001
0.94245398 0.33752999 0.43839899
0.97141701 0.33958799 0.43541101
0.90730101 0.34180501 0.43825001
0.933586 0.341921 0.43705499
0.944821 0.34451699 0.43548501
0.95719397 0.34321699 0.43734801
0.96149999 0.34238401 0.437159
0.87331402 0.34748101 0.43969601
0.92915899 0.34922299 0.43999499
0.93090099 0.34535399 0.439601
0.93921399 0.346852 0.43953401
0.884161 0.352025 0.43906301
0.90863901 0.35239801 0.43570799
0.92899603 0.350178 0.43568301
0.93966001 0.35348299 0.436263
0.94144702 0.35369101 0.43929699
0.93371099 0.35817301 0.43599799
0.947402 0.35689601 0.43568099
0.932724 0.36455399 0.43608999
0.95664197 0.36149299 0.43767199
0.96304101 0.36364099 0.437374
0.812509 0.316939 0.44387999
0.76071203 0.321659 0.444233
0.774809 0.32078001 0.44464299
0.96749496 0.32314748 0.4428075
0.97659898 0.32281801 0.44049999
0.991126 0.32382801 0.444691
1.002624 0.32168901 0.44292599
0.78193802 0.32776499 0.440714
0.94856602 0.326002 0.44209501
0.95473802 0.328201 0.44456601
0.963148 0.326949 0.44383401
0.98214102 0.3269285 0.441376
0.95325798 0.33072701 0.44106901
0.96939898 0.33418101 0.44190001
0.97113299 0.33095801 0.444024
0.94032401 0.33915901 0.44274199
0.95431799 0.33807299 0.44447699
0.95700902 0.33748999 0.44042
0.93706203 0.3432005 0.4424755
0.94392198 0.344188 0.44225401
0.95468801 0.3405 0.442164
0.95906103 0.34000501 0.442471
0.96363503 0.343642 0.444561
0.96530098 0.340339 0.44388101
0.97708303 0.34373501 0.44103199
0.92827797 0.35367101 0.44373199
0.95294201 0.35369599 0.440694
0.96201497 0.35300201 0.44287699
0.911268 0.35772699 0.44121301
0.96897399 0.31472 0.44879901
0.94581598 0.31683499 0.44503301
0.96327448 0.31612501 0.446264
0.96566898 0.318923 0.44653201
0.96741301 0.322303 0.44971001
0.97651201 0.32350999 0.44902
0.94161499 0.326253 0.446026
0.95308399 0.33457699 0.44968101
0.95578098 0.33096099 0.44784099
0.96390599 0.33008501 0.44648501
0.943367 0.33892801 0.44857699
0.95655 0.33908701 0.44710901
0.89495403 0.344239 0.44593301
0.93923801 0.344598 0.44554499
0.94247699 0.3422215 0.44768101
0.95885402 0.342462 0.44544399
0.96478999 0.34189099 0.44574001
0.99745202 0.343476 0.449689
0.93492001 0.34556201 0.445461
0.95925403 0.348959 0.44749799
0.98746002 0.34806201 0.44515201
0.93729001 0.35054299 0.445164
0.95165402 0.350766 0.447629
0.92246002 0.35530499 0.44608301
0.929272 0.35725901 0.448421
0.93438101 0.359842 0.44617
0.95090902 0.356296 0.44635201
0.75605297 0.314132 0.45039901
0.79642099 0.31335399 0.451298
0.974347 0.31461999 0.45263499
0.96912301 0.31843901 0.454243
0.97395998 0.319186 0.45008999
0.98692566 0.31781664 0.45240831
0.95855498 0.32291901 0.45370701
0.98901099 0.32085001 0.454263
0.95635003 0.32964399 0.45438001
0.97601402 0.32672799 0.45017001
0.98069102 0.32801601 0.45381701
0.92460501 0.33460799 0.45447999
0.97161198 0.33395901 0.45292801
0.96119303 0.33515 0.451859
0.97112352 0.33599001 0.45148998
0.99614698 0.335058 0.45224601
0.957008 0.34121099 0.45386401
0.93816298 0.34650001 0.451758
0.94258398 0.34677401 0.45355701
0.963543 0.34593099 0.45352599
0.93858701 0.35095799 0.45462701
0.958992 0.35345101 0.45217401
0.95045298 0.35652 0.453493
0.95678598 0.35608399 0.454245
0.98912698 0.309571 0.45985901
0.96662599 0.31247699 0.45796901
0.97395003 0.31342199 0.458666
