# .PCD v0.7 - Point Cloud Data file format
VERSION 0.7
FIELDS x y z
SIZE 4 4 4
TYPE F F F
COUNT 1 1 1
WIDTH 878
HEIGHT 1
VIEWPOINT 0 0 0 1 0 0 0
POINTS 878
DATA ascii
0.55328798 -0.72511703 1.8042001
0.54011899 -0.71207601 1.809926
0.53617001 -0.70700902 1.807211
0.51818502 -0.73585099 1.81063
0.56068498 -0.73676199 1.814728
0.545623 -0.73345399 1.814652
0.55313098 -0.72643501 1.814636
0.55672199 -0.72100198 1.814262
0.54443198 -0.71873403 1.810709
0.55825001 -0.71886599 1.81082
0.55684298 -0.70673501 1.814657
0.53820401 -0.70411998 1.814767
0.54358202 -0.70251697 1.810423
0.52451098 -0.74918199 1.815048
0.552773 -0.73589998 1.815395
0.53882498 -0.73127103 1.819301
0.54132855 -0.73207247 1.8161595
0.545228 -0.73275602 1.819714
0.55173397 -0.73085099 1.818265
0.55826402 -0.73482299 1.818265
0.56791699 -0.730708 1.817066
0.54569 -0.72757101 1.816543
0.55972803 -0.72775698 1.816292
0.55311 -0.72193998 1.8157001
0.56707299 -0.722278 1.815721
0.53859502 -0.71669698 1.8199919
0.54885966 -0.71640801 1.81805
0.55314201 -0.71641499 1.818874
0.56387299 -0.71519899 1.817872
0.56768799 -0.71613401 1.817757
0.54588002 -0.71353102 1.816747
0.55991799 -0.713718 1.816496
0.54206598 -0.70902097 1.8187391
0.55344802 -0.70798099 1.816004
0.56740999 -0.70831901 1.816025
0.534087 -0.70321798 1.816103
0.53573197 -0.69998598 1.815747
0.541399 -0.75348502 1.824892
0.55882502 -0.74455798 1.8243639
0.529616 -0.73635799 1.821828
0.54325002 -0.73957503 1.822337
0.54697299 -0.73846006 1.8223597
0.56059802 -0.73782754 1.822132
0.51749802 -0.73283303 1.8234
0.54183197 -0.73211002 1.823886
0.54528302 -0.73283303 1.8234
0.54643399 -0.72620201 1.821489
0.56990701 -0.72953302 1.823137
0.529612 -0.72429299 1.820015
0.53347498 -0.722408 1.820282
0.54113001 -0.72212899 1.82054
0.55416048 -0.72217751 1.8228254
0.555888 -0.72389603 1.8203599
0.57452601 -0.72484702 1.8236001
0.57515001 -0.72280699 1.820617
0.54528302 -0.71894097 1.8234
0.55917603 -0.71894097 1.8234
0.56048298 -0.71824902 1.822383
0.57306898 -0.71894097 1.8234
0.544011 -0.71107 1.823516
0.53360701 -0.70851701 1.820429
0.54607999 -0.70660466 1.8229446
0.56138998 -0.70878297 1.820652
0.52210498 -0.75401199 1.8295569
0.55003601 -0.75427902 1.829782
0.56400102 -0.75441301 1.8298939
0.58133698 -0.75270498 1.828305
0.53442502 -0.74532199 1.8264821
0.54854 -0.74550998 1.82623
0.557464 -0.74943298 1.827859
0.56265402 -0.74569702 1.825977
0.52223802 -0.74004698 1.829705
0.53620303 -0.74018002 1.829818
0.54344797 -0.74119401 1.829898
0.55552799 -0.74391001 1.826669
0.56909901 -0.74253654 1.8265669
0.53140301 -0.73888302 1.825313
0.53804868 -0.73703098 1.828029
0.54173797 -0.73944998 1.8251981
0.555318 -0.73864198 1.828788
0.52350301 -0.73208702 1.828792
0.52831602 -0.73299003 1.827832
0.53461599 -0.73120701 1.8266881
0.54284102 -0.73147899 1.826394
0.54589897 -0.73122299 1.826537
0.55422449 -0.73226404 1.826673
0.55563098 -0.73367298 1.828534
0.56800598 -0.73212498 1.82877
0.57008702 -0.73118699 1.8262759
0.57696003 -0.73176998 1.82593
0.52236998 -0.72608101 1.8298531
0.53151399 -0.72830099 1.8267546
0.54281652 -0.72678602 1.826879
0.56637698 -0.72626102 1.826957
0.58419102 -0.72643501 1.825567
0.52486598 -0.72307402 1.826961
0.53152603 -0.72453803 1.825711
0.54090899 -0.72204697 1.825529
0.54570866 -0.72278404 1.8270378
0.555825 -0.72360098 1.827898
0.52685702 -0.71840101 1.828424
0.53480703 -0.71709198 1.826893
0.53731698 -0.71831 1.828631
0.54275864 -0.71574235 1.8279123
0.55325598 -0.71904999 1.829424
0.55592102 -0.71567851 1.8267159
0.56639254 -0.71629 1.8277625
0.577151 -0.71765399 1.826135
0.49457201 -0.71184897 1.829777
0.524831 -0.71128702 1.825332
0.53663599 -0.71080399 1.8264281
0.54241699 -0.71138102 1.82581
0.545982 -0.71029598 1.825404
0.55047703 -0.71081799 1.828072
0.56393999 -0.71103901 1.8289959
0.58453 -0.71240097 1.825874
0.53258902 -0.70686603 1.827669
0.54859197 -0.70851201 1.829021
0.54903901 -0.75726801 1.8343509
0.55846798 -0.75783002 1.834834
0.52565098 -0.75094402 1.8304501
0.53421801 -0.75069797 1.8331
0.54818398 -0.75069797 1.8331
0.55488503 -0.75008702 1.8329411
0.56215101 -0.75069797 1.8331
0.57611698 -0.75069797 1.8331
0.52442902 -0.745193 1.8336101
0.53720802 -0.746584 1.834048
0.54573798 -0.74687803 1.834154
0.57771701 -0.74668801 1.8333319
0.52628702 -0.74298698 1.83348
0.54796702 -0.74147201 1.833925
0.55952197 -0.74146199 1.83456
0.57804298 -0.74181652 1.8317455
0.50628501 -0.73673201 1.8331
0.53421801 -0.73673201 1.8331
0.53742498 -0.73570597 1.834249
0.541201 -0.73587352 1.8313539
0.57611698 -0.73673201 1.8331
0.51538199 -0.73102999 1.83355
0.52360398 -0.73126203 1.831659
0.53194398 -0.73488897 1.8328201
0.550731 -0.73104399 1.8322999
0.55672401 -0.73277998 1.834567
0.56782901 -0.73167098 1.8330181
0.57706249 -0.73162651 1.8338516
0.58924001 -0.732104 1.834491
0.53339249 -0.72725928 1.833517
0.54124498 -0.72618002 1.831656
0.56389397 -0.729357 1.830817
0.57156599 -0.726004 1.833241
0.592197 -0.72675002 1.830415
0.51915801 -0.72040498 1.834759
0.52025098 -0.72276503 1.8331
0.53421801 -0.72276503 1.8331
0.53873801 -0.72108048 1.8311795
0.54913801 -0.72071201 1.831699
0.55086398 -0.72434402 1.832972
0.59008402 -0.72276503 1.8331
0.51968801 -0.71537101 1.8329329
0.53805101 -0.71623898 1.8324485
0.541426 -0.71876299 1.831004
0.54944998 -0.719877 1.832401
0.56288695 -0.71599197 1.8341625
0.57478201 -0.71734399 1.834524
0.52159351 -0.7121045 1.831602
0.53658998 -0.711339 1.8313431
0.54072398 -0.71143401 1.833734
0.55946797 -0.71484399 1.8349921
0.52025098 -0.708799 1.8331
0.53421801 -0.708799 1.8331
0.528175 -0.76567602 1.838376
0.545219 -0.76872897 1.839106
0.559986 -0.76784003 1.837919
0.56560999 -0.76383001 1.835759
0.53462601 -0.75716501 1.835058
0.54663199 -0.75508797 1.838936
0.55053502 -0.75988501 1.839945
0.533894 -0.75124598 1.8376679
0.54438502 -0.75392801 1.8398139
0.54665202 -0.75362402 1.83945
0.5508005 -0.75139797 1.8385855
0.55915099 -0.753039 1.838627
0.56345999 -0.75122201 1.836421
0.57634199 -0.75280201 1.837456
0.50986397 -0.74758202 1.837883
0.52322698 -0.74907202 1.836728
0.53710002 -0.74660701 1.8398679
0.54129249 -0.74714351 1.8366115
0.54850101 -0.74972701 1.836223
0.56582099 -0.748936 1.835422
0.57763201 -0.74950254 1.8375285
0.50592399 -0.74253303 1.8368731
0.51646799 -0.74269497 1.835078
0.52033597 -0.74263698 1.836165
0.53058201 -0.74303597 1.835099
0.53588998 -0.74412102 1.8373719
0.541004 -0.74011701 1.837551
0.545699 -0.74473703 1.839377
0.55889201 -0.743635 1.8357691
0.56314802 -0.74182802 1.836764
0.50690299 -0.73604 1.839874
0.51781899 -0.73809302 1.83971
0.53368002 -0.73861599 1.835048
0.53658098 -0.736031 1.836885
0.56093401 -0.73802298 1.838695
0.58184999 -0.73805201 1.8363791
0.59437698 -0.73582202 1.835664
0.50922799 -0.73469102 1.837188
0.52287972 -0.73233646 1.837826
0.52930802 -0.73407698 1.838486
0.56328303 -0.734038 1.836915
0.51680899 -0.72858399 1.835386
0.53092301 -0.728926 1.835407
0.55661595 -0.727189 1.8376164
0.51112598 -0.72047901 1.8392791
0.52361202 -0.72068799 1.837141
0.52916503 -0.72481501 1.839793
0.53312701 -0.72107798 1.838148
0.53655303 -0.72313797 1.837721
0.54556698 -0.72038299 1.837415
0.57716501 -0.72470999 1.839964
0.587017 -0.72166002 1.8376679
0.59456903 -0.72162998 1.835871
0.511307 -0.71579099 1.839772
0.51882398 -0.71825701 1.8369761
0.529486 -0.71817553 1.8375185
0.535146 -0.71725452 1.8387085
0.54091102 -0.718261 1.835656
0.56629401 -0.71712601 1.838101
0.57533699 -0.71633798 1.835269
0.51714998 -0.71447301 1.835693
0.52049601 -0.714917 1.83713
0.53312999 -0.71435302 1.835986
0.566899 -0.77588999 1.843572
0.58139199 -0.775994 1.84286
0.54463202 -0.76152402 1.844317
0.54541397 -0.76483297 1.843747
0.56702298 -0.76138502 1.843973
0.57572103 -0.76222003 1.8448761
0.51485097 -0.75570703 1.842188
0.54837298 -0.75880098 1.840468
0.55056298 -0.757276 1.8448811
0.56054199 -0.75706798 1.8410521
0.52573901 -0.75045502 1.840415
0.53193998 -0.75390798 1.84058
0.53663599 -0.754538 1.8417031
0.54089099 -0.75336403 1.84113
0.54801202 -0.75431198 1.8404109
0.59638202 -0.75032997 1.844159
0.60731202 -0.75475198 1.8430001
0.51902902 -0.746023 1.843917
0.52700198 -0.74803638 1.841713
0.53250551 -0.74633598 1.8428205
0.54424 -0.74603802 1.840068
0.54639202 -0.74585098 1.8428299
0.56010002 -0.747639 1.840793
0.5873515 -0.74974704 1.842796
0.59647298 -0.74796104 1.8426654
0.51401699 -0.740906 1.842896
0.51666403 -0.742001 1.842186
0.52257103 -0.74095601 1.8414021
0.52747148 -0.74076051 1.842646
0.53108299 -0.74210602 1.843577
0.53693002 -0.74273801 1.8437901
0.55276799 -0.74081302 1.8400331
0.579009 -0.74446398 1.842239
0.58310699 -0.74248701 1.843765
0.59327 -0.74071002 1.8430001
0.595285 -0.74467897 1.840153
0.60731202 -0.74071002 1.8430001
0.50228602 -0.739739 1.843539
0.51013303 -0.73602998 1.844708
0.51838052 -0.73875904 1.8440065
0.52230954 -0.73708153 1.8415256
0.53357905 -0.73918134 1.8419997
0.53554499 -0.73830599 1.840166
0.54869002 -0.736839 1.8400559
0.553451 -0.73544103 1.840897
0.55616999 -0.73712701 1.843009
0.573255 -0.73976499 1.843545
0.493332 -0.734833 1.8439161
0.52310348 -0.73269451 1.8443475
0.54226202 -0.73080999 1.841838
0.58445501 -0.732687 1.844594
0.59579748 -0.73333049 1.843166
0.60945898 -0.73077297 1.840414
0.61075097 -0.732687 1.842643
0.50826901 -0.72581202 1.840891
0.5129655 -0.72744948 1.8429395
0.51758301 -0.72722799 1.840071
0.5283215 -0.72630751 1.843444
0.53728199 -0.72508103 1.841267
0.54950798 -0.725366 1.842801
0.50205398 -0.72500002 1.844237
0.516352 -0.72342098 1.840306
0.52285099 -0.72141099 1.8444185
0.53178424 -0.72380602 1.8431008
0.51313901 -0.71667802 1.8434629
0.56553102 -0.77210301 1.848175
0.53952599 -0.769701 1.847594
0.55451798 -0.76769698 1.846101
0.50745201 -0.76014102 1.847983
0.54193598 -0.76225901 1.849534
0.55582899 -0.76289898 1.849591
0.58428699 -0.76266402 1.849875
0.52336001 -0.75647402 1.849647
0.52789998 -0.75813001 1.8474231
0.54673946 -0.75658298 1.8473589
0.56713498 -0.75535899 1.8487279
0.57821202 -0.75607902 1.8481621
0.51138002 -0.75344503 1.845582
0.53116602 -0.75359303 1.84576
0.54222453 -0.75365102 1.84786
0.56114501 -0.75288898 1.845705
0.566176 -0.752841 1.846238
0.58175802 -0.75284398 1.8464431
0.59751898 -0.75399601 1.845543
0.52316201 -0.74982899 1.845337
0.52718252 -0.74522102 1.8463135
0.53916198 -0.74500299 1.847396
0.580369 -0.74783099 1.846449
0.59025502 -0.74837601 1.845207
0.60444599 -0.74871999 1.845229
0.51950598 -0.742441 1.846337
0.52222598 -0.74269301 1.84813
0.58818299 -0.74354702 1.847412
0.59343898 -0.74109197 1.8474929
0.50894397 -0.73822403 1.847621
0.60707599 -0.73940498 1.846486
0.61198199 -0.73991501 1.845495
0.50929701 -0.73195797 1.847622
0.51397002 -0.73375499 1.849606
0.51578897 -0.73067099 1.846668
0.52379 -0.73206198 1.84691
0.52641797 -0.73229402 1.84648
0.53192699 -0.73110104 1.8478429
0.54318798 -0.73035997 1.845964
0.59291297 -0.73311597 1.8464741
0.60478902 -0.734532 1.845538
0.50266802 -0.72553998 1.845576
0.50624901 -0.72671199 1.845188
0.51255298 -0.72644299 1.847466
0.51739752 -0.72788846 1.8474
0.52186102 -0.72687602 1.847482
0.58087802 -0.72729498 1.845544
0.51229 -0.72431898 1.84749
0.51908797 -0.72194803 1.845498
0.53053099 -0.72430801 1.845675
0.55289203 -0.72153997 1.846115
0.56997502 -0.72422302 1.84633
0.51859164 -0.71702796 1.8467607
0.52391398 -0.71755701 1.847312
0.599617 -0.78019297 1.852468
0.53678 -0.76703602 1.85343
0.541076 -0.765508 1.853393
0.55377299 -0.76928902 1.8548419
0.58662999 -0.76722252 1.8537545
0.51216501 -0.76257002 1.853008
0.537889 -0.76038897 1.853297
0.56026602 -0.76167101 1.854075
0.57813299 -0.76367497 1.852613
0.54521602 -0.75820702 1.850549
0.56682903 -0.75604302 1.850773
0.59649003 -0.75884801 1.853
0.50550598 -0.75018799 1.851235
0.52417898 -0.75258303 1.852753
0.57735801 -0.75348997 1.850129
0.587892 -0.75495303 1.853691
0.60236901 -0.75190502 1.8549629
0.61444002 -0.75112599 1.852561
0.61588299 -0.75134999 1.852517
0.50311399 -0.745664 1.854845
0.51158899 -0.74519998 1.854948
0.519131 -0.74577302 1.852401
0.60090798 -0.74803698 1.852218
0.50719398 -0.74324602 1.851701
0.52209163 -0.74172705 1.8514833
0.51295799 -0.73561698 1.850435
0.51907402 -0.73544902 1.854442
0.58921498 -0.73908699 1.850153
0.61467397 -0.73618901 1.852203
0.50609398 -0.73261899 1.852634
0.51178098 -0.73061103 1.853
0.50705701 -0.72780299 1.851779
0.518969 -0.72720301 1.851217
0.52076447 -0.7274155 1.8531256
0.53590202 -0.72955698 1.8501641
0.50616199 -0.72356498 1.8548321
0.51098001 -0.72038901 1.852205
0.50182498 -0.71556002 1.850986
0.58338702 -0.77501398 1.858265
0.55854201 -0.772017 1.856845
0.57331699 -0.77047998 1.855383
0.58888501 -0.77128601 1.856207
0.54397601 -0.76913399 1.858624
0.564735 -0.76523799 1.857576
0.57169199 -0.76556599 1.855655
0.52326602 -0.76290399 1.855581
0.52670997 -0.76077998 1.8555911
0.53264397 -0.76154202 1.855931
0.54696399 -0.76438701 1.8590111
0.56976902 -0.76283699 1.8592401
0.57584602 -0.76367497 1.856671
0.59906399 -0.76071697 1.85734
0.61394399 -0.76042902 1.856197
0.534832 -0.75671601 1.859781
0.54375201 -0.75505102 1.8576241
0.56588399 -0.759395 1.859635
0.580612 -0.75970399 1.855399
0.59748101 -0.75914299 1.85778
0.612418 -0.75824398 1.8565789
0.61523402 -0.75820601 1.855469
0.51702201 -0.75107551 1.8563275
0.52211249 -0.75377703 1.859172
0.59360802 -0.75248802 1.855233
0.622042 -0.753079 1.855372
0.509417 -0.74623203 1.8562109
0.51761198 -0.745902 1.85625
0.520863 -0.74811202 1.856481
0.53263199 -0.749888 1.855664
0.60503501 -0.74858999 1.859756
0.61370999 -0.74552101 1.856903
0.51433402 -0.74350202 1.85574
0.51320601 -0.73688364 1.8577653
0.51940101 -0.73922199 1.857916
0.62238699 -0.738814 1.855683
0.50227499 -0.73077798 1.855557
0.50634646 -0.7308085 1.859031
0.51845998 -0.73332 1.857381
0.51443398 -0.725779 1.856917
0.49632701 -0.72279203 1.856504
0.50752497 -0.72116899 1.8554285
0.58023602 -0.78388703 1.864185
0.54874998 -0.77648902 1.861742
0.582982 -0.77644902 1.860219
0.59974098 -0.777179 1.8631001
0.54634303 -0.77108502 1.86419
0.56634301 -0.77025098 1.863921
0.58503598 -0.77245599 1.86366
0.60844302 -0.77242398 1.8646539
0.54794699 -0.76693898 1.86305
0.55610502 -0.76731551 1.8619599
0.56483799 -0.76811898 1.8609869
0.57415003 -0.76962602 1.860662
0.60286164 -0.76796931 1.8625994
0.518767 -0.76402199 1.864785
0.524665 -0.76215798 1.8630559
0.55042303 -0.76237202 1.8639261
0.59060597 -0.76190698 1.8628941
0.59608197 -0.76444799 1.863796
0.52646297 -0.756926 1.860556
0.52271998 -0.75028002 1.862739
0.52632701 -0.750247 1.86063
0.60573298 -0.75366902 1.860525
0.61046398 -0.75352299 1.861473
0.616018 -0.75286299 1.860337
0.630211 -0.75299901 1.860451
0.50947899 -0.74861097 1.860252
0.60875702 -0.74643302 1.861748
0.62813097 -0.74878901 1.8631001
0.51567298 -0.74464703 1.8629839
0.50869203 -0.73793799 1.86489
0.51286203 -0.73782498 1.862118
0.51692802 -0.73913699 1.862505
0.521864 -0.73773402 1.860752
0.50686699 -0.73291004 1.8610101
0.51162148 -0.73382246 1.861773
0.51186502 -0.72604001 1.860487
0.57632703 -0.78508002 1.869876
0.590599 -0.78521699 1.86999
0.588548 -0.780047 1.868611
0.56849098 -0.77723998 1.869542
0.578857 -0.77751201 1.869276
0.53132099 -0.77155101 1.8681459
0.59644002 -0.77078301 1.865237
0.61078697 -0.77113098 1.8652591
0.62513399 -0.771478 1.86528
0.55441099 -0.76529998 1.869141
0.55599397 -0.76708001 1.866694
0.56325299 -0.76965898 1.865617
0.594751 -0.76995301 1.866505
0.53395498 -0.76302099 1.865381
0.54804701 -0.76174098 1.866763
0.60946101 -0.76103997 1.867165
0.621602 -0.76431602 1.869805
0.630674 -0.75412798 1.869278
0.52825701 -0.74855298 1.869242
0.63315451 -0.74861002 1.866142
0.511051 -0.74001199 1.865733
0.50977099 -0.73640299 1.865712
0.51839602 -0.73556203 1.866662
0.51130903 -0.73262101 1.868773
0.60487098 -0.785353 1.870105
0.54927099 -0.78259999 1.873898
0.56406403 -0.780056 1.871587
0.570472 -0.77642697 1.8720109
0.603392 -0.77511799 1.874179
0.61214697 -0.77514303 1.874104
0.53871602 -0.77096897 1.870306
0.54222 -0.77132303 1.874149
0.58410001 -0.77084899 1.8724869
0.59757203 -0.77471799 1.870069
0.61927801 -0.77121902 1.870371
0.62825799 -0.77359599 1.87326
0.63354897 -0.77135497 1.870486
0.59783399 -0.76999998 1.8735321
0.60272199 -0.76759702 1.871139
0.61658603 -0.76524502 1.871055
0.63156998 -0.76716101 1.8733
0.64584202 -0.76716101 1.8733
0.50771302 -0.76296401 1.872591
0.51196098 -0.75896502 1.874375
0.53721899 -0.75913501 1.874598
0.62559301 -0.75857598 1.873235
0.63066 -0.75510901 1.874415
0.63698697 -0.75928497 1.872964
0.52212298 -0.75369298 1.871135
0.52583098 -0.75421798 1.870091
0.505247 -0.74755901 1.874655
0.50379801 -0.74352598 1.870775
0.50809503 -0.73930103 1.870411
0.50760698 -0.73278803 1.874513
0.57809502 -0.79078698 1.8762259
0.58805501 -0.78608203 1.879685
0.61382902 -0.78972602 1.875263
0.62766701 -0.786102 1.87524
0.58693099 -0.78070903 1.875754
0.60728598 -0.78231102 1.878967
0.58318299 -0.77849799 1.8765481
0.58845103 -0.77798599 1.877395
0.60708302 -0.777951 1.876267
0.55839199 -0.77009201 1.877745
0.58127099 -0.77453101 1.8791341
0.54820198 -0.76932597 1.875921
0.63701832 -0.76673502 1.8766727
0.54256898 -0.76440001 1.8760149
0.54657698 -0.762411 1.87694
0.55056697 -0.76360297 1.875631
0.619084 -0.764359 1.878015
0.625076 -0.76072598 1.879261
0.64337897 -0.76157802 1.875936
0.53000498 -0.75235802 1.876771
0.52090698 -0.74858302 1.877705
0.52146202 -0.74247402 1.87609
0.523606 -0.73698902 1.875041
0.620691 -0.78573 1.8836
0.568793 -0.782278 1.883027
0.59227598 -0.78131902 1.881968
0.61462599 -0.78136998 1.8843271
0.54342401 -0.77560699 1.8824919
0.56919301 -0.77868998 1.88448
0.57379496 -0.77803397 1.8827425
0.62366098 -0.77584302 1.882066
0.62607902 -0.77809602 1.883986
0.63188201 -0.77749801 1.8835829
0.61868101 -0.77101201 1.880394
0.62179202 -0.77370203 1.8837039
0.53441101 -0.76457602 1.880982
0.64540499 -0.76083499 1.882709
0.65154302 -0.761347 1.881039
0.65585101 -0.76347399 1.882942
0.53010601 -0.75963801 1.880061
0.54195499 -0.75707603 1.884402
0.52046502 -0.75154901 1.8846869
0.50152802 -0.74530602 1.8833719
0.53251803 -0.74661499 1.8804359
0.5272525 -0.74296451 1.8836451
0.57369202 -0.79520601 1.8862441
0.58829302 -0.797288 1.887432
0.605847 -0.79763198 1.888026
0.61082 -0.799528 1.8865449
0.55440402 -0.78605801 1.889505
0.57925802 -0.78684598 1.889396
0.61205602 -0.78812999 1.889405
0.62085402 -0.78676498 1.887098
0.6263355 -0.78535849 1.8877155
0.59642899 -0.78474498 1.887018
0.611018 -0.78493899 1.886757
0.64664698 -0.78025699 1.886138
0.62547398 -0.77782297 1.8863879
0.54282898 -0.77422601 1.886439
0.54844803 -0.77042902 1.887544
0.55103898 -0.774369 1.888757
0.56431502 -0.77171302 1.889838
0.62380201 -0.773094 1.888078
0.643085 -0.77406597 1.8898211
0.53317797 -0.768893 1.889964
0.53246748 -0.75612354 1.8876419
0.51577199 -0.74703097 1.8885241
0.52530903 -0.74677199 1.885692
0.59087902 -0.80020601 1.8903641
0.57542098 -0.79413497 1.891858
0.63854897 -0.79006898 1.8940001
0.65297902 -0.79006898 1.8940001
0.59000498 -0.78842598 1.894227
0.60079402 -0.78592598 1.892598
0.556997 -0.78345001 1.892925
0.63166499 -0.78343397 1.8946249
0.64501601 -0.78244501 1.894156
0.55515301 -0.77803397 1.894017
0.56941003 -0.77833903 1.890443
0.64419699 -0.77659202 1.8900959
0.65502602 -0.77994198 1.891273
0.66741002 -0.77563798 1.8940001
0.55039901 -0.77216399 1.892422
0.52708602 -0.76221198 1.892125
0.537718 -0.76002097 1.89309
0.541565 -0.76440901 1.89398
0.53188902 -0.75932097 1.890617
0.61666101 -0.80766499 1.899893
0.60803002 -0.79980999 1.8971061
0.61566103 -0.796193 1.8984751
0.623151 -0.79823703 1.895609
0.59984702 -0.79329598 1.899718
0.61349601 -0.794029 1.899089
0.61505097 -0.79060602 1.8958
0.63164997 -0.79211301 1.899446
0.646878 -0.79181802 1.898276
0.58705503 -0.786645 1.895327
0.61343002 -0.78921902 1.8974659
0.61634201 -0.78834099 1.89904
0.643888 -0.789626 1.896909
0.64706099 -0.78888202 1.898985
0.60036099 -0.78443599 1.896957
0.66485202 -0.78486699 1.896677
0.56243402 -0.77976501 1.897622
0.65875697 -0.77515 1.89686
0.66186702 -0.77626598 1.897828
0.53437501 -0.766361 1.895486
0.53719902 -0.75591099 1.89967
0.58634299 -0.80364001 1.901565
0.58464199 -0.79598498 1.9036371
0.60067701 -0.79931402 1.9038661
0.62955803 -0.79850101 1.901471
0.63701802 -0.79668301 1.904665
0.66130102 -0.79771399 1.90346
0.58325797 -0.792198 1.901767
0.60142499 -0.79285753 1.9026835
0.57297999 -0.786443 1.903883
0.640881 -0.78842199 1.904717
0.66416103 -0.78683299 1.904415
0.53880697 -0.78436702 1.902126
0.59819198 -0.78402197 1.90116
0.626095 -0.78238797 1.901615
0.65414602 -0.78103697 1.903222
0.65784395 -0.78315049 1.90443
0.673958 -0.77978897 1.9020261
0.55103803 -0.77069998 1.9011281
0.56149697 -0.77336401 1.902614
0.54922098 -0.76538801 1.901863
0.632662 -0.80852503 1.9077311
0.647416 -0.80872101 1.907467
0.60602051 -0.80297053 1.909063
0.63252604 -0.80227399 1.906832
0.63892603 -0.80316103 1.907029
0.58756 -0.79688501 1.909637
0.61732203 -0.79646099 1.9059139
0.62435597 -0.79824501 1.907182
0.59314299 -0.79253197 1.907603
0.62326801 -0.79177201 1.906021
0.66237003 -0.79416198 1.9074171
0.58929199 -0.78935802 1.907212
0.57168299 -0.78017402 1.9074529
0.54162902 -0.76556897 1.9053169
0.67672002 -0.81791699 1.9122519
0.63638198 -0.811773 1.910019
0.63366503 -0.80838102 1.91334
0.61246902 -0.80065 1.914471
0.62114602 -0.80195999 1.913317
0.65121901 -0.80175102 1.913246
0.60203499 -0.79896897 1.910399
0.63868999 -0.79766297 1.913126
0.65865898 -0.79718798 1.910961
0.68187898 -0.79904503 1.912444
0.61159998 -0.79233199 1.911692
0.64513898 -0.79100603 1.9101191
0.57440501 -0.787983 1.9100831
0.584566 -0.78995401 1.91055
0.63155597 -0.78921503 1.9114881
0.651784 -0.78606403 1.9112999
0.67699701 -0.78873599 1.9125611
0.56431103 -0.78096199 1.912155
0.56668198 -0.78147602 1.914205
0.535923 -0.76868701 1.91081
0.627482 -0.80550998 1.918101
0.65731299 -0.80797601 1.917864
0.67206597 -0.80833298 1.917887
0.57413298 -0.80181098 1.918193
0.61999297 -0.804865 1.9176069
0.64884949 -0.80484599 1.917928
0.65140498 -0.804286 1.917205
0.67152703 -0.80021501 1.91987
0.58045697 -0.79938 1.915794
0.60704798 -0.79935098 1.919228
0.61414897 -0.799119 1.918731
0.63477999 -0.79627502 1.915916
0.653148 -0.79839402 1.916194
0.67488003 -0.79891199 1.9152
0.57334298 -0.782781 1.9183871
0.66588598 -0.82235098 1.922918
0.61131698 -0.81578797 1.924996
0.62678802 -0.81485599 1.923752
0.61635 -0.80582201 1.924937
0.651353 -0.80753702 1.922955
0.666026 -0.80767798 1.9230731
0.68069899 -0.807818 1.923192
0.615686 -0.80419302 1.920133
0.66379398 -0.80348098 1.923131
0.59709603 -0.797068 1.924371
0.66331601 -0.79628301 1.922786
0.67233002 -0.79655403 1.920761
0.58095098 -0.79050702 1.924943
0.66146898 -0.79151899 1.922936
0.561589 -0.77637702 1.923471
0.56702697 -0.77659601 1.9247561
0.63940102 -0.826204 1.929203
0.65731901 -0.82576197 1.926592
0.61426198 -0.81725001 1.928283
0.66992903 -0.81792599 1.9291379
0.69335997 -0.81809098 1.926
0.62770599 -0.81262302 1.925101
0.65744901 -0.81058103 1.927012
0.63375103 -0.80927598 1.9265685
0.63867402 -0.80501503 1.927888
0.64839399 -0.80643702 1.926445
0.668639 -0.80754203 1.926785
0.621903 -0.801781 1.925297
0.685054 -0.80320102 1.929088
0.64782798 -0.79902297 1.926778
0.56420702 -0.79016 1.92961
0.57404 -0.792193 1.928
0.56290299 -0.78225499 1.927647
0.576783 -0.78456801 1.928888
0.60563999 -0.82047403 1.930439
0.64139402 -0.81770003 1.932453
0.66269702 -0.81744099 1.9329129
0.67826098 -0.816504 1.931662
0.62768698 -0.81150103 1.933149
0.65487701 -0.812096 1.934558
0.604752 -0.80653697 1.9316241
0.6072855 -0.80663753 1.932596
0.60641301 -0.800713 1.932404
0.62299198 -0.80074298 1.931277
0.66129702 -0.80419898 1.930883
0.66661298 -0.80263901 1.932304
0.691818 -0.80433398 1.930252
0.59076703 -0.79926097 1.930014
0.58694202 -0.79257405 1.9325995
0.65989101 -0.82893598 1.939296
0.630642 -0.81702602 1.9398201
0.64358902 -0.81772399 1.9387881
0.61324298 -0.81441599 1.939623
0.66411698 -0.81470197 1.938728
0.68930399 -0.81016201 1.936864
0.679003 -0.80836099 1.9365931
0.60698301 -0.80455798 1.938658
0.56564999 -0.79298401 1.937163
0.58334601 -0.79098499 1.936462
0.62199098 -0.82648998 1.9441299
0.665797 -0.825014 1.94357
0.63572502 -0.82159698 1.943527
0.677957 -0.82002902 1.9448251
0.681391 -0.82471198 1.942372
0.62678301 -0.81636101 1.944595
0.61786199 -0.81446898 1.941396
0.62773198 -0.81317902 1.942555
0.598638 -0.808393 1.94326
0.62134802 -0.80775499 1.943509
0.62539601 -0.80859703 1.940467
0.58789599 -0.80212098 1.942704
0.58993202 -0.793706 1.944024
0.67787302 -0.830962 1.948607
0.70318598 -0.831909 1.9450229
0.677993 -0.82621902 1.94898
0.68640298 -0.82739401 1.9479001
0.65268248 -0.82157004 1.945969
0.662274 -0.82280302 1.948867
0.64838898 -0.81962198 1.9471329
0.67482603 -0.81762201 1.946964
0.681427 -0.81977201 1.949119
0.69467503 -0.81515199 1.949576
0.703327 -0.81706899 1.945181
0.610865 -0.81431001 1.9454041
0.61438799 -0.80689502 1.947113
0.59858102 -0.80258501 1.9454
0.65466499 -0.834907 1.953835
0.67018098 -0.83223802 1.951411
0.65733403 -0.82675999 1.9530571
0.66604501 -0.82803702 1.950447
0.65764999 -0.82321203 1.951419
0.69875598 -0.82240897 1.951143
0.70437801 -0.82465899 1.9542511
0.61378002 -0.80983698 1.9514821
0.597893 -0.80145597 1.950286
0.65057999 -0.83125901 1.956012
0.67542303 -0.832151 1.9591
0.68411303 -0.83137101 1.957379
0.64203101 -0.82711393 1.9583378
0.66588497 -0.82934302 1.9594229
0.68843102 -0.82875699 1.957198
0.68035001 -0.822644 1.955958
0.60468102 -0.816607 1.955453
0.60662401 -0.81094599 1.957031
0.65506399 -0.845851 1.9632781
0.68735802 -0.84180301 1.9621
0.65273499 -0.837394 1.964132
0.68601 -0.83618498 1.96155
0.63511503 -0.83447999 1.961576
0.65011102 -0.83192998 1.964051
0.66842401 -0.834382 1.960755
0.69706601 -0.832008 1.962659
0.65334702 -0.82536203 1.961136
0.65574598 -0.82509297 1.9638799
0.71111602 -0.82949001 1.964049
0.644279 -0.82353902 1.960695
0.61562198 -0.81929398 1.962067
0.632083 -0.81984001 1.964038
0.67893398 -0.84707302 1.968151
0.63896 -0.83010101 1.969739
0.64850998 -0.83380097 1.965139
0.661466 -0.83339101 1.967284
0.66990799 -0.83144099 1.965493
0.68392098 -0.83173198 1.969381
0.68822497 -0.830778 1.967159
0.70650196 -0.83311248 1.9656435
0.65267903 -0.82959902 1.965181
0.67642498 -0.82467198 1.965016
0.62029302 -0.81771302 1.968948
0.63905603 -0.81865799 1.968392
0.62611502 -0.840617 1.974704
0.69032902 -0.84462899 1.972124
0.70585901 -0.84473997 1.971362
0.72139001 -0.84485197 1.9705991
0.680691 -0.83697802 1.971154
0.697025 -0.83811897 1.973007
0.70718098 -0.83904499 1.972073
0.62992698 -0.82798803 1.972514
0.64339203 -0.82601398 1.971336
0.742818 -0.84929597 1.978304
0.63994098 -0.84294701 1.978202
0.69642597 -0.842942 1.975693
0.648247 -0.83904397 1.976915
0.74364698 -0.856893 1.9818
0.68347901 -0.85142201 1.984126
0.663028 -0.84236997 1.981595
0.673006 -0.84456402 1.983677
0.64297301 -0.83648902 1.981725
0.63088202 -0.83136898 1.982466
0.65098798 -0.83335298 1.981089
0.66456598 -0.83365202 1.981728
0.63982499 -0.82927299 1.983533
0.710715 -0.85184503 1.985135
0.686423 -0.84178299 1.985028
0.67062998 -0.85669899 1.994329
0.70548898 -0.85571003 1.991487
0.73486 -0.85128498 1.990481
0.70095801 -0.84925902 1.993187
0.64934701 -0.84156001 1.993327
0.66606301 -0.84035498 1.993046
0.69721299 -0.84493399 1.991098
0.71127403 -0.862988 1.996701
0.73893899 -0.86386901 1.999851
0.75589597 -0.86249 1.996676
0.73027903 -0.85713899 1.9968621
0.70467001 -0.85273701 1.995916
0.68176597 -0.84899199 1.998052
0.72286302 -0.86418098 2.001086
0.66837603 -0.85967499 2.0046239
0.727112 -0.85964501 2.00278
0.74494702 -0.86729097 2.0089021
0.72610098 -0.863379 2.0076439
0.71262199 -0.85712999 2.0054929
0.70233399 -0.860627 2.0123751
0.687846 -0.86866897 2.0174201
0.71109599 -0.86966598 2.0247891
0.685036 -0.869721 2.02597
0.708413 -0.879031 2.035023
