# .PCD v0.7 - Point Cloud Data file format
VERSION 0.7
FIELDS x y z
SIZE 4 4 4
TYPE F F F
COUNT 1 1 1
WIDTH 1510
HEIGHT 1
VIEWPOINT 0 0 0 1 0 0 0
POINTS 1510
DATA ascii
-0.217859 1.210585 -0.48982799
-0.27270001 1.225113 -0.48999301
-0.222708 1.225886 -0.48976901
-0.22085799 1.234398 -0.48761299
-0.32775801 1.2375211 -0.48509499
-0.216186 1.239759 -0.48629701
-0.27535501 1.253817 -0.48971999
-0.22637101 1.261744 -0.48861301
-0.22085901 1.263934 -0.48775801
-0.254731 1.272261 -0.486444
-0.27415201 1.288165 -0.48859799
-0.45705101 1.293555 -0.489461
-0.265021 1.290993 -0.489207
-0.25438899 1.301774 -0.487279
-0.280788 1.312609 -0.48918399
-0.26679099 1.320163 -0.48899999
-0.27239299 1.3272671 -0.488107
-0.095659003 1.059786 -0.48041999
-0.094498001 1.077974 -0.48051301
-0.209867 1.081923 -0.48189101
-0.13328201 1.082792 -0.48437199
-0.095973998 1.088796 -0.48456299
-0.15061601 1.100673 -0.48115399
-0.12932301 1.107242 -0.480304
-0.101326 1.124107 -0.48194101
-0.222067 1.127411 -0.48345199
-0.14518 1.125827 -0.484992
-0.24252801 1.133917 -0.480977
-0.12851501 1.132593 -0.483843
-0.248845 1.135762 -0.48113799
-0.110191 1.144563 -0.484577
-0.097390004 1.141912 -0.48348001
-0.223447 1.154327 -0.48323601
-0.170315 1.1519049 -0.48178899
-0.100141 1.153074 -0.481875
-0.25609899 1.160368 -0.48319799
-0.12748301 1.162681 -0.48379099
-0.116596 1.1607341 -0.48132199
-0.120076 1.168159 -0.483962
-0.176686 1.172094 -0.48328999
-0.161073 1.1728719 -0.48410001
-0.110421 1.170728 -0.48209301
-0.133008 1.18146 -0.48097101
-0.28887901 1.186157 -0.484772
-0.284601 1.1857491 -0.48205599
-0.25905901 1.1896729 -0.483071
-0.117115 1.188182 -0.481323
-0.14188699 1.1995111 -0.48338601
-0.210067 1.200825 -0.48490301
-0.161615 1.204722 -0.48350501
-0.132145 1.21232 -0.48015499
-0.287687 1.215085 -0.48206899
-0.281928 1.226263 -0.48316199
-0.25253001 1.227582 -0.48366401
-0.203729 1.226643 -0.48368999
-0.17507499 1.229537 -0.483459
-0.23367 1.233012 -0.48009399
-0.19634899 1.234446 -0.48055801
-0.28662401 1.239693 -0.48465601
-0.214352 1.235007 -0.480887
-0.265111 1.249825 -0.48291001
-0.108675 1.2450711 -0.48145601
-0.198773 1.2528321 -0.48074701
-0.28453499 1.2578959 -0.48280701
-0.20336001 1.257674 -0.48359701
-0.23318601 1.261812 -0.48092699
-0.29721701 1.27139 -0.48385799
-0.26821601 1.2806 -0.48278999
-0.52575302 1.305679 -0.48466799
-0.29725701 1.30581 -0.48199001
-0.35758001 1.312506 -0.482041
-0.28988299 1.322827 -0.48209801
-0.207342 1.059734 -0.477916
-0.202124 1.058519 -0.47703701
-0.197926 1.057061 -0.47626701
-0.147883 1.071039 -0.47615799
-0.14100599 1.073704 -0.47951001
-0.18646 1.07692 -0.476969
-0.203924 1.08456 -0.47653601
-0.20941 1.086128 -0.47756299
-0.13277601 1.096024 -0.47874701
-0.163506 1.1050611 -0.47940299
-0.104844 1.108112 -0.476414
-0.20574699 1.111006 -0.47604299
-0.120978 1.119915 -0.47556299
-0.164241 1.121531 -0.47753799
-0.142823 1.123248 -0.47958401
-0.115226 1.123198 -0.47644001
-0.13448399 1.125659 -0.479265
-0.242109 1.1348391 -0.47911701
-0.18491399 1.134254 -0.47746599
-0.162774 1.134542 -0.47828701
-0.106527 1.137033 -0.476354
-0.122376 1.142296 -0.475858
-0.099491999 1.142072 -0.47940499
-0.241891 1.145329 -0.47974399
-0.17788699 1.1484751 -0.47760901
-0.155872 1.149826 -0.47971499
-0.27004799 1.152806 -0.47545201
-0.26361099 1.150972 -0.475927
-0.141571 1.151054 -0.47955
-0.18048 1.156926 -0.478358
-0.171386 1.157817 -0.476798
-0.18436 1.164223 -0.476309
-0.16203 1.1645139 -0.477137
-0.131366 1.166855 -0.477516
-0.108244 1.166383 -0.47625899
-0.24341799 1.1723779 -0.47950101
-0.214754 1.171666 -0.47897601
-0.13917001 1.1703399 -0.47942001
-0.121109 1.171145 -0.47580001
-0.100816 1.170334 -0.47903201
-0.177415 1.178737 -0.476722
-0.14030901 1.179355 -0.47957
-0.155212 1.180099 -0.478847
-0.138771 1.183907 -0.478351
-0.204307 1.187716 -0.47912899
-0.17951199 1.18547 -0.47834
-0.17105199 1.188321 -0.47618899
-0.26338801 1.190429 -0.475766
-0.24761599 1.1926481 -0.47904199
-0.22929899 1.1930031 -0.47957799
-0.18379501 1.194761 -0.475182
-0.107924 1.190032 -0.476455
-0.161273 1.195055 -0.476017
-0.13875 1.195348 -0.47685301
-0.130977 1.197015 -0.47709301
-0.102148 1.1990989 -0.478706
-0.176936 1.209572 -0.47587001
-0.117844 1.20806 -0.47510999
-0.154541 1.210946 -0.47801301
-0.2651 1.2179511 -0.47543499
-0.203686 1.217649 -0.479087
-0.170715 1.219403 -0.47562
-0.26158699 1.222508 -0.47575799
-0.13778301 1.226392 -0.47569001
-0.115064 1.226688 -0.47653201
-0.31024501 1.232312 -0.47561699
-0.28544 1.236383 -0.475427
-0.131266 1.243686 -0.47929499
-0.26683399 1.245901 -0.475115
-0.26402101 1.25411 -0.475339
-0.217996 1.250731 -0.47703099
-0.17037 1.250996 -0.47500899
-0.21818399 1.261996 -0.47544199
-0.249797 1.284506 -0.47833401
-0.41294599 1.294412 -0.47521901
-0.50765198 1.300855 -0.47575399
-0.37290701 1.3108 -0.478338
-0.31359699 1.314781 -0.47852099
-0.25145 1.3136261 -0.47804299
-0.21659601 1.3117059 -0.47694099
-0.129352 1.3229131 -0.47532201
-0.078652002 1.324809 -0.47595799
-0.095484003 1.0434459 -0.47279999
-0.091398001 1.0424401 -0.471055
-0.093515001 1.049112 -0.47107199
-0.152219 1.052927 -0.47025099
-0.17235 1.063465 -0.47367001
-0.16741601 1.061818 -0.47163799
-0.16113 1.06278 -0.473252
-0.087026 1.061833 -0.47380799
-0.090700999 1.070376 -0.47059801
-0.192049 1.0771739 -0.47311699
-0.15366501 1.084146 -0.47150201
-0.20614 1.094708 -0.47328901
-0.230454 1.103043 -0.47192001
-0.118443 1.1041059 -0.47432199
-0.095426001 1.103319 -0.47144601
-0.155782 1.1126471 -0.47131601
-0.092987001 1.111048 -0.474796
-0.235232 1.126703 -0.474446
-0.22683001 1.12806 -0.47099301
-0.119887 1.131667 -0.473941
-0.095398001 1.134007 -0.47073501
-0.192766 1.137573 -0.472069
-0.185151 1.136544 -0.473813
-0.16296799 1.135077 -0.47154999
-0.083645001 1.13529 -0.47202799
-0.150144 1.148182 -0.474446
-0.193169 1.155407 -0.47354099
-0.178069 1.156603 -0.47378501
-0.152311 1.162982 -0.472938
-0.194583 1.167943 -0.47163299
-0.16284201 1.165771 -0.470557
-0.158262 1.174199 -0.47092301
-0.26722601 1.180581 -0.472653
-0.18549301 1.18794 -0.470218
-0.193396 1.194972 -0.47414199
-0.152099 1.19311 -0.47247601
-0.08422 1.190154 -0.471838
-0.185286 1.198462 -0.47182101
-0.18073601 1.212942 -0.47277299
-0.084518999 1.218188 -0.471728
-0.212632 1.223056 -0.474738
-0.208342 1.2224751 -0.47422299
-0.19272 1.223861 -0.474139
-0.20593999 1.225505 -0.473162
-0.22163101 1.238143 -0.470649
-0.199039 1.239529 -0.47281101
-0.220109 1.245617 -0.470099
-0.192724 1.248523 -0.47166699
-0.084817998 1.246655 -0.471627
-0.21128701 1.252322 -0.47053
-0.314134 1.257383 -0.47360301
-0.231765 1.258921 -0.47147101
-0.28058001 1.26542 -0.473952
-0.22243901 1.274532 -0.471187
-0.24952 1.275617 -0.47358301
-0.21650299 1.276557 -0.47144499
-0.21079101 1.281642 -0.47084501
-0.42975101 1.288046 -0.47257701
-0.065338999 1.285221 -0.473685
-0.218538 1.294036 -0.47498301
-0.392362 1.296864 -0.470891
-0.34094301 1.306536 -0.47213399
-0.065498002 1.314864 -0.47359601
-0.269014 1.318975 -0.47450101
-0.15121099 1.318872 -0.47054499
-0.079452001 1.031858 -0.46756399
-0.098768003 1.036989 -0.46685699
-0.098444 1.0418921 -0.46791399
-0.19144601 1.0540299 -0.46845099
-0.186657 1.052748 -0.46720001
-0.180949 1.052012 -0.46708
-0.099630997 1.0597171 -0.46557501
-0.17189901 1.070715 -0.46656999
-0.18834201 1.078746 -0.46662501
-0.193395 1.080381 -0.46802801
-0.100966 1.089608 -0.46788201
-0.099731997 1.089816 -0.46612
-0.21469501 1.093537 -0.465803
-0.13838799 1.094131 -0.468963
-0.114674 1.091199 -0.46983299
-0.222311 1.101526 -0.469906
-0.097103998 1.100589 -0.465839
-0.19537 1.1071399 -0.467608
-0.116501 1.119951 -0.46959901
-0.106386 1.117371 -0.469401
-0.10023 1.1168081 -0.46573001
-0.099912003 1.119061 -0.46668601
-0.217273 1.121917 -0.46560201
-0.12740301 1.12534 -0.46996301
-0.14078499 1.1336091 -0.46928599
-0.14143699 1.138 -0.468404
-0.100731 1.144218 -0.46534401
-0.141581 1.149105 -0.468124
-0.118351 1.149204 -0.46939701
-0.188187 1.150725 -0.46744299
-0.16585 1.150295 -0.46694601
-0.115741 1.156106 -0.46907899
-0.140466 1.164291 -0.468274
-0.228642 1.166082 -0.46894899
-0.140324 1.166814 -0.46828601
-0.13127699 1.175144 -0.46662199
-0.248613 1.1841331 -0.465213
-0.187867 1.181252 -0.46625799
-0.165337 1.180818 -0.465756
-0.103268 1.181512 -0.469787
-0.230103 1.18744 -0.469565
-0.17321999 1.1892051 -0.46786001
-0.140145 1.1954761 -0.46721399
-0.26400301 1.2015671 -0.46659499
-0.19676299 1.209199 -0.469504
-0.132604 1.2063431 -0.46612599
-0.103712 1.2092561 -0.469648
-0.241245 1.2187541 -0.468353
-0.29273301 1.2271039 -0.46614
-0.44844201 1.274582 -0.46535599
-0.22787599 1.2744811 -0.465599
-0.200262 1.270372 -0.46570599
-0.336301 1.279587 -0.46904799
-0.245809 1.282418 -0.46736899
-0.39543301 1.289204 -0.46574101
-0.50155997 1.293956 -0.469439
-0.35286799 1.2931685 -0.46938699
-0.27328199 1.292787 -0.46590799
-0.082516 1.298437 -0.466901
-0.19985799 1.302029 -0.46544501
-0.35436201 1.305858 -0.46920499
-0.29728901 1.308697 -0.46814901
-0.236109 1.307089 -0.467087
-0.173069 1.3148299 -0.46576801
-0.086213998 1.312242 -0.466508
-0.248145 1.315123 -0.466905
-0.106506 1.051805 -0.46136701
-0.156335 1.057719 -0.46413499
-0.20281699 1.068712 -0.46082601
-0.17423099 1.072425 -0.46434301
-0.162376 1.0775419 -0.461335
-0.15326799 1.082237 -0.461124
-0.107589 1.0809489 -0.46082801
-0.191579 1.088503 -0.46288899
-0.145973 1.085536 -0.463828
-0.214439 1.097297 -0.462385
-0.205203 1.0964381 -0.460648
-0.102061 1.098228 -0.46456701
-0.176489 1.100638 -0.46413001
-0.13767999 1.107823 -0.46240199
-0.192733 1.114912 -0.46250099
-0.14859051 1.1132154 -0.46332049
-0.108687 1.1105911 -0.46029499
-0.216574 1.1241831 -0.461923
-0.21113101 1.1222039 -0.46100801
-0.207629 1.124583 -0.460457
-0.17878801 1.129271 -0.46388599
-0.16049799 1.133703 -0.46094999
-0.139691 1.136708 -0.462109
-0.120499 1.135129 -0.46193901
-0.14871 1.142262 -0.462302
-0.247077 1.1466711 -0.46343601
-0.218739 1.1514831 -0.46145901
-0.275116 1.164059 -0.46015999
-0.26899499 1.1621701 -0.46089301
-0.174412 1.16422 -0.46428999
-0.159539 1.162483 -0.46077201
-0.19509301 1.168897 -0.46169901
-0.158856 1.169681 -0.46230599
-0.148187 1.172389 -0.46158901
-0.126404 1.174799 -0.46484599
-0.101238 1.172051 -0.464957
-0.120277 1.17995 -0.464753
-0.113371 1.178594 -0.46007499
-0.218851 1.1839809 -0.46147701
-0.108743 1.1829081 -0.46410799
-0.27131999 1.189412 -0.46028799
-0.095936 1.1947449 -0.464452
-0.158124 1.1994669 -0.462037
-0.101753 1.200309 -0.464564
-0.23181599 1.205539 -0.461016
-0.22090399 1.214999 -0.46094799
-0.14206 1.214813 -0.46006
-0.119363 1.210966 -0.463503
-0.107809 1.212045 -0.4631305
-0.16415399 1.2173671 -0.46478099
-0.157381 1.2297601 -0.46177199
-0.199819 1.230225 -0.46194899
-0.251838 1.239511 -0.464405
-0.124955 1.236678 -0.46346
-0.107573 1.244007 -0.46302
-0.194627 1.24694 -0.46211001
-0.130189 1.2559429 -0.46017501
-0.107598 1.257329 -0.46233699
-0.25843099 1.264486 -0.46274501
-0.21359199 1.263244 -0.46042499
-0.156626 1.260563 -0.46150199
-0.194778 1.278605 -0.46157101
-0.106972 1.275322 -0.46244299
-0.259078 1.284894 -0.46302199
-0.48138899 1.290233 -0.46209601
-0.261383 1.295141 -0.46257499
-0.106363 1.307233 -0.461907
-0.137659 1.046723 -0.45985201
-0.15733901 1.0645109 -0.45617101
-0.17738 1.074635 -0.45849201
-0.17276099 1.072933 -0.45671499
-0.166059 1.0745209 -0.457692
-0.196876 1.088788 -0.45702901
-0.21126001 1.1062911 -0.459209
-0.235484 1.114212 -0.45674199
-0.199314 1.11713 -0.45675799
-0.13997 1.1261851 -0.45859399
-0.212557 1.13283 -0.458794
-0.240097 1.138409 -0.45822999
-0.232214 1.139258 -0.45595801
-0.23777699 1.1412261 -0.45623699
-0.125071 1.143181 -0.458294
-0.109802 1.140736 -0.45976099
-0.201794 1.1458941 -0.45645499
-0.089106001 1.147491 -0.45841801
-0.099559002 1.150069 -0.45878601
-0.21386699 1.159786 -0.45839599
-0.154241 1.160497 -0.456947
-0.242902 1.1673419 -0.457939
-0.12658 1.171248 -0.457775
-0.100642 1.1780519 -0.45813599
-0.117336 1.183416 -0.45907801
-0.27223301 1.192506 -0.45684901
-0.15575001 1.191317 -0.45638099
-0.112091 1.202557 -0.45865899
-0.183237 1.2065721 -0.45599201
-0.160715 1.206866 -0.456828
-0.12928499 1.209298 -0.458956
-0.11515 1.208555 -0.459883
-0.116021 1.212865 -0.458911
-0.27522001 1.221895 -0.456662
-0.175868 1.221724 -0.456916
-0.153473 1.223098 -0.459059
-0.114823 1.2204421 -0.45766401
-0.109254 1.221638 -0.455836
-0.17769 1.225427 -0.455181
-0.188216 1.236212 -0.45809001
-0.15994 1.238011 -0.45548999
-0.13722099 1.238306 -0.45633301
-0.114502 1.238602 -0.45717499
-0.128874 1.240068 -0.45836401
-0.27607399 1.245157 -0.45906201
-0.17537101 1.253172 -0.45585299
-0.15278 1.254557 -0.45801401
-0.090444997 1.259223 -0.45760599
-0.168918 1.2634749 -0.45605901
-0.31864899 1.2743371 -0.45949501
-0.27850699 1.273669 -0.45842901
-0.227189 1.271471 -0.45516199
-0.128455 1.27135 -0.457748
-0.37792099 1.283995 -0.45626399
-0.281351 1.281989 -0.456191
-0.47149199 1.2859 -0.456301
-0.33526701 1.286042 -0.45894399
-0.254585 1.287804 -0.45670101
-0.105145 1.294481 -0.455441
-0.32140899 1.296455 -0.455567
-0.220769 1.300552 -0.45613101
-0.227276 1.311271 -0.459308
-0.201317 1.311128 -0.45956999
-0.104557 1.055684 -0.450156
-0.097916998 1.055563 -0.45485899
-0.18584 1.063663 -0.451639
-0.092500001 1.0606641 -0.453053
-0.177019 1.082299 -0.45249
-0.089077003 1.082162 -0.45319501
-0.19368701 1.089861 -0.451702
-0.188096 1.09135 -0.45139
-0.13890301 1.102975 -0.450461
-0.143494 1.1054699 -0.45355499
-0.22724 1.1132669 -0.454346
-0.088357002 1.110678 -0.45261699
-0.20043799 1.1183929 -0.452315
-0.19543301 1.116347 -0.45102301
-0.19038799 1.1194561 -0.45112601
-0.160686 1.124446 -0.45497099
-0.25112101 1.129531 -0.451588
-0.256529 1.131128 -0.45109999
-0.132449 1.137359 -0.454034
-0.229836 1.141543 -0.454106
-0.18629099 1.148439 -0.45493001
-0.14524999 1.149708 -0.452438
-0.097893998 1.146435 -0.45233199
-0.162882 1.153464 -0.45461899
-0.253297 1.1563129 -0.45090801
-0.178754 1.158151 -0.45325801
-0.136794 1.1568021 -0.45185301
-0.104108 1.1591001 -0.45045
-0.123335 1.161194 -0.452788
-0.134351 1.166512 -0.45379499
-0.121292 1.16765 -0.45357999
-0.23383801 1.177837 -0.45466101
-0.163992 1.177768 -0.45151001
-0.145987 1.17662 -0.45217901
-0.13655099 1.179085 -0.45156401
-0.255503 1.183511 -0.45022801
-0.19868 1.180258 -0.45413399
-0.26146799 1.185829 -0.45000201
-0.17794099 1.187394 -0.45304301
-0.135885 1.186222 -0.45148599
-0.127519 1.185135 -0.45410201
-0.25380799 1.195888 -0.45092601
-0.235149 1.199459 -0.45363599
-0.18801001 1.2004761 -0.451655
-0.097212002 1.20322 -0.450176
-0.235331 1.205266 -0.45417401
-0.150406 1.205393 -0.45434001
-0.13539299 1.208498 -0.45133501
-0.209016 1.212057 -0.45491099
-0.200563 1.2112449 -0.45354399
-0.186446 1.210564 -0.45260799
-0.17710499 1.217063 -0.45277199
-0.13496301 1.216146 -0.45112801
-0.19243 1.221511 -0.45316499
-0.12720799 1.2213449 -0.452104
-0.166954 1.2251101 -0.451543
-0.245377 1.231172 -0.45070699
-0.188787 1.232566 -0.45077801
-0.205378 1.237419 -0.453805
-0.15017501 1.23613 -0.45370901
-0.13420799 1.238341 -0.45105001
-0.197962 1.251786 -0.45369101
-0.191544 1.25104 -0.45294499
-0.166068 1.254239 -0.45135999
-0.087235004 1.251482 -0.45261401
-0.17710599 1.256194 -0.45485601
-0.238373 1.261409 -0.45321801
-0.19127101 1.2610019 -0.45271701
-0.093119003 1.263731 -0.45145199
-0.489663 1.277787 -0.450845
-0.24277 1.27881 -0.45265001
-0.133075 1.277523 -0.450409
-0.16516 1.2837991 -0.45114201
-0.24344601 1.289806 -0.45286801
-0.176511 1.2874759 -0.45451799
-0.54852599 1.291126 -0.452288
-0.307668 1.294597 -0.45232201
-0.094426997 1.293921 -0.45086801
-0.31727299 1.2959729 -0.450941
-0.13178501 1.299562 -0.45050499
-0.20640799 1.30742 -0.451711
-0.078920998 1.043087 -0.449321
-0.161365 1.0688879 -0.44895601
-0.099096 1.071039 -0.44718099
-0.15865199 1.093435 -0.446089
-0.160145 1.120158 -0.445373
-0.19789 1.12658 -0.448318
-0.152963 1.125725 -0.44784099
-0.140256 1.129979 -0.44977799
-0.222138 1.133623 -0.449386
-0.216516 1.133402 -0.44597301
-0.100109 1.130651 -0.44780299
-0.18369199 1.14107 -0.447541
-0.097558998 1.1425689 -0.44587499
-0.125772 1.147059 -0.447438
-0.155007 1.154586 -0.44758299
-0.14162999 1.157396 -0.44908401
-0.2243225 1.16267 -0.447537
-0.178509 1.176535 -0.44679099
-0.146713 1.178086 -0.44523701
-0.20032699 1.180738 -0.44730601
-0.17195 1.181162 -0.44619599
-0.254857 1.187338 -0.44744599
-0.124989 1.18696 -0.44637901
-0.103206 1.18937 -0.44963601
-0.188068 1.193043 -0.44704801
-0.165537 1.192609 -0.446547
-0.075813003 1.195816 -0.44640401
-0.27674499 1.200694 -0.44514
-0.171528 1.201488 -0.44972399
-0.180222 1.20749 -0.44613901
-0.17091499 1.2098989 -0.44592199
-0.13677099 1.2188669 -0.44832999
-0.16501801 1.223735 -0.44513801
-0.112763 1.222672 -0.44667199
-0.102288 1.220144 -0.44879499
-0.205861 1.230536 -0.44876999
-0.17147601 1.232191 -0.449054
-0.166693 1.230013 -0.44605699
-0.169856 1.239061 -0.445611
-0.26655999 1.2422169 -0.44887
-0.190385 1.248499 -0.448585
-0.114207 1.252053 -0.44605801
-0.26916799 1.271054 -0.44827801
-0.454252 1.280772 -0.446971
-0.44104701 1.282787 -0.447411
-0.32645801 1.283016 -0.44706601
-0.115683 1.281868 -0.445402
-0.54805601 1.285658 -0.44530901
-0.400159 1.29471 -0.44960099
-0.279217 1.298326 -0.44557899
-0.102281 1.295941 -0.449334
-0.108885 1.300173 -0.448116
-0.069801003 1.0146 -0.44232699
-0.162459 1.076095 -0.44209099
-0.178105 1.084047 -0.44179201
-0.182409 1.085804 -0.44331399
-0.17098901 1.086262 -0.44213101
-0.090080999 1.095315 -0.44109499
-0.102916 1.106719 -0.44476801
-0.179735 1.11049 -0.441039
-0.17314801 1.114328 -0.441796
-0.164345 1.129144 -0.441026
-0.14520399 1.138027 -0.44420001
-0.17534401 1.142817 -0.44143999
-0.161659 1.147293 -0.44465101
-0.242845 1.15248 -0.440945
-0.237599 1.150456 -0.44092301
-0.206698 1.157693 -0.44011
-0.215101 1.165078 -0.44444299
-0.219062 1.171541 -0.44410801
-0.155766 1.174753 -0.44405001
-0.246508 1.1795681 -0.44095749
-0.146772 1.18455 -0.443122
-0.106471 1.1878974 -0.44292951
-0.217637 1.19425 -0.44415799
-0.22044601 1.198923 -0.44354299
-0.15476499 1.204131 -0.44376001
-0.25069901 1.2085969 -0.44113401
-0.146227 1.215282 -0.44222501
-0.220217 1.223857 -0.44384101
-0.225036 1.2274179 -0.44330201
-0.15373901 1.233938 -0.44341299
-0.111802 1.232825 -0.440218
-0.195952 1.2428 -0.44481099
-0.183713 1.2485631 -0.44204
-0.145675 1.246598 -0.44136101
-0.123515 1.24905 -0.44467399
-0.22326399 1.25497 -0.44242701
-0.22716001 1.259061 -0.442608
-0.15269899 1.264254 -0.443075
-0.47170401 1.273 -0.442002
-0.19525699 1.273452 -0.44448999
-0.15355401 1.273154 -0.443762
-0.096070997 1.2717921 -0.44358599
-0.420876 1.2790641 -0.44006801
-0.182946 1.278078 -0.44174799
-0.14511199 1.278428 -0.440451
-0.112204 1.278423 -0.44202101
-0.33717901 1.282156 -0.44371599
-0.123403 1.2816855 -0.44335198
-0.29102999 1.288627 -0.44241601
-0.37981799 1.2909549 -0.44219601
-0.15164299 1.295085 -0.44273901
-0.096459001 1.3008879 -0.443275
-0.091174997 1.015115 -0.43658301
-0.072825 1.01759 -0.43935201
-0.085314997 1.056937 -0.43898699
-0.091485001 1.072216 -0.43503401
-0.18213899 1.093883 -0.438411
-0.090823002 1.103775 -0.43928599
-0.149129 1.108833 -0.43967599
-0.086719997 1.122561 -0.43507099
-0.205506 1.129647 -0.43702301
-0.200818 1.127545 -0.43598899
-0.097424001 1.126941 -0.43507901
-0.195356 1.1312881 -0.43544501
-0.261558 1.142297 -0.43592101
-0.150262 1.144262 -0.43749601
-0.207587 1.156988 -0.436369
-0.197726 1.15991 -0.43504
-0.167825 1.1653579 -0.43814299
-0.128318 1.173184 -0.43617901
-0.139437 1.178627 -0.43774
-0.12684301 1.179193 -0.438081
-0.209262 1.186977 -0.439639
-0.151409 1.188732 -0.43866801
-0.26092899 1.194793 -0.43507999
-0.111945 1.196274 -0.435514
-0.159881 1.2037359 -0.43873399
-0.24019501 1.211478 -0.43770701
-0.27891901 1.217036 -0.438344
-0.240565 1.217108 -0.43978
-0.18268 1.218384 -0.43680301
-0.204695 1.223663 -0.43589699
-0.17327 1.2295361 -0.43577501
-0.14851999 1.2273099 -0.43842801
-0.132273 1.233532 -0.435222
-0.161451 1.235178 -0.43800199
-0.242955 1.241222 -0.43733799
-0.182096 1.249629 -0.43529099
-0.15937699 1.249925 -0.436133
-0.148468 1.248518 -0.43541801
-0.136658 1.250221 -0.43697599
-0.206646 1.255275 -0.435141
-0.172392 1.259815 -0.43537399
-0.187176 1.2634521 -0.43647301
-0.110672 1.263396 -0.43977001
-0.46125299 1.267369 -0.43797499
-0.25253001 1.265084 -0.43837199
-0.17429399 1.265429 -0.43673301
-0.151703 1.2668149 -0.43889499
-0.20789699 1.271962 -0.439064
-0.437011 1.275645 -0.43764001
-0.167465 1.275955 -0.43710899
-0.118694 1.279271 -0.439428
-0.53023797 1.2809089 -0.43653399
-0.36648899 1.288905 -0.43610799
-0.18624499 1.293594 -0.436142
-0.109523 1.294482 -0.43931499
-0.093184002 1.293483 -0.436903
-0.049438 1.00278 -0.43040001
-0.080655001 1.00653 -0.43153501
-0.104017 1.012862 -0.432825
-0.082989 1.026147 -0.43434101
-0.079855002 1.034851 -0.43021801
-0.079342999 1.035857 -0.43338501
-0.081811003 1.054341 -0.432895
-0.078391001 1.054316 -0.43107799
-0.079178996 1.065233 -0.43239301
-0.166394 1.080057 -0.43377799
-0.168167 1.106814 -0.43309999
-0.169964 1.1339819 -0.43241701
-0.221901 1.144599 -0.43093899
-0.188596 1.152869 -0.431196
-0.1306355 1.1590135 -0.432513
-0.10039 1.158864 -0.433929
-0.160053 1.166605 -0.43165401
-0.147138 1.168851 -0.43370399
-0.22970399 1.174317 -0.43268001
-0.165142 1.189766 -0.43246299
-0.091227002 1.189616 -0.43038899
-0.266574 1.197168 -0.43459299
-0.259864 1.199263 -0.431642
-0.102381 1.21553 -0.43386099
-0.26320899 1.222495 -0.43428001
-0.18760601 1.222666 -0.433395
-0.16503599 1.221173 -0.43109101
-0.131943 1.228528 -0.43368101
-0.140938 1.231392 -0.43053401
-0.10086 1.232409 -0.43017
-0.20135801 1.242887 -0.43272099
-0.169769 1.244579 -0.43076301
-0.20815501 1.2485321 -0.43163601
-0.204815 1.249333 -0.434448
-0.19132601 1.245212 -0.432053
-0.104078 1.246066 -0.43347999
-0.130373 1.250813 -0.434053
-0.11315 1.253595 -0.43426299
-0.36175799 1.260875 -0.431247
-0.23807 1.264115 -0.43115699
-0.18609899 1.260921 -0.43252999
-0.13430201 1.264443 -0.43472001
-0.417142 1.276732 -0.43118301
-0.377529 1.275329 -0.43484801
-0.097825997 1.275419 -0.43183199
-0.30608299 1.281201 -0.43388599
-0.264108 1.291888 -0.43478799
-0.1715 1.290609 -0.43497401
-0.132138 1.294759 -0.434791
-0.082191996 1.294015 -0.43138799
-0.059384 1.005123 -0.429364
-0.065421999 1.0151449 -0.42630699
-0.101281 1.025858 -0.42978001
-0.068214998 1.026108 -0.42533499
-0.098560996 1.082361 -0.42878699
-0.167579 1.087679 -0.42801201
-0.18743899 1.0969729 -0.42813501
-0.095315002 1.107157 -0.42670199
-0.21506201 1.11992 -0.42952701
-0.18724501 1.1227725 -0.4267095
-0.09578 1.134279 -0.42601699
-0.108141 1.138875 -0.42766199
-0.169541 1.1408989 -0.42673799
-0.096014999 1.140456 -0.425733
-0.150438 1.149869 -0.42980701
-0.180351 1.154742 -0.42563701
-0.167126 1.158661 -0.42938799
-0.242984 1.161654 -0.42588899
-0.096247002 1.161821 -0.42533201
-0.17055701 1.168053 -0.42604399
-0.13544101 1.166209 -0.427001
-0.19331799 1.17887 -0.425951
-0.15131401 1.17731 -0.42914501
-0.13776401 1.1821589 -0.42730001
-0.245112 1.188892 -0.42502001
-0.11173 1.198197 -0.426597
-0.123624 1.203018 -0.42770699
-0.11183 1.201318 -0.426898
-0.22567999 1.210765 -0.429149
-0.18435401 1.219909 -0.42849299
-0.089943998 1.219306 -0.42984599
-0.153843 1.22017 -0.42811701
-0.113299 1.2292266 -0.42599601
-0.233542 1.230369 -0.42921001
-0.22530299 1.235971 -0.42778501
-0.186132 1.251488 -0.42767301
-0.229959 1.255556 -0.427551
-0.142361 1.263324 -0.42971101
-0.32538301 1.268369 -0.42783099
-0.28709099 1.268067 -0.42830199
-0.227971 1.266113 -0.427302
-0.524836 1.27165 -0.42593601
-0.41977099 1.270517 -0.42831001
-0.30039001 1.272352 -0.42559999
-0.120908 1.274856 -0.42777601
-0.47689101 1.2799931 -0.425403
-0.43901101 1.278468 -0.42888799
-0.350106 1.2830271 -0.42635399
-0.187942 1.283594 -0.42682499
-0.164419 1.281144 -0.42885801
-0.14054599 1.2941 -0.425569
-0.121075 1.293844 -0.42912799
-0.143802 1.295864 -0.42892101
-0.092909001 1.014913 -0.421702
-0.102931 1.026713 -0.42044699
-0.096066996 1.0267659 -0.42114201
-0.071826003 1.028955 -0.421624
-0.09386 1.043311 -0.42087501
-0.097630002 1.054168 -0.42065799
-0.067345001 1.053468 -0.42451999
-0.070511997 1.056812 -0.42037401
-0.083957002 1.068602 -0.42127201
-0.099219002 1.081985 -0.420156
-0.066459 1.081234 -0.42365801
-0.187259 1.105467 -0.42433101
-0.18838 1.131999 -0.42366001
-0.206203 1.138742 -0.42095399
-0.1479 1.153962 -0.42357901
-0.189512 1.158949 -0.42300299
-0.155407 1.155688 -0.421969
-0.09471 1.170238 -0.42416099
-0.146688 1.182009 -0.42310601
-0.096721001 1.189787 -0.42464101
-0.25031599 1.191334 -0.42491201
-0.14452299 1.190742 -0.421684
-0.132394 1.190737 -0.42258301
-0.119199 1.196227 -0.42392501
-0.099846996 1.199399 -0.42137399
-0.117298 1.2083859 -0.42079201
-0.247272 1.216549 -0.424144
-0.120424 1.227605 -0.42306599
-0.14422099 1.239524 -0.42221901
-0.165618 1.247702 -0.420205
-0.135095 1.247761 -0.42069101
-0.148591 1.250821 -0.42064601
-0.344383 1.255708 -0.42184299
-0.43578601 1.263427 -0.42431399
-0.36171201 1.269428 -0.424788
-0.39904001 1.271908 -0.42226899
-0.25169301 1.273137 -0.42234501
-0.41710901 1.275936 -0.424207
-0.28843099 1.275951 -0.42433301
-0.261639 1.281145 -0.423545
-0.250891 1.283617 -0.42074701
-0.150667 1.2816451 -0.42015699
-0.14194199 1.281926 -0.42391101
-0.328969 1.285825 -0.42293099
-0.248999 1.28545 -0.42399701
-0.11544 1.288529 -0.424171
-0.122933 1.292012 -0.42132401
-0.117354 1.290814 -0.42485601
-0.063089997 1.009136 -0.41719201
-0.059572998 1.010337 -0.416798
-0.109322 1.023895 -0.41801199
-0.061760001 1.036944 -0.415602
-0.058022 1.0378799 -0.415252
-0.103351 1.051993 -0.419965
-0.090469003 1.083768 -0.417014
-0.089289002 1.1125031 -0.41566801
-0.085082002 1.134444 -0.41752601
-0.17507 1.145321 -0.41700801
-0.231776 1.157943 -0.41604501
-0.227286 1.155797 -0.41590399
-0.202732 1.1718349 -0.419236
-0.176935 1.172992 -0.416197
-0.136318 1.17092 -0.41843501
-0.126028 1.170967 -0.41625899
-0.102886 1.171293 -0.415526
-0.209482 1.177 -0.41926801
-0.15264601 1.180306 -0.41832399
-0.23433299 1.1858079 -0.41578349
-0.13709199 1.1987391 -0.41769299
-0.20517001 1.201061 -0.41875201
-0.124697 1.202915 -0.41543099
-0.237396 1.215627 -0.41567299
-0.21377701 1.249518 -0.41725799
-0.45413801 1.2503 -0.41752499
-0.138671 1.255664 -0.41618401
-0.27103201 1.262076 -0.41808799
-0.504996 1.267988 -0.41871399
-0.402531 1.26539 -0.41898
-0.36036301 1.267894 -0.41804001
-0.28199601 1.267449 -0.41654199
-0.27693 1.265245 -0.417577
-0.17979801 1.267871 -0.41987199
-0.49460199 1.271412 -0.41898501
-0.395206 1.273405 -0.41952699
-0.167253 1.279775 -0.419294
-0.13940901 1.276731 -0.417698
-0.221516 1.282275 -0.41771001
-0.111068 1.28956 -0.41646001
-0.103904 1.2876821 -0.41890401
-0.098343998 1.285748 -0.41549501
-0.040328 0.98720598 -0.410579
-0.032178 0.98837298 -0.410653
-0.077680998 0.99476397 -0.412496
-0.089451 0.99545801 -0.41000301
-0.096069999 1.0198081 -0.41166201
-0.0607755 1.016505 -0.4117645
-0.10607 1.037382 -0.41381699
-0.097305 1.045902 -0.41081399
-0.080957003 1.046352 -0.41196001
-0.060761001 1.045447 -0.41110599
-0.107786 1.065044 -0.41315699
-0.082002997 1.065643 -0.414482
-0.077859998 1.065544 -0.412835
-0.101779 1.076681 -0.41268301
-0.081611998 1.07735 -0.414451
-0.109519 1.0931979 -0.41253901
-0.098026998 1.0936821 -0.410393
-0.081465997 1.1073231 -0.41329199
-0.101552 1.1240849 -0.41171199
-0.190505 1.132885 -0.41097
-0.081318997 1.137799 -0.41210601
-0.100502 1.153831 -0.41003799
-0.1935 1.164668 -0.41485101
-0.172592 1.170029 -0.414125
-0.154522 1.172388 -0.412682
-0.140626 1.177722 -0.41135401
-0.229296 1.182991 -0.41496101
-0.16139799 1.185782 -0.41219699
-0.156588 1.1892411 -0.414644
-0.195959 1.194008 -0.414177
-0.143185 1.19427 -0.413789
-0.102916 1.202885 -0.41437301
-0.14225499 1.206058 -0.41047099
-0.231335 1.210603 -0.41400799
-0.12875099 1.215229 -0.41152301
-0.16231699 1.234328 -0.413504
-0.158868 1.232257 -0.41137299
-0.125275 1.230675 -0.41494599
-0.102951 1.234997 -0.41317001
-0.16946401 1.238025 -0.41459799
-0.238727 1.241883 -0.413564
-0.20098101 1.25423 -0.412893
-0.51235402 1.258384 -0.412343
-0.34589601 1.263527 -0.41472799
-0.161101 1.262888 -0.41066501
-0.35139999 1.268342 -0.41016701
-0.23551001 1.267099 -0.41205201
-0.373303 1.270873 -0.41484699
-0.27077901 1.2707011 -0.41477999
-0.29845399 1.275937 -0.412577
-0.23389 1.279011 -0.41320601
-0.13258301 1.2762671 -0.41036999
-0.098742001 1.282299 -0.41354999
-0.12649199 1.28733 -0.41386101
-0.102064 1.28816 -0.413728
-0.052792002 0.98710799 -0.40867999
-0.054184999 1.007766 -0.40760601
-0.039205 1.015121 -0.40908599
-0.064085998 1.026623 -0.40887699
-0.05951 1.044933 -0.409771
-0.090090998 1.0456049 -0.40891799
-0.062904999 1.0543621 -0.40777501
-0.061703999 1.08258 -0.406683
-0.064847998 1.092926 -0.406394
-0.063937001 1.1212699 -0.405415
-0.100496 1.135969 -0.40967
-0.211587 1.14994 -0.40592
-0.192237 1.159906 -0.409989
-0.17539801 1.159843 -0.40593699
-0.185357 1.166667 -0.40983301
-0.160552 1.1671129 -0.40644199
-0.19470701 1.170704 -0.40871501
-0.216506 1.181291 -0.40742099
-0.099436 1.184072 -0.40832201
-0.193995 1.187343 -0.40899801
-0.187657 1.195852 -0.40927401
-0.16232 1.19516 -0.40553701
-0.255422 1.202673 -0.409504
-0.149609 1.202857 -0.40562901
-0.137945 1.20228 -0.40708399
-0.221829 1.240752 -0.405976
-0.197594 1.24348 -0.40696499
-0.198358 1.254115 -0.406234
-0.192384 1.255529 -0.408043
-0.44267601 1.269817 -0.40688699
-0.38517901 1.26984 -0.40557301
-0.34938899 1.267632 -0.406039
-0.317341 1.27127 -0.40684399
-0.079069003 0.988451 -0.40311801
-0.043517001 0.99234998 -0.400269
-0.039684001 0.99449402 -0.40131599
-0.103208 1.000144 -0.40216199
-0.080173999 1.014104 -0.40219799
-0.103701 1.0255491 -0.40135601
-0.097824 1.055228 -0.40394199
-0.069504999 1.06827 -0.402502
-0.098817997 1.084215 -0.40299001
-0.082598999 1.080268 -0.40355799
-0.105844 1.122146 -0.40382701
-0.100872 1.143537 -0.40095201
-0.063011996 1.150105 -0.40444601
-0.167982 1.161499 -0.40042901
-0.213479 1.17709 -0.404901
-0.18208 1.184417 -0.40066999
-0.214678 1.188755 -0.40498
-0.15815499 1.191761 -0.402944
-0.161861 1.201172 -0.400143
-0.148607 1.206382 -0.400278
-0.210216 1.21308 -0.402823
-0.142405 1.210759 -0.40308201
-0.180057 1.2189569 -0.40446901
-0.159678 1.219861 -0.401878
-0.22221801 1.2359591 -0.403734
-0.21273699 1.242836 -0.40217599
-0.161228 1.248387 -0.40078601
-0.16594701 1.2525311 -0.40364999
-0.33007899 1.2576261 -0.404668
-0.46531701 1.260664 -0.40426901
-0.335774 1.260025 -0.401999
-0.219328 1.261062 -0.401759
-0.14406499 1.267868 -0.40134901
-0.21878 1.272573 -0.40241501
-0.112439 1.28056 -0.402152
-0.077536002 0.986974 -0.399351
-0.044842999 0.98603201 -0.39693701
-0.022445001 0.991943 -0.3998
-0.07666 0.99518299 -0.398895
-0.094646998 1.007064 -0.39705601
-0.082534999 1.006326 -0.397172
-0.078387998 1.0123529 -0.39833701
-0.042034 1.019845 -0.398606
-0.077480003 1.02316 -0.39785701
-0.037985999 1.0216579 -0.39963099
-0.083981998 1.033368 -0.39651299
-0.061949998 1.048153 -0.39734
-0.057496 1.049017 -0.39715701
-0.036258001 1.049293 -0.39794499
-0.082194999 1.0769449 -0.39606899
-0.19749799 1.119311 -0.39777899
-0.088265002 1.124151 -0.397499
-0.083444998 1.146327 -0.39998099
-0.087057002 1.153471 -0.39598599
-0.179932 1.164408 -0.39816299
-0.20154101 1.1738321 -0.39587101
-0.178059 1.181397 -0.398862
-0.16677999 1.197807 -0.39878401
-0.10299 1.204891 -0.39887401
-0.200902 1.205901 -0.39770201
-0.179722 1.209208 -0.397778
-0.16767401 1.225068 -0.39813501
-0.162827 1.229218 -0.39926299
-0.14936499 1.233938 -0.399663
-0.181412 1.237443 -0.39667201
-0.18598101 1.241205 -0.398747
-0.484997 1.2457041 -0.39536101
-0.38190901 1.249068 -0.39778301
-0.183249 1.247676 -0.39544299
-0.243912 1.253397 -0.397917
-0.174591 1.250237 -0.398413
-0.168571 1.2527601 -0.39750499
-0.44547799 1.257002 -0.39704701
-0.34473401 1.257434 -0.39552701
-0.425569 1.264729 -0.39762801
-0.369481 1.263984 -0.39558899
-0.29554501 1.262545 -0.39862701
-0.30095801 1.265391 -0.39708999
-0.021588 0.96952897 -0.39204699
-0.015134 0.97281998 -0.39458099
-0.06329 0.98278898 -0.39372301
-0.090033002 0.98999298 -0.390773
-0.088855997 0.99402797 -0.39191201
-0.051809002 0.99829298 -0.39123499
-0.043099001 0.99743801 -0.391518
-0.031195 0.99955702 -0.39320701
-0.020314001 0.997123 -0.390466
-0.098155998 1.003654 -0.39441201
-0.069706999 1.001729 -0.39468601
-0.064277001 1.0084 -0.39273301
-0.099160999 1.029157 -0.393361
-0.0414715 1.02626 -0.39057702
-0.04219 1.040377 -0.39452201
-0.089657001 1.045073 -0.39009601
-0.082060002 1.057852 -0.393702
-0.061893001 1.0569479 -0.39241299
-0.077330001 1.076773 -0.39459199
-0.102434 1.0824295 -0.39289302
-0.096083 1.109156 -0.394512
-0.081000999 1.105806 -0.394299
-0.21854299 1.136227 -0.39213601
-0.106259 1.138052 -0.39270499
-0.101626 1.147763 -0.39094701
-0.083792999 1.150122 -0.393859
-0.220708 1.163407 -0.39114401
-0.096827999 1.162439 -0.39319399
-0.091567002 1.174992 -0.39302501
-0.222158 1.1920475 -0.3906095
-0.199462 1.198711 -0.39373499
-0.20114399 1.209922 -0.39349401
-0.19270299 1.207871 -0.393345
-0.14748099 1.217662 -0.39470199
-0.098958001 1.225854 -0.394236
-0.205708 1.230036 -0.393904
-0.38642499 1.242811 -0.39467201
-0.26304701 1.242209 -0.39310801
-0.31426299 1.251724 -0.39460799
-0.20784301 1.258778 -0.392885
-0.203145 1.255024 -0.39146701
-0.38530099 1.2648129 -0.39149401
-0.294561 1.260958 -0.39004001
-0.12872501 1.261332 -0.39039299
-0.37513199 1.265992 -0.391541
-0.197511 1.26774 -0.39185899
-0.098384999 1.27379 -0.390443
-0.064390004 0.97472 -0.38877201
-0.055105999 0.97037899 -0.38529
-0.081297003 0.97621602 -0.38689801
-0.020107999 0.97893697 -0.386116
-0.062741995 0.98205304 -0.38890049
-0.081570998 1.000765 -0.386163
-0.065687999 1.001315 -0.38805401
-0.085166 1.02519 -0.38713199
-0.081828997 1.025714 -0.38547
-0.067005001 1.028319 -0.387326
-0.050356999 1.025395 -0.38969901
-0.086319998 1.051325 -0.38609999
-0.04738 1.081023 -0.38665
-0.081240997 1.091934 -0.38584399
-0.060346 1.094246 -0.38896799
-0.102815 1.096229 -0.385919
-0.096424997 1.100118 -0.38747999
-0.094927996 1.163481 -0.38832501
-0.061374001 1.161988 -0.38690099
-0.18030301 1.1716419 -0.38959301
-0.10098 1.178252 -0.38922399
-0.218905 1.188372 -0.38975301
-0.10558 1.190205 -0.38649899
-0.187225 1.195843 -0.38514301
-0.099633999 1.195761 -0.38927799
-0.167505 1.206674 -0.389891
-0.100317 1.2093199 -0.387519
-0.369317 1.237723 -0.385414
-0.36395001 1.244282 -0.38893899
-0.42563799 1.253341 -0.38982499
-0.32663301 1.252609 -0.38661301
-0.217823 1.254951 -0.386121
-0.408461 1.25964 -0.38837001
-0.35378301 1.258127 -0.38560399
-0.314639 1.257297 -0.38723299
-0.28457499 1.259513 -0.387335
-0.27960801 1.2565989 -0.388491
-0.14637101 1.271209 -0.389209
-0.024757 0.97288603 -0.38405401
-0.072623998 0.98535299 -0.3822
-0.038242999 0.98809302 -0.38490999
-0.055252001 0.99556899 -0.384361
-0.022631999 1.0029711 -0.381834
-0.018270001 1.005724 -0.384287
-0.074790001 1.013229 -0.380707
-0.083694004 1.023386 -0.38352299
-0.081412002 1.034981 -0.38106
-0.042222999 1.0309629 -0.38049299
-0.020978 1.030553 -0.38001999
-0.100227 1.043745 -0.383403
-0.088872999 1.045019 -0.38107201
-0.100629 1.069144 -0.38265899
-0.090380996 1.072562 -0.380279
-0.068498001 1.079728 -0.38462901
-0.067147002 1.108178 -0.38301301
-0.080181003 1.12064 -0.38451001
-0.079103 1.149838 -0.383169
-0.104935 1.15575 -0.383598
-0.081808001 1.15821 -0.38243499
-0.203852 1.1670049 -0.38111201
-0.172988 1.173424 -0.38462499
-0.185127 1.176163 -0.38387501
-0.078006998 1.179531 -0.38181299
-0.20664699 1.185171 -0.38046199
-0.081018999 1.1875319 -0.38121799
-0.186259 1.2035789 -0.38286299
-0.092648998 1.2360539 -0.383315
-0.33357 1.244879 -0.38165799
-0.23782 1.242326 -0.38044301
-0.16813999 1.241238 -0.38465199
-0.405799 1.249679 -0.38260299
-0.19120599 1.252808 -0.38297901
-0.36529699 1.261121 -0.38421199
-0.358996 1.2602021 -0.381933
-0.2615 1.2644759 -0.38220599
-0.174033 1.264961 -0.38389501
-0.040754002 0.96426398 -0.37503999
-0.046829 0.97551697 -0.37981999
-0.011362 0.98519099 -0.37931901
-0.068495996 0.99446601 -0.375269
-0.043528002 0.99733001 -0.37978199
-0.094749004 1.00134 -0.375054
-0.061353002 1.003365 -0.37523901
-0.093901999 1.005446 -0.378034
-0.030212 1.0107419 -0.375761
-0.06927 1.019486 -0.37766701
-0.104466 1.04019 -0.378548
-0.040854 1.051855 -0.377092
-0.094777003 1.056657 -0.37601599
-0.062141001 1.0593621 -0.37907901
-0.05697 1.060154 -0.37906301
-0.035732001 1.060431 -0.37985101
-0.083162002 1.069352 -0.37544501
-0.065586999 1.0694799 -0.37551999
-0.039484002 1.079797 -0.37573299
-0.076800004 1.088002 -0.376349
-0.060791001 1.087831 -0.377175
-0.055388 1.08828 -0.377143
-0.10766 1.0936556 -0.37772948
-0.081194997 1.117203 -0.375732
-0.093474999 1.128903 -0.37862
-0.086268 1.1624449 -0.375613
-0.086024001 1.165217 -0.37766501
-0.064377002 1.166544 -0.37973601
-0.096653 1.187106 -0.37696901
-0.098291002 1.216857 -0.37607899
-0.47720101 1.231512 -0.37987
-0.30853099 1.247785 -0.377698
-0.207672 1.249743 -0.37806001
-0.099947996 1.247126 -0.37520799
-0.44065401 1.251554 -0.37623501
-0.33808401 1.25227 -0.37561899
-0.29726401 1.252129 -0.37783
-0.27978599 1.254662 -0.37948701
-0.26367199 1.250653 -0.378355
-0.113384 1.254795 -0.379437
-0.270473 1.256171 -0.37523201
-0.196748 1.257165 -0.375554
-0.168916 1.2564321 -0.377884
0.000367 0.95354599 -0.372136
0.017614 0.95078802 -0.371721
-0.051589001 0.96280003 -0.37047201
-0.00084400002 0.96359301 -0.37112299
-0.031475998 0.96978903 -0.37005499
-0.0042610001 0.96832198 -0.37194401
-0.031732 0.971466 -0.374933
-0.025424 0.97865099 -0.37104899
-0.055213999 0.98071301 -0.37362701
-0.067449003 0.99219799 -0.374881
-0.060334999 1.0070699 -0.37038299
-0.021399001 1.008436 -0.37250599
-0.068662003 1.019371 -0.37450001
-0.096345998 1.028324 -0.37413099
-0.087061003 1.037402 -0.37243301
-0.071896002 1.03997 -0.371885
-0.047201999 1.0372901 -0.37232101
-0.041391999 1.037933 -0.37287
-0.097970001 1.055717 -0.37318301
-0.073273003 1.067474 -0.371021
-0.061714001 1.067933 -0.373256
-0.042429499 1.0667834 -0.37105048
-0.082374997 1.098443 -0.37365499
-0.060748 1.097012 -0.37144801
-0.058988001 1.105911 -0.371254
-0.101291 1.111823 -0.37126401
-0.075368002 1.116607 -0.374405
-0.081574999 1.128024 -0.37183601
-0.073912002 1.145698 -0.37243599
-0.086162001 1.19364 -0.37408
-0.459658 1.226837 -0.37123001
-0.17078 1.2429481 -0.37088099
-0.173452 1.2532589 -0.370042
-0.22836401 1.255556 -0.37206599
-0.1611065 1.2577475 -0.37252149
-0.085934997 1.2577339 -0.37099999
0.038373999 0.94941503 -0.36960199
-0.0052979998 0.959665 -0.36731899
-0.055326 0.963705 -0.36526
-0.037149999 0.970263 -0.366429
-0.037804998 0.97607303 -0.36505401
-0.023452999 0.98409498 -0.367033
-0.052281499 0.98730052 -0.36724401
-0.0035389999 0.98639601 -0.36535701
0.001136 0.99007797 -0.36922199
-0.077339999 0.99669999 -0.36648101
-0.042144999 0.99981999 -0.368247
-0.02482 1.0068721 -0.36960101
-0.017751999 1.016683 -0.36648399
-0.079337999 1.0241895 -0.3661105
-0.088999003 1.03442 -0.36871001
-0.024214 1.0355051 -0.36807999
-0.080215998 1.0504529 -0.36561701
-0.089960001 1.060281 -0.36740601
-0.023596 1.0646271 -0.366548
-0.046372999 1.092481 -0.36877701
-0.044840999 1.121037 -0.36703101
-0.043281998 1.15008 -0.36526999
-0.080761999 1.158101 -0.36997899
-0.058768 1.156646 -0.36773399
-0.094384 1.174994 -0.36962101
-0.059737001 1.173871 -0.36935601
-0.093065001 1.2050689 -0.367571
-0.42395499 1.2348239 -0.36881101
-0.19073801 1.232118 -0.36701801
-0.091724001 1.235644 -0.36547399
-0.290429 1.24296 -0.36878401
-0.24773499 1.244707 -0.368218
-0.19267599 1.243353 -0.36735001
-0.182519 1.244451 -0.367015
-0.39759299 1.246577 -0.36703399
-0.322386 1.246413 -0.36563501
-0.27988899 1.246961 -0.368426
-0.251809 1.247756 -0.36782601
-0.098043002 1.248258 -0.36848
-0.150371 1.25149 -0.368752
-0.089576997 1.251006 -0.36572301
0.014628 0.94621301 -0.36381501
0.0070310002 0.96215701 -0.36002699
-0.02256 0.96869701 -0.36254099
-0.0458 0.97568202 -0.36116201
-0.052487001 0.98122197 -0.36451501
-0.055420998 0.988168 -0.36437601
-0.022937 0.99627399 -0.36125401
-0.010386 0.99628699 -0.36201099
-0.072715998 1.00315 -0.360176
-0.053693999 1.007867 -0.36361301
-0.074262001 1.030573 -0.362602
-0.042411 1.042081 -0.36238
-0.021167001 1.041671 -0.36190701
-0.015876999 1.044026 -0.36451599
-0.085345 1.046802 -0.364263
-0.080291003 1.051005 -0.36447701
-0.099895999 1.068241 -0.36193699
-0.018958 1.065608 -0.36273599
-0.040911999 1.070158 -0.36034
-0.035206001 1.071568 -0.361756
-0.013969 1.071844 -0.362544
-0.095310003 1.084303 -0.364719
-0.066132002 1.11973 -0.36499399
-0.063345 1.17829 -0.36141601
-0.076614998 1.191489 -0.363655
-0.094948001 1.195711 -0.36070701
-0.079368003 1.199512 -0.363529
-0.44211501 1.2221611 -0.362591
-0.406275 1.230112 -0.36010501
-0.392434 1.237267 -0.364472
-0.34628001 1.238693 -0.360937
-0.27074 1.236689 -0.36327699
-0.157931 1.240868 -0.363166
-0.32672501 1.248623 -0.36271799
-0.21230499 1.249565 -0.36185199
-0.134206 1.247851 -0.36442199
-0.019389 0.94507998 -0.357526
-0.034701999 0.95004499 -0.356426
-0.024075 0.96396399 -0.355535
-0.0042119999 0.96329302 -0.356168
-0.0035039999 0.96517998 -0.35560399
-0.020396 0.97143298 -0.35648099
-0.035767 0.97624898 -0.35546601
-0.036715001 0.98160553 -0.35766399
-0.059930999 0.99206001 -0.35790801
-0.037478 1.0080791 -0.35873801
-0.065336004 1.0168309 -0.35749
-0.061259001 1.018973 -0.35685301
-0.029229 1.021926 -0.35831499
-0.073532 1.028649 -0.358872
-0.045976002 1.026461 -0.358899
-0.065819502 1.0437391 -0.35621649
-0.095151 1.047363 -0.35700101
-0.092292003 1.049089 -0.359395
-0.027597001 1.0492181 -0.356516
-0.074378997 1.054468 -0.35749501
-0.096378997 1.073663 -0.355744
-0.092638001 1.074527 -0.35848299
-0.078202002 1.079215 -0.35545999
-0.068000004 1.081497 -0.35772699
-0.038137 1.091368 -0.35816199
-0.060982998 1.099133 -0.358762
-0.054857001 1.099509 -0.35890001
-0.067740999 1.111254 -0.356103
-0.106156 1.123529 -0.355048
-0.081387997 1.128599 -0.35716501
-0.059611 1.128179 -0.35668001
-0.053243998 1.1282099 -0.356812
-0.113155 1.130401 -0.359689
-0.101366 1.148183 -0.35849601
-0.080177002 1.158139 -0.35505199
-0.101876 1.175611 -0.35730201
-0.084991999 1.176962 -0.35934499
-0.088657998 1.206068 -0.35567701
-0.418879 1.229872 -0.355068
-0.177875 1.229702 -0.35859799
-0.466245 1.234835 -0.35683399
-0.37545699 1.232218 -0.35528499
-0.469284 1.235639 -0.35540399
-0.34481099 1.237721 -0.35828
-0.23542701 1.241877 -0.358071
-0.225353 1.249137 -0.35503599
-0.158343 1.246821 -0.35925099
-0.131827 1.246547 -0.35961899
-0.120911 1.246176 -0.35780799
0.015618 0.93454599 -0.350016
-0.031459 0.94477803 -0.352106
0.013357 0.943694 -0.35122001
0.033930998 0.94329798 -0.35076201
-0.020262999 0.95155901 -0.35181999
-0.0080289999 0.96019298 -0.35093501
0.016547 0.96191901 -0.354049
0.037307002 0.96054602 -0.35192999
-0.020909 0.97680902 -0.35058299
-0.042346001 0.98186898 -0.35348201
-0.003728 0.99272901 -0.35426199
-0.057422001 0.99913698 -0.35441899
0.00165 1.000949 -0.35156
-0.046046 1.011547 -0.351583
-0.022483001 1.019749 -0.354545
-0.001385 1.018353 -0.35239199
-0.060727 1.024716 -0.35049301
-0.058366001 1.024869 -0.35313699
-0.046620999 1.039655 -0.35016701
-0.021214001 1.047931 -0.35259199
5.8000001e-05 1.046524 -0.35042101
-0.038451999 1.057777 -0.35117701
-0.085336 1.062037 -0.351538
-0.095305003 1.071396 -0.352483
-0.047005001 1.07907 -0.353241
-0.041368999 1.078014 -0.35280901
-0.025937 1.076986 -0.35472199
-0.061859999 1.108608 -0.35303801
-0.040233001 1.107178 -0.350831
-0.024248 1.105235 -0.352925
-0.057629999 1.117577 -0.35354
-0.022534 1.133895 -0.35104799
-0.056375001 1.146494 -0.35194099
-0.107895 1.152344 -0.35393599
-0.073371999 1.157114 -0.35388801
-0.081892997 1.1698951 -0.35125601
-0.078946002 1.188174 -0.35289699
-0.071887001 1.186792 -0.351731
-0.094384998 1.2074521 -0.35385701
-0.38859501 1.2254 -0.351399
-0.25422499 1.2333111 -0.35095599
-0.34003201 1.239288 -0.351336
-0.32644099 1.235031 -0.353715
-0.43204701 1.241823 -0.35296199
-0.379363 1.2423429 -0.35332799
-0.31058899 1.242833 -0.353111
-0.117897 1.241766 -0.354049
-0.123487 1.2503459 -0.351033
-0.002112 0.940476 -0.34901801
-0.018107001 0.94510901 -0.34744501
-0.020950001 0.950113 -0.34699801
0.015605 0.95447999 -0.34674799
0.012293 0.95784402 -0.34659299
0.058065999 0.95917302 -0.349812
0.015553 0.96166301 -0.348667
-0.015716 0.96783102 -0.34904099
0.015255 0.97011799 -0.349177
-0.021389 0.97501302 -0.34558499
-0.050847001 0.98710001 -0.34728301
-0.042521998 0.98742002 -0.34933501
-0.0072929999 0.98800898 -0.34931001
0.01548 0.98918402 -0.34727001
-0.031424001 0.99475098 -0.34973499
-0.015973 0.991822 -0.34869099
-0.003724 0.99733502 -0.34753501
0.017178999 0.99693203 -0.34707001
-0.043715999 1.014297 -0.34821299
-0.078887001 1.017679 -0.34937599
-0.058549002 1.01943 -0.34828901
-0.00654 1.016306 -0.34768501
-0.058065001 1.0228781 -0.34903499
-0.031415001 1.020256 -0.34850001
-0.0019340001 1.024621 -0.34543201
-0.079189502 1.0422025 -0.3479805
-0.058797002 1.048654 -0.34758499
-0.005785 1.0450161 -0.34598401
-0.089276999 1.058623 -0.34746599
0.0057100002 1.055348 -0.34735
-0.085079998 1.062529 -0.34851301
-0.080363996 1.067917 -0.34620801
-0.079378001 1.068139 -0.347435
-0.105016 1.079825 -0.347857
-0.026009999 1.076643 -0.348755
-0.116231 1.088324 -0.34746999
-0.097906001 1.086297 -0.34535301
-0.090199001 1.087375 -0.346039
-0.086631998 1.0903879 -0.347343
-0.105536 1.1061701 -0.34662601
-0.039076999 1.136833 -0.34881899
-0.059898 1.16844 -0.349011
-0.081077002 1.200573 -0.34919301
-0.075222999 1.203447 -0.34549701
-0.100499 1.2072541 -0.345209
-0.077717997 1.211493 -0.34584001
-0.070377 1.2169681 -0.349529
-0.449525 1.229862 -0.347785
-0.35848099 1.227169 -0.34609699
-0.44976601 1.232036 -0.348299
-0.39692301 1.231957 -0.34973401
-0.35205799 1.233421 -0.34878999
-0.29099 1.234699 -0.34566599
-0.080242001 1.231835 -0.34714201
-0.219044 1.235999 -0.348317
-0.31493899 1.2416281 -0.346192
-0.30613899 1.240742 -0.349608
-0.21573301 1.241581 -0.34827501
-0.20784099 1.243928 -0.34555799
-0.143234 1.240382 -0.34845901
-0.115384 1.242147 -0.34593499
-0.076417997 1.249825 -0.34849501
-0.068842001 1.247645 -0.34727699
0.031574 0.92819297 -0.343952
0.034525 0.93105602 -0.343133
-0.017209001 0.93870598 -0.34192899
-0.0045989999 0.945939 -0.34249401
-0.011 0.95766503 -0.344641
0.032614 0.955495 -0.342251
-0.017097 0.96345103 -0.34066099
-0.0051290002 0.971147 -0.34118801
-0.029270001 0.97557002 -0.34258801
-0.025113 0.98277998 -0.34076199
-0.040585 0.98772401 -0.34025699
0.013193 0.985641 -0.344933
-0.047541 0.99347502 -0.34053501
-0.042009 0.99169302 -0.34064499
-0.021826001 1.000304 -0.34417301
-0.026838001 1.008001 -0.34459099
-0.0094109997 1.0073839 -0.34470299
-0.042470001 1.019165 -0.34367201
0.019138999 1.024215 -0.34496301
-0.066012003 1.030408 -0.341012
-0.0076330001 1.034375 -0.34284201
-0.027259 1.036081 -0.343119
-0.043304 1.0452549 -0.34231499
-0.021356 1.052789 -0.34379399
-0.070776001 1.055833 -0.34113899
-0.069914997 1.05505 -0.34041801
-0.079723001 1.065583 -0.342572
-0.101409 1.084833 -0.34056601
-0.041102 1.081367 -0.342078
-0.034680001 1.082705 -0.34366199
-0.013443 1.0829819 -0.34444901
-0.081052005 1.0932345 -0.3429735
-0.036789998 1.10294 -0.34059101
-0.032915 1.111017 -0.34145099
-0.091131002 1.116625 -0.344614
-0.092087999 1.1463 -0.343117
-0.093056999 1.176483 -0.341609
-0.083959997 1.188707 -0.34102499
-0.094042003 1.207179 -0.34008199
-0.37091601 1.220688 -0.34269199
-0.309461 1.224263 -0.342114
-0.264608 1.224368 -0.34433699
-0.43024701 1.228433 -0.341194
-0.33423999 1.228672 -0.34001601
-0.236123 1.228487 -0.342042
-0.074084997 1.233843 -0.343813
-0.4152 1.236812 -0.343844
-0.36389601 1.236573 -0.34349099
-0.180188 1.237582 -0.34142399
-0.101589 1.2356811 -0.343676
-0.108263 1.2438591 -0.34016001
0.052583002 0.92671454 -0.33794701
-0.0057080002 0.94442701 -0.33730301
-0.001511 0.94017297 -0.33846399
0.012534 0.94391298 -0.33691499
-0.03647 0.95611399 -0.33832699
