# .PCD v0.7 - Point Cloud Data file format
VERSION 0.7
FIELDS x y z
SIZE 4 4 4
TYPE F F F
COUNT 1 1 1
WIDTH 411
HEIGHT 1
VIEWPOINT 0 0 0 1 0 0 0
POINTS 411
DATA ascii
-2.228215 0.012428 0.451289
-2.2437689 0.0049899998 0.464609
-2.16151 0.0078039998 0.46586001
-2.186115 -0.01253 0.47297299
-2.223285 0.0092949998 0.47162601
-2.170716 0.0085169999 0.472927
-2.2069321 0.001513 0.479783
-2.1763179 0.002472 0.47539699
-2.1670051 -0.020597 0.48157001
-2.201396 -0.019237 0.48613501
-2.182009 0.003732 0.48602599
-2.2215879 0.020114001 0.485686
-2.146311 -0.011787 0.49452299
-2.205934 -0.008192 0.49447
-2.173162 -0.0084830001 0.49247801
-2.2178841 -0.0025849999 0.491238
-2.2029049 -0.036867999 0.49784699
-2.2176709 -0.027321 0.49697101
-2.134362 -0.028487001 0.499506
-2.2024479 -0.010379 0.49842399
-2.1149621 -0.0070949998 0.499726
-2.1632631 -0.0046339999 0.495094
-2.186379 0.008467 0.498638
-2.236608 0.013987 0.49651599
-2.1595731 -0.033422999 0.50351501
-2.220742 -0.013525 0.50400698
-2.2327111 -0.008649 0.50262201
-2.1509011 -0.0076069999 0.50377601
-2.1967261 -0.004681 0.50289202
-2.2323861 -0.033339001 0.50827003
-2.1783659 -0.012079 0.50806201
-2.1746769 -0.0086350003 0.50803
-2.2011869 0.0031349999 0.50817502
-2.1703751 0.0039969999 0.50598198
-2.233294 0.026221 0.50696403
-2.14484 -0.061331999 0.51475197
-2.1837649 -0.040015999 0.51083201
-2.149157 -0.034694001 0.51213902
-2.196182 -0.029877 0.51032901
-2.1927569 0.004766 0.51283902
-2.1931851 0.013288 0.51224202
-2.247298 0.043809 0.51333499
-2.195189 -0.049477998 0.51971602
-2.1745541 -0.040808 0.516379
-2.139148 -0.024488 0.51622802
-2.2318499 0.001908 0.51517999
-2.191582 0.0097500002 0.515674
-2.2120421 0.020545 0.518327
-2.232162 -0.046475999 0.524315
-2.198349 -0.045963999 0.521348
-2.1639521 -0.040901002 0.52477199
-2.21105 -0.03517 0.52228802
-2.1445811 -0.030055 0.523238
-2.178973 -0.027734 0.524427
-2.2272871 -0.020305 0.52185303
-2.1922736 -0.017539501 0.52202201
-2.1898351 -0.015288 0.52108502
-2.144552 -0.019509001 0.524993
-2.2074721 -0.001252 0.52413797
-2.157407 -0.003362 0.520881
-2.2045441 0.018528 0.52358598
-2.2071841 0.030069999 0.52036703
-2.1895349 -0.048193 0.52924198
-2.154021 -0.031746 0.52901202
-2.1807251 -0.020119 0.52924299
-2.2278531 -0.016388001 0.52551103
-2.162971 -0.0088290004 0.52779502
-2.2065639 0.0044169999 0.52772403
-2.161171 0.001442 0.52946502
-2.2084661 0.0065819998 0.52540302
-2.2269499 0.014464 0.52907699
-2.1876581 0.017801 0.52642202
-2.18908 0.029550999 0.52529502
-2.2424469 0.055381 0.527336
-2.146688 -0.069530003 0.53386497
-2.141341 -0.058015 0.53141999
-2.2259181 -0.040461998 0.53424603
-2.1935561 -0.033682 0.53494197
-2.246845 -0.028487001 0.53043699
-2.2085731 -0.026969999 0.53399801
-2.205945 -0.020848 0.53497303
-2.1799331 -0.013385 0.53225499
-2.189728 -0.0035610001 0.534554
-2.153511 0.01238 0.534352
-2.2222819 0.024695 0.53250998
-2.1780181 0.022717001 0.534024
-2.2020011 0.044612002 0.53324801
-2.2565579 0.073288001 0.53392601
-2.1782269 -0.060089 0.53558999
-2.1787469 -0.047107998 0.53740603
-2.261797 -0.040445 0.538311
-2.223747 -0.00012500001 0.53856498
-2.202373 0.011783 0.53772098
-2.1878581 0.027012 0.53980899
-2.1950891 0.044321001 0.538674
-2.184974 0.045814 0.53834802
-2.1873341 0.051738001 0.53537202
-2.2461901 0.097884998 0.53874302
-2.2275159 -0.057859998 0.54237902
-2.137584 -0.042385001 0.54453403
-2.178021 -0.016026 0.54068398
-2.150156 -0.01613 0.54237401
-2.1760831 -0.0048139999 0.54219902
-2.1825581 0.030835999 0.54000598
-2.238683 0.043791 0.54443902
-2.233808 0.086419001 0.54307598
-2.1614871 -0.076024003 0.54661101
-2.193156 -0.067227997 0.54837602
-2.1427121 -0.053780001 0.546507
-2.254318 -0.019562 0.549344
-2.2048309 -0.011006 0.54752201
-2.196872 0.005498 0.54540598
-2.1859851 0.012403 0.54807699
-2.193048 0.016411999 0.54685903
-2.18169 0.016974 0.54698098
-2.2065001 0.020457 0.54512203
-2.17785 0.028766001 0.545847
-2.1496141 0.028122 0.547822
-2.217098 0.039237998 0.54539102
-2.1671391 0.035811 0.54863298
-2.1973331 0.049947001 0.545982
-2.1968169 0.059154999 0.54612899
-2.251672 0.084945001 0.54802901
-2.2200971 0.103474 0.54724002
-2.2421 -0.063808002 0.55289501
-2.179409 -0.05517 0.551045
-2.1469009 -0.044176001 0.55025202
-2.1576819 -0.0077530001 0.55277503
-2.202657 0.020976 0.55048001
-2.197273 0.024817999 0.551305
-2.2050791 0.034281 0.55305499
-2.2002549 0.039106999 0.55150998
-2.1829939 0.039476 0.55360401
-2.1681449 0.049860001 0.55275601
-2.1364679 0.046016999 0.55488503
-2.186079 0.057882 0.55361497
-2.1808691 0.062077001 0.55140197
-2.2618539 0.091011003 0.55223501
-2.246928 0.099363998 0.55059999
-2.241981 0.114556 0.55212402
-2.1599259 -0.065700002 0.55896902
-2.172302 -0.058593001 0.55816799
-2.152395 -0.049467001 0.55721802
-2.1530521 -0.037367001 0.55838698
-2.1462901 -0.00051500002 0.55573702
-2.18837 0.031838 0.55991799
-2.2121589 0.043884002 0.55736601
-2.1740019 0.044778999 0.559282
-2.2338679 0.05528 0.55834001
-2.163332 0.057976 0.55672801
-2.1921949 0.063079998 0.559668
-2.1549799 0.068047002 0.55972302
-2.266911 0.079457998 0.55784303
-2.2053521 0.080323003 0.55867201
-2.196907 0.083364002 0.55569202
-2.2434411 0.13561399 0.55907899
-2.194325 -0.061717 0.56389201
-2.189369 -0.051472999 0.56159502
-2.2696149 -0.026877001 0.56244498
-2.1686599 0.053571001 0.56014198
-2.1967466 0.056791998 0.5622915
-2.192903 0.066960998 0.56422198
-2.2456 0.082162999 0.56129599
-2.2467599 0.12940399 0.56120503
-2.3406799 0.13826799 0.56036198
-2.160126 -0.042025998 0.56988299
-2.1703861 0.01574 0.56733698
-2.1424241 0.0151 0.56909901
-2.1911321 0.047711 0.56607002
-2.2013061 0.050375 0.56669003
-2.164217 0.065729998 0.56633699
-2.185657 0.075421996 0.565
-2.2121379 0.089515001 0.56923699
-2.2438769 0.095730998 0.56849098
-2.1919711 0.096014999 0.56969303
-2.2636631 0.104792 0.56627798
-2.2576449 0.107681 0.56561601
-2.2377729 0.131226 0.56550503
-2.21436 -0.061347 0.57341498
-2.218219 -0.056875002 0.57366401
-2.1849689 -0.056301001 0.57039398
-2.1562729 -0.050117999 0.57217002
-2.1607101 0.036547001 0.57418001
-2.183691 0.047265001 0.57297701
-2.207021 0.057016999 0.57105201
-2.2067311 0.068323001 0.57115197
-2.1924429 0.070770003 0.57391602
-2.18295 0.087935999 0.571491
-2.2620251 0.091113999 0.57194602
-2.2015481 0.096551001 0.57242
-2.207917 0.107118 0.57359898
-2.2206149 0.120232 0.57490402
-2.3549161 0.13784499 0.57117301
-2.239537 0.137611 0.57445401
-2.245188 0.14041901 0.57340503
-2.3835909 0.14908201 0.57145
-2.1903169 -0.045841999 0.57663399
-2.19293 0.045903999 0.57806998
-2.2092161 0.083667003 0.576469
-2.165863 0.081906997 0.579584
-2.1809411 0.090971999 0.57816398
-2.276423 0.109427 0.57889402
-2.202013 0.110516 0.57672298
-2.258831 0.120726 0.57976598
-2.321445 0.12837701 0.57623702
-2.393219 0.138598 0.57534999
-2.3407099 0.141702 0.578767
-2.169229 -0.093822002 0.58009601
-2.187108 -0.073265001 0.58474499
-2.1975329 0.066469997 0.58032399
-2.1672599 0.069940999 0.58075702
-2.2018831 0.070150003 0.58473802
-2.19819 0.080499001 0.58459097
-2.237411 0.09623 0.58365798
-2.2230451 0.10167 0.58334202
-2.196249 0.102346 0.58025903
-2.208226 0.105793 0.58289498
-2.2740149 0.123111 0.582555
-2.256151 0.12669601 0.583215
-2.221777 0.12540101 0.58052403
-2.2141891 0.125587 0.58479899
-2.276391 0.13350999 0.58183402
-2.144362 0.025828 0.588902
-2.1568141 0.052288 0.58765
-2.1875441 0.083325997 0.58781397
-2.216902 0.088982001 0.585603
-2.1819191 0.089345999 0.58704001
-2.2495451 0.094154999 0.58749002
-2.2343559 0.102981 0.585576
-2.2173576 0.1034625 0.58961499
-2.1977429 0.112779 0.58616698
-2.2298379 0.117505 0.58737999
-2.2171421 0.11572 0.58599502
-2.337229 0.121755 0.589715
-2.3336921 0.124408 0.58924502
-2.2910659 0.128023 0.58593303
-2.2277601 0.12886401 0.58810401
-2.4089971 0.132145 0.58746499
-2.254992 0.132109 0.58688402
-2.162751 0.047506001 0.59399003
-2.202055 0.102539 0.59452403
-2.2691009 0.117476 0.59248799
-2.377425 0.122285 0.59481198
-2.374826 0.12443 0.59450901
-2.2016649 0.128218 0.59041899
-2.448096 0.132873 0.59179097
-2.292521 0.133498 0.59153301
-2.356612 0.13537 0.59283602
-2.2172861 0.135869 0.59153497
-2.1831329 -0.057516001 0.597386
-2.1814771 0.069548003 0.59914702
-2.2130971 0.10521 0.59934998
-2.425863 0.119786 0.598149
-2.27244 0.129811 0.59768599
-2.236901 0.125916 0.595357
-2.1934669 0.12899201 0.59645897
-2.145282 0.024829 0.60055202
-2.2004399 0.091934003 0.604415
-2.2433131 0.121426 0.60142398
-2.2167981 0.122045 0.601331
-2.308099 0.12795299 0.60406297
-2.276438 0.12517001 0.60026699
-2.2327681 0.12823699 0.604828
-2.393342 0.115607 0.60840398
-2.287806 0.123545 0.60876501
-2.2722521 0.127455 0.609824
-2.292064 0.117545 0.61369699
-2.3232939 0.120102 0.611417
-2.312397 0.12665699 0.61490798
-2.3492401 0.103923 0.61964703
-2.4410739 0.107113 0.61621201
-2.4193089 0.106199 0.61705798
-2.4175251 0.112241 0.61924702
-2.3655519 0.110425 0.61668599
-2.332397 0.116719 0.61880797
-2.30317 0.117278 0.61984402
-2.285048 0.123634 0.61976701
-2.2628641 0.123521 0.61576098
-2.301357 0.115605 0.62417603
-2.513454 0.086367004 0.63269103
-2.457231 0.099147998 0.63008499
-2.3650949 0.096556999 0.63325799
-2.3814831 0.103433 0.63040698
-2.3143401 0.105771 0.633241
-2.2993009 0.107903 0.63134801
-2.2570851 0.110586 0.63456702
-2.524179 0.085364997 0.63521498
-2.412931 0.092845999 0.63564903
-2.354929 0.104974 0.63850999
-2.303477 0.112063 0.63663399
-2.2804501 0.114432 0.63609898
-2.466876 0.093584001 0.64186603
-2.4486439 0.095255002 0.64432299
-2.2773311 0.097355999 0.644979
-2.3233149 0.102295 0.64055902
-2.294682 0.103439 0.64398801
-2.277415 0.110196 0.64087701
-2.3364551 0.088160999 0.64604801
-2.3148079 0.101728 0.64506799
-2.2721381 0.104429 0.64612597
-2.296041 0.107189 0.64948201
-2.40663 0.079692997 0.65395999
-2.3722119 0.089717001 0.65210098
-2.3657391 0.085598998 0.65298498
-2.3389411 0.094669998 0.65398997
-2.3190889 0.104367 0.65003902
-2.292814 0.103736 0.65402502
-2.5461521 0.052575 0.65525502
-2.5249071 0.073003002 0.65770501
-2.3796721 0.093649998 0.65944302
-2.292464 0.091183998 0.655891
-2.2871909 0.098273002 0.65768403
-2.4778841 0.065881997 0.66253299
-2.331131 0.076091997 0.66270602
-2.4569759 0.080334999 0.66398501
-2.2881839 0.091484003 0.66346699
-2.3347011 0.096670002 0.66344398
-2.3116319 0.099946 0.662866
-2.4069149 0.079676002 0.66595
-2.3284039 0.075011 0.66694403
-2.32108 0.084238999 0.66802299
-2.3070321 0.086927995 0.66662097
-2.3022449 0.092116997 0.66924298
-2.3591371 0.072861001 0.67164499
-2.505702 0.075253002 0.67170399
-2.285109 0.090545997 0.67471099
-2.4938011 0.059204001 0.67612398
-2.490598 0.063281 0.676404
-2.322731 0.078840002 0.677715
-2.279531 0.093360998 0.67513198
-2.281765 0.079705998 0.68265301
-2.32566 0.082446001 0.684587
-2.357971 0.053750001 0.68543297
-2.32041 0.062054001 0.68752497
-2.3144829 0.063441999 0.68851101
-2.3378639 0.072667003 0.688627
-2.312284 0.070440002 0.68901998
-2.2972414 0.077845998 0.68747902
-2.3003831 0.084137999 0.68775302
-2.2949381 0.086599998 0.688402
-2.5066891 0.055585999 0.69018501
-2.376615 0.061377 0.692572
-2.3526211 0.060314 0.69002301
-2.2968631 0.074331999 0.69479603
-2.279108 0.079761997 0.69134301
-2.3731041 0.047577001 0.69634497
-2.33776 0.055337999 0.69697398
-2.311142 0.073407002 0.698973
-2.3971701 0.054235999 0.70072901
-2.3676741 0.054157998 0.70158201
-2.3356841 0.055647001 0.70056701
-2.32989 0.056680001 0.70178002
-2.327708 0.063064002 0.70222902
-2.2969501 0.060442999 0.70367199
-2.313535 0.070101 0.70095098
-2.336318 0.059163999 0.70940101
-2.332299 0.060054 0.70599902
-2.3167679 0.068457 0.70537901
-2.31196 0.068957999 0.70693898
-2.292717 0.071222998 0.70798898
-2.2866969 0.073473997 0.70890898
-2.3827281 0.048002001 0.71314102
-2.3509581 0.049238998 0.71360898
-2.328789 0.064026996 0.71444702
-2.326081 0.067298003 0.71044397
-2.270874 0.066390999 0.71175301
-2.347338 0.043667 0.71834499
-2.3289559 0.042052001 0.71751201
-2.3452971 0.049918 0.71504998
-2.3473179 0.053927999 0.716829
-2.3321221 0.060888 0.71856201
-2.3270569 0.063584 0.719082
-2.3189411 0.049555 0.72276801
-2.2860839 0.059326001 0.72480899
-2.307868 0.064865999 0.720927
-2.3019781 0.066767998 0.72207099
-2.3640461 0.035530999 0.72871399
-2.360703 0.043156002 0.72832
-2.32743 0.045568999 0.72987098
-2.319906 0.054979 0.72825599
-2.344043 0.057953 0.727943
-2.3070221 0.066270001 0.726255
-2.3624351 0.038293 0.730488
-2.342886 0.036603 0.73363799
-2.342382 0.066578001 0.73083001
-2.342262 0.023593999 0.73834002
-2.334239 0.042240001 0.73586899
-2.320375 0.052106 0.73769999
-2.3012941 0.05226 0.73786497
-2.31726 0.060061 0.735232
-2.2845471 0.062824003 0.73759502
-2.340446 0.051268 0.74399602
-2.300252 0.052221 0.74072301
-2.3495359 0.034924999 0.74897099
-2.299463 0.041175 0.745933
-2.335357 0.046773002 0.74975097
-2.3152831 0.045915 0.75355798
-2.299664 0.055447999 0.750588
-2.2950599 0.026349001 0.75693798
-2.3145659 0.033728998 0.758901
-2.273 0.030993 0.75782698
-2.312217 0.039464999 0.755068
-2.3088319 0.047237001 0.75521702
-2.306489 0.052285001 0.75640202
-2.331713 0.038129002 0.76397699
-2.291163 0.042089999 0.77040899
-2.305938 0.020463999 0.77859998
-2.297982 0.039067999 0.77618599
-2.3230469 0.025184 0.78365701
-2.27759 0.028781001 0.78134799
-2.2590899 0.015757 0.78765601
