# .PCD v0.7 - Point Cloud Data file format
VERSION 0.7
FIELDS x y z
SIZE 4 4 4
TYPE F F F
COUNT 1 1 1
WIDTH 304
HEIGHT 1
VIEWPOINT 0 0 0 1 0 0 0
POINTS 304
DATA ascii
-2.139652 0.823255 0.223203
-2.1025281 0.81282502 0.22997101
-2.1523571 0.834813 0.226432
-2.1725521 0.83026099 0.234329
-2.22594 0.57261097 0.238713
-2.2160411 0.57690603 0.23587599
-2.2569449 0.58238298 0.236083
-2.2372439 0.580948 0.236619
-2.218843 0.55875999 0.24153601
-2.196651 0.793805 0.243939
-2.1581459 0.83122998 0.24486101
-2.244849 0.568349 0.246108
-2.23472 0.58352298 0.247527
-2.2510791 0.59637702 0.25301501
-2.187288 0.77188802 0.25084901
-2.216676 0.78929102 0.25176999
-2.172694 0.81110698 0.253535
-2.1208749 0.820737 0.25145701
-2.2343819 0.56262398 0.257451
-2.205708 0.56896001 0.25703701
-2.245863 0.57476199 0.25659999
-2.2113979 0.60165602 0.25533101
-2.101398 0.81349301 0.259523
-2.0841579 0.810381 0.25797099
-2.2331359 0.81660402 0.258021
-2.2111809 0.58199 0.26466301
-2.2221351 0.594248 0.26285699
-2.230243 0.59624398 0.26440701
-2.199604 0.60102499 0.264231
-2.223501 0.79408199 0.26356199
-2.192719 0.806593 0.26136601
-2.122653 0.81768298 0.264231
-2.233093 0.56600899 0.26728001
-2.2032011 0.572905 0.26566499
-2.184293 0.784168 0.268152
-2.121372 0.809232 0.26600599
-2.2533309 0.81205201 0.26591799
-2.2297461 0.55207998 0.270432
-2.221961 0.56867599 0.273002
-2.2298429 0.57577902 0.274452
-2.1911609 0.57989103 0.27406001
-2.2406321 0.58817899 0.27343801
-2.218514 0.596762 0.271626
-2.2069211 0.61437601 0.272212
-2.1413469 0.80497098 0.27248901
-2.142313 0.812038 0.2737
-2.1936829 0.54899198 0.27756101
-2.242389 0.556925 0.27802199
-2.232949 0.55500001 0.276779
-2.1613221 0.80071002 0.278972
-2.209691 0.57393003 0.28384599
-2.228653 0.57862502 0.284022
-2.222548 0.59812301 0.28112799
-2.2066419 0.59514499 0.281665
-2.2257659 0.60896403 0.281288
-2.207283 0.60530001 0.280368
-2.1958909 0.61309999 0.280687
-2.2527931 0.793051 0.28485799
-2.161973 0.80639201 0.28316799
-2.14907 0.809425 0.28194001
-2.2315099 0.54879099 0.28670201
-2.2239809 0.56583399 0.287074
-2.218277 0.58065599 0.28932801
-2.2148011 0.60883802 0.288082
-2.2393479 0.62436599 0.286879
-2.2235119 0.62074703 0.28805599
-2.2024441 0.62709701 0.289092
-2.2488201 0.69277 0.287328
-2.1812971 0.79644901 0.28545401
-2.1100111 0.79963398 0.28503501
-2.2406211 0.80216801 0.287545
-2.2216661 0.55289602 0.29057199
-2.22822 0.56796998 0.29363301
-2.2372019 0.57022899 0.29471901
-2.2253051 0.588934 0.291453
-2.2259679 0.599289 0.29023701
-2.195333 0.595568 0.29043099
-2.2354 0.601596 0.290277
-2.2406549 0.64677799 0.29456499
-2.255486 0.691989 0.291412
-2.2728169 0.78853703 0.29268801
-2.2012711 0.79218799 0.29193699
-2.260761 0.79787201 0.294081
-2.240278 0.54870099 0.297851
-2.2423339 0.614483 0.29792699
-2.202513 0.618379 0.297364
-2.2212889 0.62168503 0.298168
-2.192178 0.62517601 0.29714301
-2.218327 0.65264302 0.29552501
-2.2427721 0.68740398 0.29937401
-2.2566071 0.70668 0.29775301
-2.2722061 0.71873301 0.29804301
-2.1887839 0.80047202 0.29747
-2.2271061 0.56130397 0.303307
-2.2182159 0.57958901 0.303716
-2.253897 0.59552699 0.300859
-2.211087 0.62091398 0.30453801
-2.2334819 0.63836098 0.303812
-2.2188599 0.64432698 0.303929
-2.1879449 0.640567 0.302791
-2.237329 0.64718598 0.30467701
-2.2074859 0.64961898 0.30342501
-2.216465 0.67682201 0.300576
-2.251698 0.69395697 0.304667
-2.2841661 0.76286298 0.30056599
-2.1608579 0.78618801 0.30348399
-2.1493959 0.79075497 0.300437
-2.2059669 0.54592401 0.305179
-2.2180109 0.56478298 0.30677
-2.2145929 0.592637 0.30565399
-2.190146 0.60887098 0.30712801
-2.221199 0.612369 0.30723301
-2.217201 0.65652502 0.308658
-2.2588871 0.71296901 0.305821
-2.2086411 0.79599601 0.30523601
-2.225744 0.55003297 0.31368601
-2.236624 0.56058699 0.31404901
-2.222558 0.57069099 0.311656
-2.204164 0.57914102 0.310985
-2.272393 0.58945799 0.31143999
-2.2299969 0.616651 0.31193301
-2.183738 0.62022901 0.31254601
-2.237705 0.63826501 0.31388199
-2.236038 0.66015798 0.31185701
-2.2354701 0.670708 0.31061399
-2.264945 0.764893 0.31290001
-2.2611949 0.77940398 0.31138599
-2.1803491 0.78059101 0.31287199
-2.2209539 0.789455 0.31157401
-2.1978619 0.53635597 0.31995299
-2.236197 0.57311398 0.31529599
-2.2197721 0.60385698 0.31750599
-2.237756 0.62774998 0.31507301
-2.2229991 0.66055399 0.31973299
-2.2640409 0.66727298 0.31980899
-2.2422991 0.67015201 0.31729999
-2.225522 0.544227 0.32231301
-2.202678 0.56880599 0.32069501
-2.2143559 0.57666898 0.32296899
-2.212451 0.59334302 0.32035699
-2.1849589 0.62217498 0.323825
-2.2565489 0.63220298 0.32383499
-2.2073741 0.63298899 0.32099399
-2.227617 0.65235502 0.32074401
-2.232815 0.66001302 0.32169899
-2.2487741 0.70594198 0.32155299
-2.2380841 0.72030598 0.32188699
-2.2517271 0.75598401 0.321803
-2.2406139 0.78380901 0.321042
-2.202765 0.56191897 0.32992801
-2.2180569 0.583736 0.32851499
-2.218761 0.59390998 0.32734099
-2.1871591 0.59089398 0.32795399
-2.2268281 0.59683597 0.32811299
-2.2296691 0.60038799 0.329317
-2.2290559 0.61933899 0.32638001
-2.226284 0.62872702 0.32838899
-2.2314219 0.67353803 0.32914999
-2.230619 0.684012 0.32790101
-2.239903 0.687096 0.32617399
-2.2463031 0.71807897 0.32603401
-2.2017591 0.77063501 0.32883099
-2.1829059 0.51706201 0.334887
-2.2210541 0.562895 0.330401
-2.215332 0.61647302 0.33424699
-2.2331791 0.64101601 0.33221799
-2.2459121 0.64576697 0.332526
-2.2418649 0.65319699 0.33491999
-2.2328949 0.651456 0.33102199
-2.2385249 0.68242198 0.33402199
-2.2038879 0.76037699 0.33027601
-2.1887889 0.76359397 0.3339
-2.2281671 0.77299899 0.33124
-2.1608119 0.776389 0.330302
-2.245193 0.62446398 0.335783
-2.221751 0.66634899 0.33767599
-2.228301 0.67284 0.33872101
-2.258719 0.68092197 0.33693901
-2.207823 0.69323599 0.33648601
-2.221096 0.76441503 0.33904499
-2.1820149 0.60408598 0.344511
-2.2155371 0.69902402 0.34323001
-2.234581 0.70074499 0.34330401
-2.2760451 0.70785099 0.343604
-2.2250381 0.720155 0.34344199
-2.2417121 0.73112398 0.34334499
-2.2388229 0.76380002 0.34103301
-2.2286019 0.65428197 0.34936401
-2.228085 0.66464603 0.348162
-2.226805 0.68691802 0.34644201
-2.244535 0.69898802 0.345626
-2.2257681 0.69731498 0.34518799
-2.2270801 0.70482999 0.348548
-2.23136 0.72451699 0.34994999
-2.223433 0.73407102 0.34899899
-2.22785 0.75478899 0.34917501
-2.2404339 0.75819498 0.34925801
-2.210892 0.629089 0.35098901
-2.230346 0.63251698 0.35109401
-2.238122 0.66536999 0.35150799
-2.2158849 0.68034399 0.354608
-2.2636991 0.69348502 0.354855
-2.2347519 0.69469303 0.35074401
-2.244184 0.71378303 0.353484
-2.242641 0.72442001 0.35225901
-2.330498 0.73822802 0.35260701
-2.242516 0.74752098 0.35053599
-2.1815209 0.75437301 0.353232
-2.1925769 0.58473301 0.35533699
-2.2174261 0.64708602 0.359952
-2.2267039 0.65443498 0.357887
-2.2457869 0.68059999 0.35639799
-2.2597711 0.75197399 0.35947201
-2.201015 0.75021398 0.359559
-2.1774311 0.75989199 0.35824099
-2.2633309 0.70740998 0.36352599
-2.2399831 0.71192199 0.362791
-2.22926 0.71439397 0.360434
-2.261811 0.71825302 0.362385
-2.321419 0.72825402 0.361123
-2.2618289 0.74109298 0.36066601
-2.2371211 0.744169 0.36065599
-2.2343791 0.67754197 0.36809599
-2.2232749 0.67783701 0.36530301
-2.22418 0.71671897 0.3653
-2.2564471 0.73861903 0.369964
-2.227556 0.73688799 0.36680901
-2.279109 0.745754 0.36968499
-2.2205091 0.74605501 0.365886
-2.196578 0.753519 0.36828399
-2.259146 0.70642 0.37202001
-2.281143 0.73466498 0.37079501
-2.2400031 0.74189699 0.37221199
-2.211575 0.69401097 0.37722999
-2.223938 0.72804201 0.37756401
-2.275773 0.733069 0.379271
-2.305974 0.73717898 0.37972501
-2.3167889 0.74141097 0.378582
-2.1657879 0.74449903 0.37836799
-2.346323 0.74636501 0.37744501
-2.2157249 0.74714702 0.378326
-2.1925521 0.74879801 0.378663
-2.2306359 0.68971401 0.384684
-2.227206 0.71923399 0.384188
-2.3362801 0.73581398 0.38796899
-2.2348709 0.74077398 0.38836801
-2.211715 0.74329501 0.38789201
-2.192209 0.743339 0.38701099
-2.185003 0.74016798 0.38588199
-2.2764461 0.74827802 0.38839
-2.2464211 0.714903 0.391702
-2.2042179 0.73583603 0.39339599
-2.218616 0.74169099 0.394694
-2.355772 0.73021698 0.39735699
-2.2308781 0.73779202 0.397122
-2.211215 0.73722601 0.39704999
-2.218379 0.74049902 0.39880499
-2.223433 0.73150498 0.40090999
-2.375263 0.72461897 0.406744
-2.273165 0.72802901 0.408452
-2.250041 0.73228902 0.406351
-2.230221 0.731112 0.40708801
-2.315073 0.73542202 0.408649
-2.237433 0.73551798 0.405458
-2.3564589 0.720873 0.410539
-2.30124 0.73179102 0.41396901
-2.22315 0.714059 0.41786
-2.3947539 0.71902198 0.41613099
-2.261863 0.72284198 0.41593799
-2.2492261 0.724998 0.417126
-2.3343871 0.72899401 0.41877899
-2.2692039 0.72678697 0.41558
-2.256249 0.72934401 0.41622299
-2.375797 0.714652 0.42075199
-2.288367 0.72128397 0.42480901
-2.2682321 0.718885 0.42716399
-2.3536999 0.72256601 0.428909
-2.2750659 0.72316998 0.42698801
-2.3075299 0.71578097 0.43403801
-2.2872379 0.712771 0.43720201
-2.2938819 0.71699601 0.43775201
-2.3695719 0.68633699 0.44455999
-2.3719399 0.694673 0.44057199
-2.326694 0.71027797 0.44326699
-2.349751 0.70253998 0.448621
-2.3923271 0.70971 0.449168
-2.3062439 0.70665801 0.44724101
-2.3126979 0.710823 0.44851699
-2.3504479 0.66945398 0.450719
-2.3315151 0.70464897 0.45928201
-2.325249 0.700544 0.457279
-2.2621779 0.70182198 0.464706
-2.333488 0.63961601 0.465381
-2.345566 0.66178602 0.46925399
-2.309761 0.65910101 0.47163799
-2.2821441 0.66533297 0.479707
-2.3219121 0.68103802 0.47644201
-2.2591059 0.68247998 0.48361599
-2.3045299 0.67251801 0.48847699
-2.2590129 0.68331701 0.48744699
-2.2777679 0.67626798 0.493404
-2.3186131 0.66184998 0.495289
-2.2964311 0.670057 0.50319201
-2.2951579 0.68094099 0.50241601
