# .PCD v0.7 - Point Cloud Data file format
VERSION 0.7
FIELDS x y z
SIZE 4 4 4
TYPE F F F
COUNT 1 1 1
WIDTH 104
HEIGHT 1
VIEWPOINT 0 0 0 1 0 0 0
POINTS 104
DATA ascii
-2.272583 0.36186799 1.058194
-2.2661841 0.35407099 1.068833
-2.2741361 0.35335001 1.071116
-2.191443 0.35568401 1.071804
-2.2582071 0.33497301 1.0784791
-2.2771511 0.34465599 1.079132
-2.2608571 0.35086599 1.083441
-2.2437699 0.32690501 1.085602
-2.29667 0.335971 1.08716
-2.266418 0.33888799 1.088412
-2.225054 0.34979999 1.086036
-2.281831 0.327939 1.09427
-2.2281001 0.33214301 1.092867
-2.1921239 0.34074199 1.091439
-2.190304 0.31382 1.098249
-2.2314069 0.342363 1.096076
-2.1873469 0.34657201 1.09698
-2.2306199 0.327766 1.104187
-2.217418 0.33445299 1.102862
-2.204706 0.305289 1.1075619
-2.2587769 0.324637 1.105442
-2.185605 0.32635099 1.107779
-2.2462809 0.335105 1.108861
-2.2173409 0.33797401 1.108505
-2.1829219 0.29877201 1.1146671
-2.1800859 0.33161199 1.113429
-2.168225 0.33365899 1.1116461
-2.176646 0.30146199 1.1170141
-2.209857 0.319332 1.1194299
-2.164814 0.32126299 1.115201
-2.133553 0.33273 1.11505
-2.1253951 0.33571601 1.119513
-2.0832911 0.33627301 1.118149
-2.1981261 0.29127401 1.123655
-2.2007384 0.32115448 1.122061
-2.1911471 0.29472601 1.1294611
-2.2656071 0.297575 1.1278
-2.1797299 0.29760399 1.1278909
-2.2160139 0.311786 1.129292
-2.1613901 0.319334 1.127789
-2.2102351 0.323964 1.125108
-2.1480191 0.32581201 1.127439
-2.154335 0.27645999 1.134454
-2.18643 0.28692201 1.132948
-2.1516349 0.30911499 1.133194
-2.27264 0.311452 1.131101
-2.1756151 0.326258 1.1336
-2.1014609 0.32521799 1.13472
-2.2125809 0.28521001 1.135999
-2.2921 0.30292401 1.137794
-2.1936259 0.30611101 1.136215
-2.2978489 0.31631899 1.138859
-2.154016 0.31895399 1.1399339
-2.2221401 0.28895101 1.142189
-2.194186 0.29126 1.140342
-2.287487 0.304555 1.143845
-2.1938379 0.30695599 1.140121
-2.203217 0.31016299 1.1414599
-2.1758461 0.312989 1.14024
-2.141181 0.311113 1.143432
-2.138047 0.2816 1.14657
-2.208081 0.300046 1.148558
-2.166024 0.30243099 1.145545
-2.21193 0.314477 1.14929
-2.126992 0.316645 1.149128
-2.1156969 0.31896999 1.146982
-2.147434 0.26205599 1.150212
-2.195085 0.289794 1.151795
-2.2083499 0.29980201 1.152581
-2.2020121 0.30344 1.1545039
-2.2655251 0.30994901 1.154116
-2.239321 0.312383 1.150841
-2.1683609 0.31293499 1.152184
-2.123137 0.266857 1.159515
-2.1299341 0.31272101 1.1592439
-2.1794579 0.274647 1.164912
-2.113646 0.28913 1.16259
-2.2451861 0.30043799 1.16158
-2.1914151 0.30506 1.1646039
-2.1827071 0.30691701 1.164433
-2.147254 0.30666301 1.160041
-2.1412711 0.31001201 1.1613851
-2.161442 0.296639 1.165468
-2.1948011 0.28906199 1.170247
-2.1973059 0.29727301 1.17443
-2.1615419 0.29961899 1.172309
-2.2825689 0.30107 1.170729
-2.15555 0.303379 1.173642
-2.306283 0.291958 1.178967
-2.2531559 0.29766801 1.176152
-2.11006 0.304048 1.175107
-2.297312 0.29380199 1.183387
-2.1758311 0.29257599 1.184577
-2.0816541 0.29882801 1.182557
-2.335521 0.291558 1.185567
-2.056355 0.294927 1.186288
-2.190119 0.28553301 1.1968451
-2.1299 0.289556 1.196924
-2.085685 0.28863001 1.196512
-2.07021 0.28849101 1.198181
-2.117671 0.28312799 1.202397
-2.1095841 0.28505901 1.206538
-2.131701 0.27641901 1.214412
-2.084064 0.28205499 1.210073
