# .PCD v0.7 - Point Cloud Data file format
VERSION 0.7
FIELDS x y z
SIZE 4 4 4
TYPE F F F
COUNT 1 1 1
WIDTH 1556
HEIGHT 1
VIEWPOINT 0 0 0 1 0 0 0
POINTS 1556
DATA ascii
-1.959433 0.124084 0.35355401
-1.935042 0.120814 0.35022801
-1.926923 0.12978899 0.35373101
-1.897243 0.127296 0.354458
-1.882687 0.12588701 0.35467601
-1.8796329 0.125862 0.35337201
-1.841982 0.12733801 0.353156
-1.9281271 0.137192 0.35032299
-1.770943 0.138419 0.354518
-1.743441 0.151825 0.35306901
-1.773693 0.15538999 0.35064799
-1.751248 0.1608 0.35255301
-1.764905 0.165701 0.35372001
-1.756808 0.165648 0.353185
-1.710029 0.171727 0.35089499
-1.755417 0.177747 0.35107201
-1.766729 0.181449 0.35207
-1.746798 0.188192 0.35425401
-1.738807 0.186455 0.351803
-1.747234 0.190531 0.35270199
-1.724668 0.19313399 0.35056201
-1.755927 0.198724 0.35163701
-1.7371401 0.200103 0.351495
-1.732957 0.200305 0.351051
-1.719488 0.20810699 0.35247701
-1.726724 0.213385 0.35464701
-1.714433 0.21188 0.354128
-1.7544529 0.217162 0.35271099
-1.7237 0.217281 0.35413301
-1.7519079 0.222656 0.35457101
-1.7373 0.22079299 0.351533
-1.713432 0.228109 0.35283101
-1.708179 0.22888499 0.35412201
-1.672381 0.229251 0.354289
-1.680568 0.232052 0.35192499
-1.720451 0.242953 0.354839
-1.987916 -0.150727 0.35661
-1.966903 -0.136426 0.35658199
-2.002686 -0.131575 0.359644
-1.9831001 -0.116993 0.35982099
-1.9972475 -0.1110415 0.3574205
-1.979511 -0.088371001 0.355214
-2.0094759 -0.074593998 0.35597199
-2.0106139 -0.065880001 0.35640499
-1.996223 -0.067881003 0.358206
-2.058548 -0.053270999 0.356967
-2.026444 -0.052724 0.35525101
-1.977801 -0.045343999 0.35835701
-1.996104 -0.044769999 0.35587299
-1.991395 -0.044337001 0.355665
-2.007345 -0.034754001 0.35828599
-1.976576 -0.025593 0.356583
-2.003273 -0.024284 0.35799199
-1.995168 -0.02373 0.35694599
-1.977056 -0.023088999 0.35563099
-2.015564 -0.016953999 0.35894701
-2.0146255 -0.018827001 0.35728151
-1.983291 -0.016527001 0.35672599
-2.0066471 -0.0059290002 0.35572299
-1.970291 -0.0089880005 0.357757
-1.9570481 -0.006416 0.35729301
-2.0137 -0.002476 0.35644999
-1.9759181 -0.002504 0.35716501
-1.958282 -0.00084499997 0.355526
-1.996191 0.0031359999 0.35812101
-1.98636 0.0069320002 0.35569701
-1.987931 0.016965 0.356157
-1.974586 0.020607 0.358439
-1.9683321 0.020275 0.356731
-1.977648 0.026169 0.358668
-1.967123 0.025031 0.358753
-2.009567 0.034738 0.359072
-1.969215 0.039859999 0.35659099
-2.0198269 0.041429002 0.35801199
-1.955662 0.043028001 0.358334
-1.9489599 0.041988999 0.355984
-2.0031359 0.049454 0.359198
-1.986717 0.049102001 0.355757
-1.9591039 0.049201999 0.35921401
-2.0066271 0.056628 0.35679799
-1.988547 0.056076001 0.35517901
-1.985731 0.061737999 0.355793
-1.955754 0.063640997 0.359056
-1.945637 0.067434996 0.356177
-1.976136 0.071796998 0.35505801
-1.995838 0.089450002 0.35659099
-1.965237 0.089332998 0.35650799
-1.964257 0.088448003 0.35558599
-1.9448659 0.085905999 0.35783201
-1.9262609 0.085666001 0.35925499
-1.96613 0.093910001 0.357039
-1.957268 0.09488 0.35521299
-1.963107 0.099320002 0.35926899
-1.944701 0.105107 0.359754
-1.95035 0.115719 0.35825801
-1.938399 0.117963 0.355367
-1.928777 0.119769 0.35703501
-1.923008 0.117382 0.35777199
-1.79627 0.129777 0.35697401
-1.767329 0.12810101 0.357178
-1.859717 0.131992 0.35556301
-1.835659 0.132552 0.35897499
-1.903035 0.136996 0.35849801
-1.796738 0.13522699 0.356711
-1.777292 0.13866401 0.35552999
-1.860214 0.142404 0.35751101
-1.830039 0.141056 0.356502
-1.816484 0.14260601 0.355863
-1.79987 0.14279699 0.35863
-1.723125 0.153226 0.357564
-1.78372 0.155518 0.35684499
-1.740975 0.159587 0.358832
-1.773234 0.16252901 0.357537
-1.769842 0.16144601 0.359164
-1.753314 0.169236 0.35862601
-1.73849 0.173115 0.35581201
-1.765422 0.177853 0.357409
-1.760184 0.179947 0.35701099
-1.762328 0.18015 0.35696501
-1.76173 0.18555 0.35716
-1.739666 0.188143 0.358428
-1.732679 0.193141 0.355212
-1.72839 0.193918 0.358376
-1.74805 0.195971 0.35832
-1.743089 0.198649 0.35918301
-1.747123 0.20018899 0.35797399
-1.741907 0.202306 0.35716099
-1.734804 0.20484 0.35744801
-1.7509151 0.20859601 0.35646001
-1.74266 0.206926 0.35642499
-1.706023 0.20869701 0.35635799
-1.742452 0.217842 0.35664901
-1.731321 0.223739 0.357999
-1.728845 0.224821 0.357833
-1.723629 0.224666 0.35731
-1.731814 0.22965901 0.356677
-1.764169 0.23098101 0.35957399
-1.693197 0.23001499 0.355993
-2.0029161 -0.106527 0.36013201
-1.99953 -0.097260997 0.36311999
-2.016479 -0.087952003 0.363451
-1.982209 -0.086016998 0.364678
-2.006078 -0.077306002 0.361606
-1.9962311 -0.068773001 0.3638685
-1.987656 -0.054772999 0.36203301
-2.006218 -0.045035001 0.360167
-1.977116 -0.045961 0.36411899
-2.019475 -0.044160999 0.36263201
-2.0716851 -0.035613999 0.36181501
-1.9692349 -0.032239001 0.362459
-2.0293319 -0.022523001 0.364813
-1.994596 -0.024358001 0.361415
-1.988247 -0.016785 0.361321
-2.042717 -0.011395 0.36123899
-2.028439 -0.0073119998 0.36488199
-2.0152841 -0.0081759999 0.36355099
-1.976028 -0.001642 0.36156699
-2.0288219 0.001395 0.363437
-1.996184 0.001681 0.36118099
-1.992408 0.0046669999 0.36425701
-1.98115 0.0067670001 0.363213
-2.0255749 0.013918 0.36179399
-1.998145 0.016859001 0.36166
-1.991959 0.0191245 0.36250699
-1.976805 0.020315001 0.363415
-1.998973 0.025025999 0.360535
-1.989548 0.026718 0.36005399
-1.950742 0.032492001 0.36138201
-1.971617 0.039788999 0.36053899
-1.979597 0.043256 0.36361399
-1.974184 0.042750001 0.364849
-1.947886 0.043129999 0.36181
-2.0218301 0.051568002 0.36477199
-2.0034881 0.051173002 0.363727
-2.00085 0.056875002 0.363778
-1.972034 0.064992003 0.361312
-1.952216 0.061181001 0.36075899
-1.99862 0.066457003 0.360955
-2.000474 0.073123999 0.36055699
-1.987726 0.072405003 0.362674
-1.976087 0.071032003 0.362571
-1.911395 0.071133003 0.362813
-1.98043 0.084969997 0.36382601
-1.9673165 0.0837515 0.36208498
-1.936231 0.082413003 0.361307
-1.958081 0.086116999 0.36103499
-1.9529589 0.087591998 0.361206
-1.984691 0.094737999 0.36037001
-1.953622 0.093240999 0.360576
-1.94776 0.104332 0.36415601
-1.938563 0.104481 0.36413699
-1.9167089 0.101186 0.36355799
-1.984449 0.107078 0.36348501
-1.960346 0.108452 0.36048701
-1.94683 0.109759 0.362129
-1.933884 0.110193 0.361099
-1.925145 0.121766 0.363922
-1.8943371 0.120567 0.36284301
-1.942219 0.125397 0.36109701
-1.820471 0.12849501 0.362634
-1.7916681 0.127158 0.36306801
-1.763218 0.12522 0.36308199
-1.792187 0.134386 0.36270401
-1.784534 0.13663299 0.36124301
-1.776669 0.13789199 0.36308399
-1.75814 0.138074 0.36242601
-1.803488 0.141083 0.36261001
-1.748934 0.143455 0.36289701
-1.788272 0.14841899 0.36313301
-1.7746561 0.14793999 0.361458
-1.769441 0.14561699 0.36030301
-1.7587409 0.14851901 0.36157101
-1.765433 0.154999 0.36344501
-1.7617019 0.162443 0.36155
-1.750057 0.164653 0.36100799
-1.756174 0.169838 0.36135501
-1.753561 0.169717 0.36170599
-1.769995 0.170775 0.36355701
-1.732905 0.17082299 0.362625
-1.722196 0.17501 0.36378399
-1.755934 0.181877 0.36199099
-1.754136 0.180498 0.360571
-1.706247 0.182097 0.36436999
-1.761771 0.18535601 0.36439401
-1.751719 0.193132 0.36398
-1.735037 0.198468 0.36360601
-1.717289 0.197336 0.36070299
-1.750121 0.201572 0.36241901
-1.7210211 0.203705 0.36422399
-1.754223 0.21843299 0.36365601
-1.72385 0.217149 0.36140099
-1.744259 0.221533 0.362836
-1.687379 0.22426 0.36215499
-1.97163 -0.12924699 0.36563399
-1.9873461 -0.124292 0.36774701
-1.997751 -0.099701002 0.36585101
-1.994125 -0.095159002 0.36775801
-2.009639 -0.092340998 0.366714
-2.0052061 -0.081908002 0.36743799
-1.9941339 -0.072554 0.36553001
-2.0106289 -0.051828001 0.36848199
-2.0060511 -0.050173 0.36863199
-1.9978451 -0.05469 0.36700699
-1.994701 -0.050262999 0.36629099
-1.975507 -0.050484002 0.365426
-2.0325029 -0.043242 0.36697501
-1.9911129 -0.030766999 0.36827499
-1.9794019 -0.032177001 0.367576
-2.031251 -0.028261 0.367935
-2.01807 -0.029208999 0.365753
-2.0008211 -0.028842 0.36755201
-1.991855 -0.029584 0.368377
-1.986832 -0.02863 0.36789101
-1.971585 -0.01159 0.368985
-1.990598 -0.0086629996 0.36970001
-1.97308 -0.00734 0.36827201
-1.967613 -0.0070859999 0.36715001
-1.960958 -0.0096650003 0.36814499
-2.000838 0.001026 0.366137
-2.0549641 0.0054270001 0.36642
-2.023433 0.0050320001 0.36534801
-2.002861 0.0098259998 0.36894199
-1.996765 0.007282 0.36930799
-1.952057 0.0075869998 0.36969501
-2.007494 0.013749 0.36826
-1.983104 0.014393 0.36980101
-2.0041499 0.02146 0.36945799
-2.0065391 0.029550999 0.36681399
-1.984144 0.032721002 0.369376
-1.963733 0.036106002 0.36905399
-1.957425 0.03895 0.36565
-2.010092 0.041705001 0.367854
-2.0014219 0.043807 0.365228
-1.965428 0.055615999 0.36980999
-1.944362 0.05782 0.36830801
-1.984457 0.063975997 0.36544901
-1.96022 0.061487 0.36669201
-1.981872 0.072320998 0.36954501
-2.010751 0.084080003 0.36619601
-1.977483 0.084435999 0.366229
-1.981174 0.088973999 0.365646
-1.972355 0.087871 0.36816299
-1.993382 0.093229003 0.36596701
-1.9783289 0.094424002 0.367309
-1.9245321 0.091456003 0.366247
-1.959509 0.099775001 0.36929101
-1.953486 0.110954 0.36831799
-1.9439991 0.114872 0.36507499
-1.9745359 0.116638 0.36652201
-1.920705 0.12375 0.36950001
-1.886878 0.1225445 0.36574051
-1.8745281 0.124909 0.368247
-1.811352 0.128438 0.36925599
-1.8070886 0.1301975 0.36833051
-1.831111 0.135396 0.368422
-1.801735 0.149901 0.36627099
-1.798244 0.14843 0.36932901
-1.7739775 0.14766 0.36848849
-1.74585 0.14617001 0.36947799
-1.7374279 0.148075 0.36677599
-1.793075 0.15079799 0.36940601
-1.760002 0.15097301 0.36646599
-1.813929 0.158456 0.36799601
-1.787609 0.156666 0.36790201
-1.779417 0.158547 0.36618
-1.762661 0.15735 0.36739299
-1.768229 0.16443799 0.36650401
-1.711553 0.160026 0.36653599
-1.768633 0.16632 0.36759999
-1.779946 0.170766 0.36989301
-1.768482 0.170035 0.36724201
-1.761309 0.18103901 0.366714
-1.7534854 0.18181801 0.36601901
-1.735531 0.182739 0.36892799
-1.742892 0.188696 0.36771601
-1.763144 0.19163699 0.36558899
-1.7320271 0.1925 0.36913499
-1.75652 0.195518 0.36970499
-1.757203 0.20113499 0.36929101
-1.7427225 0.2040315 0.36617601
-1.6983809 0.212863 0.36568901
-1.7457989 0.217834 0.36843899
-1.738243 0.217877 0.36985499
-1.6963871 0.21935099 0.36974901
-1.682234 0.21974701 0.36781499
-1.738133 0.22251099 0.36855599
-1.7232215 0.22342199 0.366873
-1.7106 0.22239099 0.367787
-1.71112 0.23758499 0.36618301
-1.998221 -0.116851 0.37210801
-1.974584 -0.11731 0.37349001
-2.0125549 -0.103495 0.37469301
-2.0038941 -0.104477 0.37095901
-1.9931099 -0.096014999 0.37277099
-2.0109529 -0.074724004 0.37085
-1.9937609 -0.070739001 0.37013799
-2.018091 -0.064429 0.37189701
-2.0023501 -0.061799001 0.37461701
-1.9925309 -0.052186999 0.37100101
-1.9989901 -0.046062998 0.3741
-2.0295949 -0.027222 0.37033501
-2.0026209 -0.022647999 0.37168601
-2.089088 -0.016410001 0.37175101
-2.0301809 -0.013134 0.371364
-2.010735 -0.0073870001 0.37046301
-1.990875 -0.0085389996 0.37431201
-2.0110519 -0.004189 0.37088099
-2.0404141 0.0090490002 0.37028399
-2.0130179 0.0096009998 0.37444499
-2.1356211 0.011614 0.371575
-2.0058119 0.01219 0.372951
-1.991197 0.01443 0.37446699
-1.989502 0.01406 0.37128699
-1.9925081 0.018843001 0.37142801
-2.0355451 0.02197 0.37055901
-2.0088041 0.023708999 0.37498599
-1.9653879 0.027278 0.373162
-1.986412 0.033581998 0.37317199
-2.0161259 0.038511999 0.37469801
-1.99418 0.037308 0.374129
-1.970579 0.036481 0.37118101
-1.973965 0.041875999 0.37197399
-2.018429 0.046271 0.37227401
-1.945714 0.046599001 0.37387699
-1.913002 0.045940999 0.37111601
-2.0159681 0.052012 0.37176299
-1.967011 0.054974001 0.373393
-1.98707 0.058393002 0.37426201
-1.9792809 0.058090001 0.37175801
-1.970253 0.057712 0.37018901
-2.0134289 0.061124999 0.37049201
-1.9260401 0.065920003 0.37459299
-1.9823689 0.077535003 0.373126
-1.959756 0.079976998 0.371005
-1.95073 0.076484002 0.37244001
-1.9956239 0.080606997 0.37114301
-1.967995 0.080992997 0.374156
-1.961627 0.099588998 0.37011799
-1.953254 0.09849 0.37472901
-1.9312069 0.095256001 0.37469101
-1.975355 0.102475 0.37376601
-1.961875 0.104823 0.370736
-1.949422 0.1037755 0.37423801
-1.959221 0.109975 0.373115
-1.8799061 0.113488 0.374587
-1.840181 0.114864 0.37219799
-1.971361 0.117636 0.37459099
-1.796923 0.118251 0.37269899
-1.8845561 0.1247 0.37441301
-1.834891 0.12265 0.37395599
-1.850298 0.12540901 0.37155801
-1.845156 0.128106 0.372208
-1.7706209 0.12683301 0.37196201
-1.798718 0.130832 0.37213501
-1.772485 0.132056 0.37467599
-1.847736 0.137881 0.374933
-1.814412 0.137006 0.37149599
-1.763731 0.13853 0.370657
-1.789225 0.141546 0.374006
-1.78387 0.14048 0.37190899
-1.779618 0.149198 0.37433699
-1.753674 0.152798 0.37489
-1.795342 0.158383 0.37076101
-1.764486 0.15951601 0.372614
-1.7707421 0.163444 0.37390301
-1.783476 0.165729 0.37446401
-1.7473069 0.165637 0.37189999
-1.7670915 0.17338601 0.37175852
-1.759433 0.17174301 0.37465301
-1.736835 0.170206 0.37215999
-1.776273 0.179759 0.37002599
-1.750602 0.179342 0.37482199
-1.749507 0.179676 0.372192
-1.778237 0.18730301 0.37285799
-1.75226 0.185342 0.37380001
-1.761647 0.193102 0.37045801
-1.757376 0.19280601 0.37015301
-1.749411 0.192605 0.37397099
-1.744868 0.19940799 0.37434301
-1.7360179 0.198714 0.37209001
-1.715871 0.19971099 0.370004
-1.744465 0.206159 0.37184
-1.733777 0.20724 0.37369701
-1.7237411 0.205011 0.37179801
-1.71312 0.20802701 0.37412101
-1.743348 0.215437 0.37102199
-1.738991 0.21969201 0.37390199
-1.702376 0.21926799 0.37002099
-1.785778 0.22771899 0.37129301
-1.758108 0.226074 0.37057301
-1.738843 0.22809801 0.37025899
-1.726534 0.23429701 0.371185
-2.0131831 -0.097294003 0.37528399
-1.992533 -0.099334002 0.37514001
-2.0249901 -0.086691998 0.37953201
-1.994092 -0.089666001 0.37889099
-1.995755 -0.082013004 0.37616801
-2.008817 -0.078997999 0.378176
-1.994228 -0.076393001 0.37549999
-2.011524 -0.074052997 0.37576199
-2.020293 -0.069099002 0.376854
-2.0124841 -0.061833002 0.37958899
-2.0054719 -0.055256002 0.37566701
-1.9921401 -0.055016998 0.37646699
-2.048558 -0.053702999 0.379271
-2.0183139 -0.054079 0.37876499
-1.991743 -0.053171001 0.37667799
-2.004427 -0.04597 0.377132
-2.0056491 -0.035941999 0.379967
-1.9901659 -0.035312001 0.37894699
-1.983929 -0.039266001 0.375043
-2.076823 -0.032511 0.37676001
-2.011867 -0.028213 0.378667
-2.0405619 -0.022090999 0.37885401
-2.000746 -0.018451 0.37834901
-2.0255499 -0.012152 0.378288
-2.069669 0.000132 0.37588999
-2.011662 0.002324 0.377121
-1.99608 0.01322 0.37963301
-2.1123719 0.018965 0.37673801
-1.977635 0.016756 0.376468
-2.021378 0.024682 0.37530401
-2.052537 0.025629001 0.37576801
-2.0042739 0.033009999 0.379071
-1.994279 0.032474 0.37502301
-1.971817 0.033064 0.376701
-2.0310869 0.047148 0.37974799
-1.978932 0.047270998 0.376674
-1.97554 0.055348001 0.37560099
-1.9726181 0.057117 0.37752849
-2.018132 0.062284999 0.378622
-1.999263 0.062011 0.37732899
-1.991068 0.063647002 0.37543401
-1.987123 0.061050002 0.378663
-2.02788 0.069078997 0.377583
-1.996991 0.067456998 0.37753001
-1.984028 0.083121002 0.376524
-1.939288 0.086203001 0.37811601
-1.974317 0.094443001 0.37882701
-1.9768701 0.097556502 0.378389
-1.962672 0.098076001 0.37688899
-1.973586 0.100178 0.37969899
-1.938062 0.101094 0.376757
-1.98964 0.109193 0.37948999
-1.919466 0.105669 0.37883699
-1.942824 0.114207 0.37641001
-1.911881 0.119036 0.37539601
-1.902092 0.116179 0.37592801
-1.821298 0.117627 0.37871799
-1.803674 0.12975501 0.37900501
-1.832965 0.131412 0.379473
-1.778527 0.133606 0.378418
-1.804154 0.13985001 0.37981799
-1.759461 0.13552199 0.37646899
-1.822546 0.141697 0.37713701
-1.802851 0.14144699 0.37561801
-1.788648 0.14444099 0.376046
-1.751732 0.14292499 0.37598801
-1.770254 0.14998101 0.37558201
-1.745335 0.15388501 0.376376
-1.798775 0.15952501 0.37938699
-1.760518 0.167564 0.37653899
-1.756367 0.16642299 0.379062
-1.775821 0.173885 0.37917399
-1.766764 0.17442 0.37808701
-1.707796 0.17032801 0.379922
-1.757394 0.183475 0.37705499
-1.775857 0.189722 0.37803501
-1.766297 0.186161 0.37646601
-1.746766 0.187664 0.37756699
-1.7523335 0.19247851 0.37756601
-1.757247 0.19786799 0.378252
-1.7478091 0.19532099 0.37830299
-1.748021 0.208517 0.37688899
-1.760277 0.21192899 0.378878
-1.747824 0.210989 0.375687
-1.717373 0.214277 0.37788701
-1.737252 0.218536 0.37750599
-1.7256171 0.21756101 0.37571701
-1.729744 0.230874 0.37731299
-1.956804 -0.12382 0.38148701
-2.008739 -0.101948 0.380303
-2.000196 -0.089092001 0.38386801
-2.0072601 -0.059029002 0.383645
-2.031801 -0.053491 0.382458
-2.013175 -0.051863998 0.38499099
-2.0299039 -0.038384002 0.38418999
-2.017343 -0.039565999 0.38126701
-2.0066531 -0.036079001 0.38112301
-1.99404 -0.039321002 0.38015801
-1.988838 -0.036493 0.38379499
-2.0287471 -0.03294 0.38036099
-2.0014889 -0.034465998 0.380858
-2.0271111 -0.017641 0.381262
-1.986122 -0.016765 0.38067701
-1.975597 -0.016807999 0.38072699
-2.025913 -0.011515 0.383641
-2.0249691 -0.010091 0.38328299
-2.0172479 -0.013203 0.38361701
-2.0052791 -0.014822 0.38223499
-1.987879 -0.013835 0.38101801
-1.98227 -0.012922 0.380117
-2.0265579 -0.002634 0.38493401
-2.0177901 0.002687 0.38172799
-2.006954 0.0029829999 0.383939
-1.966594 0.002413 0.38138801
-1.997877 0.0085100001 0.38286999
-2.007369 0.011518 0.38418701
-2.0502501 0.016674999 0.38002899
-2.0036869 0.024188999 0.38182601
-1.980033 0.022065001 0.38494101
-1.999073 0.025582001 0.382162
-1.985495 0.029935 0.38402799
-2.0308311 0.033217002 0.384168
-1.9887249 0.033668999 0.383405
-1.978505 0.030223999 0.38212401
-2.03337 0.041368999 0.380822
-2.0209949 0.040355999 0.38074699
-1.9803571 0.048475999 0.38259599
-1.994171 0.052161001 0.384931
-1.9847615 0.052560002 0.38092798
-2.0282371 0.055792999 0.38002801
-2.00631 0.057780001 0.380959
-2.0086811 0.072452001 0.38419601
-1.974646 0.074047998 0.384179
-1.965229 0.070555001 0.383573
-1.955428 0.073769003 0.38028699
-1.9992321 0.078061 0.384498
-1.980096 0.077751003 0.38238299
-1.9874409 0.080862999 0.38111299
-1.978014 0.082902998 0.38329601
-1.972716 0.087182999 0.380963
-2.022332 0.093110003 0.384229
-1.992015 0.090862997 0.38475299
-1.9651279 0.098897003 0.38240001
-1.996277 0.100433 0.38234499
-1.968573 0.103946 0.38126799
-1.923746 0.109977 0.38178301
-1.9268219 0.114134 0.383944
-1.889779 0.112534 0.383549
-1.856456 0.112124 0.38046801
-1.840959 0.114903 0.380413
-1.81172 0.113326 0.38045999
-1.935595 0.117821 0.38267401
-1.889339 0.117827 0.38093099
-1.875232 0.119629 0.38038999
-1.808558 0.119183 0.38473099
-1.859885 0.121264 0.38485199
-1.8799421 0.12744699 0.38391599
-1.7753561 0.125521 0.38178501
-1.774179 0.130788 0.384242
-1.7983 0.135344 0.383515
-1.812768 0.141343 0.38181299
-1.807689 0.14400899 0.38194999
-1.8140579 0.14693899 0.38445899
-1.760132 0.14895999 0.384137
-1.809885 0.152592 0.38362801
-1.778916 0.15437999 0.38422
-1.76929 0.15266401 0.38219401
-1.771261 0.156166 0.381138
-1.79447 0.163679 0.382377
-1.761709 0.16045099 0.38117501
-1.809733 0.16922 0.38150501
-1.790815 0.173968 0.382893
-1.7644221 0.174878 0.38007
-1.75757 0.17230451 0.38349152
-1.765673 0.175944 0.380716
-1.776171 0.186014 0.38294101
-1.771399 0.187846 0.38168699
-1.7688709 0.187988 0.38011599
-1.763786 0.18674199 0.38433599
-1.771745 0.195344 0.38215801
-1.738243 0.199789 0.38113701
-1.727859 0.203191 0.38255301
-1.757872 0.20835 0.383506
-1.752425 0.20546199 0.383342
-1.752857 0.211089 0.38240001
-1.740633 0.212731 0.38364801
-1.772735 0.21886399 0.383131
-1.7609479 0.217436 0.38155499
-1.7526751 0.21672 0.381423
-1.7302099 0.223673 0.383984
-1.7410409 0.230028 0.381935
-1.9873796 -0.081199497 0.3869735
-2.0064697 -0.060267001 0.38865501
-1.989728 -0.061556 0.38805899
-1.998623 -0.046292 0.38762701
-2.0403659 -0.016918 0.38611299
-1.997897 -0.010541 0.38508499
-2.084373 -0.005163 0.38536
-2.0390091 -0.001457 0.38673201
-2.005589 0.0085439999 0.38551801
-1.9871531 0.00728 0.38720801
-2.064955 0.01138 0.38949901
-2.013696 0.030274 0.38568401
-2.048311 0.036467001 0.38936999
-1.999765 0.049033001 0.38775501
-1.990413 0.04809 0.388385
-1.989388 0.049591001 0.38772401
-1.981806 0.048767 0.386026
-2.043045 0.050461002 0.38956499
-2.002106 0.051794 0.38721299
-2.045608 0.058316 0.38637799
-2.014204 0.057108998 0.385876
-1.973866 0.061484002 0.389263
-1.940686 0.060706001 0.386372
-1.995965 0.06983 0.38623801
-2.010046 0.074437 0.387804
-1.997419 0.070338003 0.386015
-1.983031 0.074394003 0.387106
-1.971674 0.070963003 0.38896301
-1.962406 0.070159003 0.38624701
-1.9873559 0.079480998 0.38884801
-1.989125 0.089111 0.38836399
-1.945706 0.089327 0.38582301
-1.9780675 0.092619002 0.388037
-1.963955 0.096995004 0.38699999
-1.959036 0.098348998 0.38906199
-1.989665 0.100182 0.38919401
-1.926183 0.108099 0.38807401
-1.894298 0.107602 0.385638
-1.8558559 0.109945 0.388226
-1.836113 0.112861 0.38654301
-1.793324 0.128681 0.386179
-1.786831 0.126037 0.386926
-1.8623919 0.132045 0.38789999
-1.8174289 0.13447601 0.38810399
-1.8372279 0.135253 0.38978299
-1.766035 0.13777401 0.38519999
-1.793803 0.143397 0.38522899
-1.775354 0.14484701 0.38813901
-1.76802 0.14678 0.38714001
-1.843173 0.153589 0.38715899
-1.78511 0.154495 0.389388
-1.818601 0.157323 0.38967901
-1.799153 0.15683199 0.38852701
-1.785311 0.15705 0.38645101
-1.76606 0.15717199 0.38559899
-1.774702 0.161763 0.387431
-1.766701 0.16126651 0.389301
-1.770505 0.166235 0.38987201
-1.780744 0.172547 0.38660899
-1.780876 0.179189 0.388951
-1.779914 0.17585 0.387894
-1.7718951 0.178253 0.38639501
-1.7668279 0.178948 0.386347
-1.766013 0.188731 0.387822
-1.747642 0.18896601 0.38793799
-1.717281 0.187701 0.38567099
-1.771317 0.19418401 0.38848901
-1.7460325 0.192349 0.3863205
-1.7746511 0.19749101 0.38637799
-1.781347 0.201461 0.38947099
-1.778456 0.204454 0.385629
-1.762599 0.201546 0.38937399
-1.751368 0.200592 0.38836101
-1.748346 0.200846 0.386244
-1.774756 0.20602299 0.38931799
-1.732371 0.20928501 0.38575301
-1.7727751 0.224433 0.38619301
-1.733186 0.223961 0.38556001
-2.0048721 -0.063372001 0.39071801
-2.0086789 -0.046464 0.39274099
-2.004734 -0.041423 0.391386
-2.0313711 -0.034373 0.392416
-1.999736 -0.033948999 0.39043599
-2.0155571 -0.025533 0.39103299
-2.072655 -0.021818999 0.39017799
-2.055181 -0.021684 0.393938
-2.019959 -0.020981001 0.39477101
-2.0016675 -0.021134499 0.393067
-1.990236 -0.023952 0.39331001
-2.0522389 -0.00064400001 0.391893
-2.021769 -0.0017819999 0.39176399
-1.981131 -0.0027620001 0.39308
-2.0831139 0.00050600001 0.392028
-2.0007091 0.000245 0.39499
-1.9839031 0.001914 0.39366001
-2.091517 0.0051509999 0.391947
-2.0510571 0.014944 0.39228201
-2.038799 0.013726 0.39071801
-2.008039 0.012824 0.390692
-2.014003 0.018441999 0.39494801
-2.045536 0.027922999 0.39363801
-2.0187731 0.027081 0.39020401
-2.0041151 0.028844999 0.390542
-1.991322 0.025413999 0.39313
-2.032079 0.045869999 0.39499399
-1.9992501 0.045853 0.39245501
-2.0213959 0.050772 0.39390901
-2.0173221 0.050999001 0.394503
-2.0272281 0.057730999 0.3935
-1.979727 0.064625002 0.394705
-2.023489 0.067120001 0.39373299
-2.0110581 0.065495998 0.393507
-1.970011 0.067821003 0.390802
-2.0263081 0.074165002 0.39146701
-2.0144351 0.073000997 0.392472
-2.002528 0.073854998 0.39406401
-1.995037 0.072848998 0.39093101
-2.0239949 0.079733998 0.39142799
-1.993132 0.078039996 0.39128101
-1.950635 0.086052001 0.39388099
-1.98858 0.092860997 0.39258701
-1.999801 0.096803002 0.39032
-1.983659 0.096937999 0.394218
-1.943513 0.103209 0.39146999
-1.899896 0.103717 0.394916
-1.973212 0.105481 0.391045
-1.969569 0.10577 0.39253199
-1.941763 0.109231 0.392492
-1.8509279 0.108095 0.39436799
-1.9400589 0.113794 0.39482799
-1.9099571 0.111874 0.394667
-1.90415 0.110744 0.39361501
-1.823357 0.114934 0.39185801
-1.851768 0.117277 0.39139801
-1.82855 0.117676 0.39161801
-1.79661 0.118668 0.391487
-1.789528 0.11974 0.39200401
-1.826548 0.121748 0.390567
-1.808121 0.123756 0.39394
-1.8191299 0.126554 0.38999999
-1.788896 0.126054 0.39201501
-1.851254 0.133976 0.39104301
-1.827292 0.13425601 0.39429599
-1.7902451 0.133421 0.39085901
-1.780339 0.132624 0.39441201
-1.8223031 0.13722099 0.39449501
-1.770699 0.137456 0.394995
-1.80844 0.14424001 0.391101
-1.774929 0.144035 0.39189801
-1.800694 0.1484345 0.39153302
-1.7841049 0.147898 0.390019
-1.808993 0.156591 0.39486101
-1.7708679 0.159687 0.391509
-1.7958159 0.16914999 0.39250299
-1.790333 0.166731 0.39163399
-1.781219 0.168356 0.39043099
-1.776244 0.177993 0.39443099
-1.785952 0.18111999 0.392095
-1.778161 0.180879 0.394701
-1.772225 0.18922301 0.39216799
-1.7618643 0.18671466 0.39270499
-1.7946171 0.190262 0.393776
-1.752744 0.19456699 0.39047599
-1.766713 0.199619 0.39431301
-1.7425981 0.198355 0.39098501
-1.77166 0.200486 0.391545
-1.767471 0.2043 0.39494401
-1.776548 0.206503 0.39367101
-1.755649 0.2079 0.391579
-1.727809 0.20900799 0.39309201
-1.767218 0.21093 0.39428899
-1.783296 0.215271 0.39209601
-1.755519 0.224123 0.39237499
-1.98929 -0.087403998 0.397035
-1.996498 -0.073706001 0.396777
-2.028069 -0.043258 0.39575601
-2.0035679 -0.043334998 0.39643899
-2.00826 -0.039299 0.398085
-2.0257909 -0.027836001 0.39742801
-2.0548029 -0.021616001 0.39799699
-1.985146 -0.020799 0.39658999
-2.0442729 -0.016689001 0.39745599
-2.0122719 -0.016403999 0.39545
-2.0143521 -0.0024689999 0.39600599
-2.0070181 -0.0031570001 0.39691201
-2.0222299 0.0041919998 0.396947
-2.0126491 0.002628 0.39594001
-2.0020001 0.00038300001 0.39995301
-1.993173 0.001566 0.398485
-2.079659 0.006085 0.39896899
-2.0031719 0.013354 0.397414
-2.0954189 0.017113 0.397937
-1.988428 0.019533999 0.39748499
-2.000412 0.023388 0.39687601
-1.981459 0.021470999 0.39520901
-2.020154 0.029289 0.396514
-2.0036869 0.027225001 0.39749399
-2.063252 0.031564001 0.397917
-2.0304 0.036019001 0.395551
-1.975005 0.036171999 0.39743599
-1.995286 0.041336998 0.395381
-2.057853 0.045129001 0.399102
-2.0090611 0.046232 0.398105
-1.985144 0.050257999 0.39804
-2.0124691 0.063141003 0.398904
-1.977201 0.063951999 0.39888
-2.003933 0.083779 0.397901
-1.960204 0.083397001 0.396956
-1.9955339 0.088776998 0.398348
-1.993601 0.086221002 0.39934099
-1.97587 0.088588998 0.39598501
-1.970011 0.090005003 0.39660001
-2.0048881 0.095285997 0.39723399
-1.988405 0.101118 0.39836201
-1.870752 0.104987 0.39603901
-1.9747339 0.109301 0.39977899
-1.9025204 0.1064445 0.39609301
-1.879575 0.111122 0.396723
-1.874615 0.114421 0.39749601
-1.8666641 0.113 0.398572
-1.894685 0.120179 0.396575
-1.832953 0.120148 0.39575601
-1.8036129 0.121319 0.39978799
-1.805043 0.129172 0.39798599
-1.861132 0.133634 0.39729199
-1.81273 0.130207 0.39512199
-1.807987 0.137596 0.39612001
-1.789726 0.139111 0.39965799
-1.79892 0.143133 0.39784399
-1.793346 0.149243 0.39582601
-1.761449 0.148715 0.39843801
-1.800005 0.150217 0.39656201
-1.80989 0.15763 0.39787701
-1.788887 0.15596201 0.39832199
-1.7815599 0.156112 0.399984
-1.785401 0.161277 0.39768499
-1.7655081 0.16303401 0.39567
-1.838611 0.169296 0.39938501
-1.810887 0.16575301 0.398397
-1.8053581 0.16817699 0.39575899
-1.794252 0.16528299 0.395825
-1.773962 0.16827901 0.39653099
-1.781397 0.172554 0.398895
-1.790695 0.178927 0.39542499
-1.7777849 0.182172 0.39972499
-1.786288 0.18955299 0.395024
-1.767246 0.189346 0.39981601
-1.789234 0.20011801 0.39975801
-1.772396 0.201263 0.39599001
-1.729612 0.201988 0.39515999
-1.771066 0.20767801 0.39989799
-1.80821 0.212505 0.39717999
-1.7338639 0.21319699 0.39660501
-2.004184 -0.067621 0.40040201
-1.980752 -0.066257 0.40022001
-2.0193 -0.047534 0.403824
-2.001272 -0.047000501 0.401822
-1.9983701 -0.034671001 0.402271
-2.0151949 -0.027114 0.404062
-2.021203 -0.021400001 0.40282699
-2.0376101 -0.011826 0.40296501
-2.0256701 -0.013274 0.400473
-2.0118001 -0.0099029997 0.40414801
-2.0250371 0.00141 0.40051299
-2.065896 0.010076 0.40077201
-2.060245 0.016371001 0.40372699
-2.0240259 0.017959001 0.40059099
-2.0058 0.019509001 0.40356901
-2.092217 0.023136999 0.40447101
-2.0763841 0.024075 0.403761
-2.06024 0.022628 0.403108
-2.0190799 0.021893 0.40338901
-2.0052869 0.040832002 0.401169
-2.044086 0.047304999 0.40297201
-2.0324221 0.045974001 0.40242201
-2.0210309 0.048877001 0.40116099
-2.0171421 0.045194998 0.40016299
-2.0382969 0.061788 0.40327001
-1.9865479 0.063704997 0.40174699
-1.9845949 0.061873 0.40131801
-2.041353 0.069228999 0.40007401
-1.998067 0.067795999 0.40005699
-2.002337 0.072095998 0.401712
-1.9687999 0.075698003 0.401853
-1.990811 0.083687 0.404533
-1.9652179 0.080104001 0.40439701
-1.992496 0.085564002 0.40235499
-1.983644 0.095316 0.402262
-1.984378 0.100438 0.402069
-1.91558 0.101523 0.40396699
-1.865744 0.10333 0.40219301
-1.870538 0.10674 0.40253299
-1.872853 0.113645 0.40216801
-1.842952 0.11249 0.400893
-1.833759 0.114607 0.40424901
-1.810692 0.112908 0.40230101
-1.803699 0.11396 0.40222201
-1.847592 0.115345 0.404131
-1.8229181 0.118831 0.40169999
-1.8329589 0.12186 0.40118051
-1.877049 0.12620901 0.40086699
-1.865947 0.126949 0.40362701
-1.8519109 0.12880901 0.40242901
-1.794642 0.127474 0.403624
-1.822952 0.137086 0.403561
-1.814173 0.135571 0.40070799
-1.81463 0.14139 0.40255901
-1.85783 0.147753 0.40012601
-1.847526 0.149483 0.40405399
-1.813731 0.14986099 0.40101299
-1.833284 0.150879 0.402325
-1.785368 0.152951 0.403956
-1.804844 0.159578 0.40409401
-1.809167 0.160485 0.403703
-1.795675 0.16229101 0.40277401
-1.781571 0.16454899 0.402731
-1.771493 0.166282 0.403779
-1.814657 0.172948 0.40222099
-1.795455 0.17221799 0.401436
-1.790982 0.17315701 0.402863
-1.7670574 0.175936 0.40377349
-1.786737 0.182069 0.40462801
-1.77553 0.180521 0.40151399
-1.776352 0.18597101 0.401324
-1.777178 0.194574 0.40186
-1.744683 0.19859099 0.40105399
-1.733466 0.19715001 0.40138599
-1.757764 0.20409299 0.40320599
-1.748095 0.20566 0.40389699
-1.698604 0.219148 0.401225
-1.9928 -0.058320999 0.409686
-2.0048749 -0.031095 0.40589201
-2.0174761 -0.026825 0.40651
-1.999876 -0.027641 0.40923399
-2.019803 -0.024188999 0.405981
-2.0115831 -0.024595 0.40605199
-2.0342519 -0.0055789999 0.40982899
-2.0289979 -0.0076819998 0.407785
-2.015389 -0.0059130001 0.407525
-2.0742199 -0.0024029999 0.40654999
-2.037091 -0.0031340001 0.40970701
-2.027422 -0.0032540001 0.40900999
-1.998702 -0.0045810002 0.40640599
-2.037832 0.002908 0.40631801
-2.0484321 0.0097960001 0.40545899
-2.017987 0.0085880002 0.40523899
-1.97614 0.011241 0.40548199
-2.070569 0.019431001 0.407796
-2.0153279 0.016842 0.40972301
-2.0149939 0.015407 0.40985399
-2.0080509 0.01846 0.408263
-1.996139 0.015312 0.40774399
-2.0781929 0.026662 0.40646499
-2.010216 0.034198001 0.408167
-1.986563 0.037609 0.40662599
-1.976889 0.036538001 0.40796301
-2.090322 0.043972 0.40705699
-2.026567 0.046530001 0.40920901
-1.9699759 0.050280001 0.40993199
-1.994226 0.058696002 0.40583801
-2.0136499 0.061643001 0.40825799
-2.0233691 0.068313003 0.407251
-2.0176139 0.066845998 0.40701401
-2.0187421 0.078446999 0.40743801
-2.007472 0.075684004 0.40702701
-1.974703 0.077468 0.40808901
-2.0107369 0.083717003 0.406322
-1.997324 0.080514997 0.40650699
-1.984901 0.084076002 0.40977401
-2.022053 0.085078001 0.405164
-2.0035729 0.085545003 0.40547499
-1.998746 0.089929 0.40716901
-1.898029 0.087949 0.40832201
-2.0035989 0.096754998 0.40568
-1.971645 0.099427 0.409587
-1.9410371 0.097978003 0.40889201
-1.9230829 0.095830999 0.40774
-1.9143749 0.097811997 0.40535501
-1.9190505 0.1019385 0.4074595
-1.894214 0.103979 0.40930599
-1.930566 0.105315 0.40527701
-1.846544 0.106035 0.406023
-1.909427 0.112911 0.40923399
-1.837715 0.113907 0.40946099
-1.864206 0.115245 0.40632701
-1.847147 0.118466 0.40784299
-1.819841 0.124922 0.40511301
-1.875771 0.126491 0.40987501
-1.82716 0.125071 0.406728
-1.836917 0.13043199 0.40703899
-1.828812 0.130767 0.40908301
-1.822172 0.131795 0.40701199
-1.814796 0.132449 0.407262
-1.804522 0.134186 0.407419
-1.784871 0.131676 0.40521401
-1.85674 0.136435 0.40663499
-1.813735 0.138367 0.405669
-1.88064 0.14266799 0.409058
-1.847387 0.14202601 0.40577999
-1.807776 0.144107 0.407433
-1.804914 0.144894 0.40900001
-1.775753 0.143565 0.40764999
-1.823517 0.14950401 0.407345
-1.867281 0.151127 0.40567201
-1.824628 0.152794 0.40630901
-1.81864 0.15279099 0.40718901
-1.803072 0.150161 0.40921399
-1.800298 0.15631901 0.405498
-1.86139 0.163894 0.40927699
-1.828285 0.16308901 0.40599799
-1.796466 0.160272 0.409904
-1.7883919 0.16314299 0.40813801
-1.8052191 0.17184 0.40790901
-1.792856 0.178774 0.405619
-1.809184 0.18415099 0.40621501
-1.800831 0.183763 0.40789101
-1.791345 0.181665 0.408546
-1.781747 0.18412399 0.40915501
-1.769008 0.182179 0.408842
-1.84214 0.18512 0.40949601
-1.7720751 0.188684 0.40784901
-1.811792 0.19488899 0.40786099
-1.78692 0.194175 0.408474
-1.781 0.193776 0.40528399
-1.7820849 0.197511 0.407489
-1.786159 0.203344 0.40716699
-1.76863 0.204561 0.40516099
-1.7817611 0.205139 0.40715599
-1.708181 0.20980901 0.40856099
-1.9823231 -0.050000999 0.41175199
-1.9762599 -0.050792001 0.412258
-2.0168459 -0.0065139998 0.41269699
-1.984244 -0.0083689997 0.41338101
-2.0652549 0.009784 0.41091901
-2.0660701 0.014624 0.41442099
-2.020278 0.013604 0.414009
-2.01893 0.019132499 0.41116452
-2.0282471 0.033994 0.41472
-2.02016 0.033574 0.41395399
-2.0113959 0.036353 0.411293
-2.059027 0.042401999 0.41151899
-2.0360119 0.041492 0.414024
-2.027519 0.055943999 0.41179299
-2.001421 0.056446999 0.41453201
-1.9991781 0.055925 0.411834
-1.991996 0.057744998 0.41151401
-2.017318 0.064710997 0.41457501
-2.0131021 0.061197001 0.41300699
-2.004426 0.06219 0.41052601
-2.0259409 0.078657001 0.414296
-2.0080009 0.078371502 0.41148752
-2.0370979 0.080141999 0.41376999
-2.004391 0.083759002 0.413017
-1.994027 0.083797 0.4129
-1.930629 0.088921003 0.41136199
-1.999186 0.095105998 0.41160601
-1.930577 0.096531004 0.41183299
-1.989784 0.102104 0.41266799
-1.970296 0.104068 0.410799
-1.953195 0.100529 0.411955
-1.939989 0.102213 0.41052899
-1.928822 0.1031 0.412462
-1.896454 0.104445 0.41292
-1.867752 0.102185 0.413239
-1.917652 0.109508 0.412927
-1.8883491 0.108001 0.41082352
-1.824775 0.107149 0.41311499
-1.948441 0.110636 0.414332
-1.89192 0.112068 0.413201
-1.862232 0.110542 0.41250601
-1.8480411 0.114425 0.41468701
-1.891706 0.120373 0.41383401
-1.834639 0.120673 0.41224
-1.808946 0.122323 0.41283599
-1.870922 0.130115 0.41029099
-1.82855 0.13360199 0.41349399
-1.801527 0.13916101 0.41124201
-1.872486 0.14191701 0.413093
-1.857327 0.149003 0.41044399
-1.852501 0.152652 0.41044101
-1.826009 0.15118399 0.41239601
-1.795833 0.15029 0.41027501
-1.824082 0.155687 0.41158
-1.8949929 0.16470499 0.412617
-1.853267 0.16346 0.412352
-1.785895 0.16109601 0.41305399
-1.829339 0.166504 0.41486701
-1.810033 0.16524599 0.413921
-1.805721 0.168321 0.411295
-1.783972 0.16852701 0.41141599
-1.77687 0.16813201 0.413288
-1.8110059 0.173756 0.41141999
-1.7817791 0.171777 0.411255
-1.834079 0.175188 0.41059199
-1.807927 0.175377 0.411513
-1.80039 0.183835 0.41187301
-1.834048 0.185003 0.411612
-1.791757 0.187603 0.414345
-1.777483 0.188059 0.41134
-1.74313 0.18854 0.41479599
-1.801252 0.19901 0.41443601
-1.780862 0.203012 0.41258299
-1.856192 0.207489 0.413059
-2.00107 -0.015726 0.41904399
-2.016252 -0.0087440005 0.41601601
-2.0080431 0.0057270001 0.41726199
-1.990676 0.0060660001 0.41717401
-2.034209 0.013408 0.41988799
-2.0142059 0.018958 0.418715
-1.971149 0.025242999 0.41788399
-2.061291 0.033923 0.41742501
-2.0559371 0.032994002 0.41695699
-2.0315039 0.034869 0.418042
-2.0010419 0.031702999 0.41706601
-2.0153289 0.037838999 0.41638899
-2.008724 0.052765999 0.416971
-2.060045 0.057821002 0.416394
-2.03986 0.058141999 0.416574
-2.032701 0.059838001 0.419965
-2.0287499 0.056616999 0.41617799
-2.03355 0.073114999 0.41697499
-2.0120151 0.074523002 0.41710001
-2.0185671 0.078227997 0.41836199
-1.998625 0.087931 0.415126
-1.937475 0.089945003 0.418791
-1.986586 0.094525002 0.41813499
-1.976106 0.092979997 0.41993001
-1.945575 0.091540001 0.41969901
-1.928853 0.091906004 0.415795
-2.049319 0.097428001 0.41965601
-1.945339 0.099432997 0.41834599
-1.970114 0.104728 0.41952801
-1.963943 0.102194 0.41568801
-1.919628 0.100144 0.41862801
-1.885221 0.100296 0.41517901
-1.860973 0.100898 0.417629
-1.999989 0.107011 0.41928899
-1.878581 0.109382 0.41669199
-1.8554569 0.107628 0.41570199
-1.852512 0.108982 0.41722199
-1.881055 0.114853 0.41800201
-1.880641 0.119923 0.41621101
-1.849438 0.116423 0.41936699
-1.841589 0.119934 0.41833401
-1.866593 0.122365 0.415075
-1.9029649 0.129243 0.41893199
-1.8721895 0.1284095 0.4186905
-1.859482 0.127352 0.419727
-1.843452 0.125964 0.417458
-1.8290679 0.126627 0.41755301
-1.819319 0.129261 0.41518
-1.816326 0.134911 0.418369
-1.8222049 0.13897 0.41903901
-1.819315 0.139708 0.418275
-1.882079 0.144632 0.41841799
-1.86222 0.142456 0.41663799
-1.853116 0.151894 0.419732
-1.819356 0.15242399 0.416554
-1.802822 0.158006 0.41974401
-1.843799 0.16498999 0.41706499
-1.82046 0.16348501 0.419727
-1.863305 0.166877 0.41831401
-1.80691 0.169153 0.41543099
-1.781733 0.168401 0.41655201
-1.7765419 0.168639 0.41697001
-1.8345619 0.17323799 0.41757599
-1.801249 0.174916 0.417088
-1.806339 0.177359 0.41576701
-1.826184 0.189004 0.41891199
-1.788854 0.18776101 0.41859999
-1.7632591 0.187235 0.41701201
-1.771724 0.190961 0.41508001
-1.804649 0.199102 0.41887099
-2.029386 0.0095210001 0.42090499
-2.010819 0.0091540003 0.420279
-2.0302441 0.010295 0.422571
-2.0228231 0.012577 0.42133299
-2.0251451 0.027059 0.42095301
-2.0113201 0.032715999 0.422465
-2.0034521 0.034290999 0.42058599
-2.025903 0.035473999 0.424714
-2.0462229 0.050168 0.424591
-2.0361071 0.050418001 0.420856
-2.0067911 0.051538002 0.42414701
-2.0227351 0.057039998 0.42286801
-2.019316 0.056260001 0.4237
-2.086216 0.060235001 0.42010999
-1.9649481 0.064387001 0.422427
-2.0411439 0.073596999 0.42227
-2.021956 0.071745999 0.42196
-1.98739 0.072930001 0.42436799
-2.01951 0.078896001 0.421002
-1.999791 0.078147002 0.42294699
-2.013833 0.082920998 0.42011899
-1.945274 0.083708003 0.42314199
-2.013994 0.089773998 0.421143
-2.003886 0.085872002 0.42054701
-2.0022881 0.090657003 0.424227
-1.992496 0.092886999 0.420201
-1.9688345 0.092316501 0.42303002
-1.954549 0.099978998 0.42214799
-1.9113491 0.100167 0.420093
-1.904074 0.100736 0.42278299
-1.867308 0.104057 0.42498299
-1.963145 0.105341 0.42380199
-1.9368401 0.108742 0.42240199
-1.92417 0.105644 0.42189199
-1.906659 0.107232 0.42163301
-1.8767771 0.108934 0.423493
-1.847765 0.107117 0.42310801
-1.967419 0.110265 0.42318901
-1.8904099 0.119348 0.42245701
-1.882705 0.119516 0.42492801
-1.852736 0.118321 0.42349699
-1.8232501 0.117173 0.422048
-1.8856519 0.123273 0.422934
-1.834116 0.124337 0.422941
-1.843365 0.12883601 0.42131901
-1.8953201 0.136509 0.42159301
-1.883929 0.144876 0.42395201
-1.871966 0.14185999 0.423026
-1.8541059 0.143122 0.42317301
-1.824672 0.141386 0.42241001
-1.817257 0.14436001 0.42010599
-1.8009239 0.14461599 0.420899
-1.8672301 0.14580899 0.423085
-1.798012 0.149149 0.42449701
-1.887378 0.151344 0.42297599
-1.826257 0.15171701 0.424252
-1.834455 0.159483 0.42285499
-1.8299021 0.15736599 0.42375201
-1.8002959 0.15591 0.42232901
-1.853523 0.164372 0.42359501
-1.819743 0.164753 0.42039299
-1.798156 0.162726 0.422308
-1.791357 0.163873 0.424795
-1.8488081 0.168346 0.42323601
-1.8213331 0.17305399 0.422988
-1.85682 0.17896099 0.42203099
-1.8487051 0.179167 0.42457899
-1.814927 0.178661 0.423565
-1.801553 0.179012 0.42471299
-1.772473 0.177035 0.42394
-1.792051 0.181665 0.423888
-1.778156 0.18227699 0.42482501
-1.7624381 0.184857 0.42023799
-1.8181911 0.188308 0.420638
-1.803206 0.18604499 0.422793
-1.796699 0.190722 0.42003301
-1.7958515 0.19859299 0.42214853
-1.829486 0.200711 0.42383799
-1.722535 0.20294499 0.420854
-2.0247409 -0.018285999 0.42815599
-2.005213 0.00089099997 0.428866
-2.013124 0.0093050003 0.425594
-1.985685 0.020068999 0.42957699
-2.07023 0.028581001 0.42618701
-2.061429 0.029929001 0.42737699
-2.0465021 0.029877 0.425908
-2.0155201 0.025798 0.427506
-2.057502 0.031603999 0.42778999
-2.0302939 0.030887 0.42923501
-2.0232229 0.046836998 0.42810401
-2.0281379 0.054598 0.42595699
-2.0323 0.057326 0.42743799
-2.0595319 0.068870999 0.42997599
-2.0346279 0.074033 0.428987
-2.009063 0.077197999 0.42585099
-2.013607 0.080545001 0.42798901
-2.022243 0.089373 0.428146
-2.0015271 0.089621998 0.426682
-1.991206 0.087954998 0.42784899
-1.943332 0.086001001 0.42623499
-2.0644679 0.092458002 0.428323
-2.0537889 0.090843998 0.428408
-2.0027113 0.094620667 0.42679
-1.978817 0.094935998 0.42847201
-1.970021 0.092552997 0.42639101
-1.989987 0.099799 0.425744
-1.974143 0.099579997 0.42969501
-1.926245 0.09589 0.42726699
-1.875403 0.095761999 0.42923501
-1.994913 0.103765 0.42853999
-1.959236 0.104705 0.425199
-1.938851 0.100169 0.426202
-1.9008189 0.10225 0.429324
-1.8929549 0.103519 0.427057
-1.869642 0.101827 0.42659399
-1.8969229 0.105571 0.425235
-2.0510671 0.11341 0.426608
-1.9063621 0.114537 0.426801
-1.895335 0.112896 0.42879501
-1.892915 0.114499 0.42626199
-1.864236 0.112174 0.426494
-1.856019 0.114798 0.42993999
-2.083199 0.115046 0.426891
-1.881276 0.115921 0.42772099
-1.819895 0.119624 0.42611501
-1.917804 0.124374 0.427421
-1.9129699 0.120678 0.42644101
-1.858181 0.12407 0.429144
-1.8505419 0.120193 0.42879599
-1.859586 0.133108 0.425257
-1.8324205 0.1325925 0.42652351
-1.876914 0.13542999 0.42922199
-1.863554 0.13583 0.42901
-1.815721 0.139691 0.42865899
-1.824769 0.14397199 0.42696899
-1.909788 0.158498 0.42525101
-1.867924 0.15762401 0.42531899
-1.858493 0.15796299 0.429649
-1.835199 0.158649 0.428159
-1.821285 0.16329101 0.425796
-1.811572 0.161861 0.42688099
-1.81576 0.167762 0.429548
-1.825395 0.18212999 0.42740899
-1.8068465 0.1824795 0.42595649
-1.8027771 0.18748 0.42919701
-1.76465 0.190504 0.42681801
-1.827232 0.19963101 0.427434
-1.969 -0.047963001 0.43178999
-2.0438361 0.0094269998 0.43436399
-2.013721 0.0082670003 0.433907
-2.0189409 0.020532999 0.43277499
-2.0062499 0.024220999 0.433034
-2.018224 0.028409 0.43365601
-1.999267 0.039852999 0.43349099
-1.966158 0.039246 0.430287
-2.021358 0.042814001 0.434172
-1.996284 0.043896999 0.43056199
-2.058949 0.046565998 0.432017
-2.0508111 0.045123 0.43032601
-2.038466 0.047237001 0.43281001
-2.0689001 0.056001998 0.43080801
-1.979594 0.059174001 0.43420601
-2.0313921 0.061666001 0.43446499
-2.0563469 0.068536997 0.430244
-2.035635 0.068980001 0.43017599
-2.0026419 0.065709002 0.43460599
-2.028919 0.075911999 0.43306899
-1.95992 0.078493997 0.43492201
-2.0288019 0.084441997 0.43068001
-2.015651 0.089478001 0.43475401
-2.0146699 0.093970001 0.431833
-1.960111 0.093549997 0.431416
-2.010051 0.098995 0.43322399
-2.0003009 0.09606 0.434066
-1.907575 0.096777 0.43241701
-2.0092461 0.101101 0.43484801
-1.97785 0.100046 0.433272
-1.972434 0.103623 0.433685
-1.964654 0.103154 0.434856
-1.932488 0.102694 0.43207699
-1.911819 0.100614 0.43304801
-1.891593 0.104169 0.43131801
-1.98236 0.105363 0.43173599
-1.951172 0.107894 0.432118
-1.921186 0.106021 0.43171301
-1.895622 0.108742 0.43044001
-1.936974 0.112553 0.43324399
-1.930015 0.112209 0.432098
-1.907811 0.110222 0.43343601
-2.059104 0.116654 0.43276799
-1.950541 0.115854 0.43489
-1.915652 0.115894 0.43126899
-1.848913 0.119412 0.43070099
-1.885993 0.122014 0.43175301
-1.873857 0.121489 0.43009201
-2.0711801 0.126876 0.43416101
-1.874482 0.128831 0.43243101
-1.91 0.13034999 0.434129
-1.903425 0.131284 0.43223199
-1.836635 0.133834 0.43064499
-1.896878 0.138138 0.431164
-1.893687 0.137105 0.43055099
-1.8685189 0.135132 0.433837
-1.854758 0.139458 0.433126
-1.839584 0.13920601 0.43479401
-1.831441 0.138559 0.430998
-1.824378 0.138648 0.43085799
-1.8987679 0.140007 0.432441
-1.841152 0.14744 0.43142501
-1.869876 0.15001599 0.43122
-1.826468 0.156903 0.43469399
-1.812341 0.15692499 0.4332
-1.878104 0.160382 0.43105999
-1.8351901 0.16133 0.43302399
-1.849491 0.167353 0.43282801
-1.7665811 0.165447 0.43412501
-1.816291 0.17417599 0.43314499
-1.77276 0.17900901 0.430446
-1.874312 0.18034799 0.43338901
-1.840072 0.18049701 0.43007499
-1.83267 0.182403 0.43107799
-1.815968 0.18000101 0.43344101
-1.811313 0.183933 0.432578
-1.797653 0.190254 0.43008199
-1.985404 -0.027550001 0.43550301
-2.0609131 0.044176001 0.435184
-1.995513 0.043317001 0.43667999
-2.0218415 0.045622502 0.43752998
-2.0715511 0.063477002 0.438218
-2.0089691 0.062259998 0.43594301
-2.049747 0.069169998 0.43697199
-2.0021851 0.066722997 0.43700099
-2.0240991 0.070598997 0.43880099
-2.0146811 0.072218001 0.43612099
-2.0168941 0.084683999 0.43544301
-1.989593 0.080490001 0.439022
-2.0198841 0.087710001 0.43844599
-2.005023 0.093199998 0.43869501
-1.995156 0.094104998 0.435368
-2.0738809 0.095172003 0.435175
-2.0465801 0.098412 0.436795
-1.938573 0.098195001 0.43973199
-1.90733 0.097657003 0.43742201
-2.0411479 0.102193 0.436418
-1.997227 0.103595 0.43770999
-2.0531571 0.106463 0.438622
-1.963385 0.109507 0.437442
-1.921019 0.108701 0.43976799
-2.0010159 0.11079 0.43888301
-1.965209 0.111498 0.43547401
-1.939742 0.111391 0.43840101
-1.905048 0.112204 0.43504
-1.864218 0.1144395 0.43907452
-1.9878194 0.11678 0.4388015
-1.958431 0.116589 0.43741101
-1.953662 0.119292 0.43952101
-1.927572 0.11542 0.43584499
-1.923283 0.117674 0.43915799
-1.900381 0.11643 0.43557799
-1.8933001 0.116071 0.438806
-1.872996 0.119305 0.436968
-1.955554 0.120412 0.43850601
-1.9323241 0.123235 0.43784499
-1.902464 0.121259 0.43740201
-1.9625781 0.12523299 0.438301
-1.918419 0.12697899 0.43945301
-1.868057 0.129429 0.43509299
-1.982149 0.13387001 0.43932
-1.908289 0.13184699 0.439955
-1.9018 0.130244 0.43902701
-1.886605 0.134717 0.43560901
-1.830518 0.134766 0.43641999
-1.88964 0.138228 0.43708801
-1.88196 0.13896701 0.435729
-1.884869 0.145711 0.43844199
-1.924584 0.152291 0.437884
-1.882581 0.151788 0.43828699
-1.849937 0.153813 0.436591
-1.902562 0.156774 0.439547
-1.879732 0.15564001 0.43746099
-1.868162 0.15722901 0.436178
-1.843102 0.157748 0.435978
-1.835659 0.157428 0.43616101
-1.863538 0.161503 0.43588001
-1.883726 0.166926 0.43617699
-1.8252521 0.168459 0.43717301
-1.863361 0.17333101 0.43754601
-1.849718 0.179741 0.43674701
-1.823863 0.176247 0.438196
-1.816468 0.176567 0.43871301
-1.747692 0.181539 0.438151
-2.0252399 0.024563 0.44001499
-2.056787 0.045235001 0.44033301
-2.0265429 0.046831999 0.44223499
-2.018198 0.05968 0.44148701
-2.012429 0.064805001 0.440678
-2.0651569 0.071966 0.44433099
-2.060431 0.070193 0.44253999
-2.0307701 0.084615 0.44273901
-2.029664 0.086654 0.44472
-2.017679 0.088357002 0.44077799
-2.0412011 0.092977002 0.442433
-1.922111 0.091603003 0.44410899
-2.0098939 0.096380003 0.441403
-2.0023589 0.099267997 0.44448701
-1.987534 0.098598003 0.441605
-1.926716 0.095656 0.44086099
-2.060183 0.103447 0.442114
-2.0285881 0.101968 0.441163
-1.9969875 0.102692 0.440402
-1.966188 0.103064 0.44004899
-1.91019 0.10263 0.44287899
-2.0275609 0.106803 0.44100499
-1.998125 0.109918 0.44100001
-1.955513 0.109382 0.443739
-1.951968 0.108247 0.440465
-1.8704489 0.109661 0.44154599
-2.0333829 0.110324 0.44463101
-2.011574 0.112903 0.440216
-1.981622 0.110582 0.440317
-1.974951 0.110551 0.441834
-1.9474829 0.114637 0.44440001
-1.9172291 0.113088 0.443483
-1.900619 0.114804 0.44431099
-1.895867 0.114907 0.44251299
-2.0217123 0.11736549 0.4414705
-1.991201 0.119599 0.44195399
-1.888231 0.115626 0.44045699
-2.047318 0.124275 0.44064999
-1.891608 0.12840299 0.44180599
-1.845314 0.129842 0.444181
-1.9785711 0.131479 0.441223
-1.970135 0.13441899 0.443183
-1.956212 0.133424 0.44241199
-1.9375765 0.1321135 0.44227147
-1.911677 0.131643 0.44391
-1.9046381 0.13323601 0.44495401
-1.876629 0.133406 0.444731
-1.869132 0.133596 0.44349101
-1.854399 0.13444 0.442619
-1.845626 0.13275801 0.44188899
-1.913607 0.13513801 0.44093099
-1.882369 0.137473 0.44484901
-1.8890049 0.148275 0.444065
-1.858905 0.14692301 0.442431
-1.831681 0.147733 0.442956
-1.8291 0.145539 0.44087899
-1.892902 0.153887 0.44380599
-1.8731869 0.15093701 0.442233
-1.841365 0.15194499 0.442507
-1.809294 0.154889 0.44488001
-1.850105 0.156532 0.44090199
-1.780885 0.16029701 0.44333699
-1.852885 0.16581701 0.44353101
-1.812297 0.166769 0.443661
-1.8973989 0.174523 0.44149899
-1.874128 0.176131 0.443701
-1.840077 0.175686 0.44005501
-1.812165 0.1831 0.44254199
-1.935122 0.189256 0.44360599
