# .PCD v0.7 - Point Cloud Data file format
VERSION 0.7
FIELDS x y z
SIZE 4 4 4
TYPE F F F
COUNT 1 1 1
WIDTH 1582
HEIGHT 1
VIEWPOINT 0 0 0 1 0 0 0
POINTS 1582
DATA ascii
2.0209031 -0.22923601 0.88429803
2.03475 -0.226377 0.88032597
2.0387411 -0.224567 0.881733
2.0277879 -0.216901 0.88177299
2.0411749 -0.219925 0.88438898
2.058104 -0.219354 0.88397902
2.0047369 -0.21427201 0.88122803
2.035522 -0.210499 0.882734
2.061934 -0.214623 0.88375503
1.988562 -0.197787 0.88337898
2.0507159 -0.199067 0.88027
2.016592 -0.190723 0.88241303
2.043344 -0.19242001 0.880808
2.0217049 -0.187382 0.881598
2.057801 -0.173434 0.88377398
2.0238891 -0.164408 0.88308603
2.004302 -0.156253 0.88419002
2.003633 -0.148663 0.882366
2.008569 -0.149233 0.88224697
2.018188 -0.145834 0.884161
2.0223501 -0.145632 0.88130403
2.009397 -0.132268 0.88124102
2.021436 -0.12833001 0.88435
2.0451391 -0.24074 0.88619399
2.057214 -0.241326 0.88986403
2.029355 -0.22119699 0.88835698
2.0670359 -0.224583 0.885921
2.0015841 -0.217719 0.88608497
2.0146589 -0.215933 0.88886702
2.0026021 -0.209361 0.88632101
1.997695 -0.195384 0.88949502
2.0260611 -0.17326701 0.88670498
2.0360429 -0.173787 0.88863498
2.0257161 -0.157783 0.88689202
2.040175 -0.15071 0.887321
1.9964271 -0.147946 0.88962197
1.954632 -0.12776899 0.88962197
2.01476 -0.12747601 0.88812
1.995544 -0.107401 0.88779402
2.0565701 -0.26368499 0.89417899
2.073107 -0.26024899 0.89498901
2.075659 -0.26335499 0.89278799
2.0261121 -0.25356501 0.892555
2.0445521 -0.25043499 0.89285398
2.066232 -0.253665 0.89361
2.0833549 -0.25009799 0.89157301
2.0558119 -0.247054 0.89135498
2.0299251 -0.24271201 0.89342803
2.0316539 -0.240025 0.89329499
2.014339 -0.210878 0.89139098
2.0583861 -0.20388 0.89319998
1.994738 -0.199094 0.89369899
2.0435531 -0.1973 0.891164
2.0420361 -0.18329801 0.89254302
1.99238 -0.17986099 0.89167798
2.006424 -0.177068 0.893215
2.03563 -0.17812 0.893444
2.013561 -0.172235 0.894086
2.005863 -0.16206101 0.89441299
2.012419 -0.152803 0.89171201
2.050539 -0.15409499 0.89279097
2.0002289 -0.13419101 0.89473403
2.041636 -0.25655401 0.89662498
2.0440331 -0.24829 0.895374
2.045475 -0.241588 0.89936602
2.020169 -0.23540001 0.89880103
2.0368669 -0.22581901 0.89858001
2.0479889 -0.21730401 0.89589
2.031116 -0.20511 0.89947802
2.058356 -0.208814 0.89819503
2.032908 -0.20292 0.896299
2.0497351 -0.201941 0.89596599
2.029058 -0.197528 0.89556903
2.030694 -0.19652399 0.89854902
2.0077751 -0.19251999 0.898485
2.0101271 -0.177751 0.89524901
2.0177209 -0.158225 0.89919198
2.017036 -0.142014 0.89916599
2.085732 -0.27232999 0.90049303
2.0429139 -0.26553401 0.90280497
2.0542171 -0.249658 0.90300202
2.0496099 -0.244752 0.90192002
2.0350201 -0.238049 0.90377599
2.0475459 -0.230048 0.903265
2.0589709 -0.23432501 0.90262699
2.0634279 -0.230095 0.90329802
2.0746751 -0.234329 0.90384603
2.049562 -0.227139 0.90240198
2.022824 -0.223665 0.90176499
2.021102 -0.204161 0.90023202
1.987891 -0.18046901 0.90131402
2.035213 -0.182258 0.90364999
2.051125 -0.18454 0.90221697
2.0162561 -0.17499 0.90076202
2.033356 -0.167529 0.90481699
2.010005 -0.158786 0.90124202
2.024823 -0.157819 0.90409148
2.0276749 -0.15637299 0.90062302
2.0059061 -0.139735 0.904643
2.0323999 -0.136297 0.90005797
2.055532 -0.27163601 0.90583497
2.0715671 -0.27349699 0.90742397
2.0909951 -0.25984401 0.90949798
2.068007 -0.24916799 0.90532601
2.04265 -0.22581901 0.909661
2.062603 -0.227819 0.90539402
2.0235751 -0.22499999 0.90568203
2.014226 -0.217236 0.905047
2.063123 -0.19950899 0.90561199
2.024642 -0.18591399 0.90820903
2.0465081 -0.186024 0.90902799
2.022593 -0.18455601 0.90840501
2.0413671 -0.18452799 0.90795398
2.0279169 -0.163821 0.90608102
2.0054159 -0.157087 0.90657401
2.1172481 -0.28343999 0.91000801
2.063354 -0.27537999 0.91121
2.057565 -0.27318501 0.91453701
2.0733459 -0.273267 0.91468298
2.076642 -0.26797399 0.91274399
2.037993 -0.26184401 0.91147202
2.086833 -0.26376399 0.91478401
2.0621829 -0.25717601 0.91023099
2.0772638 -0.25669801 0.91155052
2.04057 -0.249093 0.91010898
2.0578499 -0.24834301 0.91242599
2.0836899 -0.23043101 0.914922
2.039058 -0.22871201 0.91210699
2.028403 -0.21954399 0.91092598
2.028595 -0.210899 0.91096503
2.078918 -0.21354499 0.91437203
2.065099 -0.20822801 0.91197503
2.015723 -0.20461901 0.910101
2.0496759 -0.19304401 0.91046798
2.0225489 -0.18137699 0.91103703
2.0394731 -0.18330701 0.91029501
2.043864 -0.1652 0.91123402
2.0055671 -0.160372 0.91239899
2.035121 -0.15425 0.91221899
2.050097 -0.14724401 0.91468102
2.009382 -0.14318199 0.91167802
2.0908129 -0.28640401 0.917961
2.1073151 -0.285359 0.91514897
2.0668361 -0.28118199 0.919999
2.092212 -0.28247499 0.91955
2.103739 -0.281093 0.91504598
2.056087 -0.26565799 0.91636801
2.0748739 -0.25154701 0.91743201
2.0876889 -0.25435799 0.91702402
2.0459449 -0.23473801 0.91538697
2.065995 -0.21856 0.91611999
2.039279 -0.213043 0.91517502
2.0542779 -0.21063501 0.917373
2.0550599 -0.21268199 0.915286
2.0376866 -0.206276 0.91645098
2.021786 -0.201039 0.91807598
2.030839 -0.19829901 0.91554999
2.0566101 -0.18644001 0.91854399
2.0735469 -0.17042901 0.91721898
2.0268741 -0.167216 0.91613603
2.0375381 -0.16651499 0.918221
2.062103 -0.16664401 0.91873598
2.0427699 -0.164698 0.917992
2.018466 -0.14659099 0.917898
2.043364 -0.144264 0.91576499
2.129714 -0.290245 0.92316401
2.080646 -0.282415 0.92423099
2.1107841 -0.270468 0.92284298
2.078799 -0.25701001 0.92078698
2.066328 -0.25417599 0.92248899
2.0494161 -0.247004 0.923576
2.054899 -0.243109 0.92210299
2.068753 -0.24083599 0.92261702
2.079509 -0.24425501 0.92387998
2.082315 -0.244075 0.92177099
2.069082 -0.23796301 0.92444998
2.080637 -0.236577 0.92003202
2.032491 -0.23406801 0.92249602
2.0539911 -0.211138 0.92188102
2.099581 -0.211404 0.92467701
2.0443659 -0.191249 0.92059398
2.071594 -0.19403601 0.92346698
2.080842 -0.189024 0.92170602
2.034584 -0.18413 0.92163801
2.0665541 -0.17297401 0.92038
2.014405 -0.16622899 0.92352498
2.031148 -0.166124 0.92227298
2.0740621 -0.28316101 0.92655098
2.0824449 -0.26899099 0.92994899
2.098634 -0.26958999 0.927423
2.061291 -0.26337901 0.92520899
2.095401 -0.26394001 0.92705899
2.0494859 -0.25816 0.92692298
2.070225 -0.25509799 0.92548501
2.0344479 -0.2458 0.925852
2.030174 -0.239971 0.92809999
2.07935 -0.239316 0.92951
2.067652 -0.23217399 0.92591101
2.037673 -0.219817 0.92777199
2.031013 -0.19603699 0.92708403
2.0466919 -0.195269 0.92727298
2.0830121 -0.198705 0.92607898
2.031538 -0.19051801 0.92798901
2.045953 -0.193452 0.92935097
2.0287299 -0.187952 0.92514199
2.0392029 -0.18136799 0.92923498
2.0426841 -0.14706001 0.92589599
2.0355899 -0.129851 0.92850298
2.183605 -0.31284401 0.93373603
2.114954 -0.29510501 0.933074
2.1101651 -0.29130399 0.93408501
2.0664811 -0.282253 0.93135101
2.1013639 -0.281046 0.93026698
2.046289 -0.27533099 0.93233401
2.0500381 -0.27025399 0.930682
2.0838871 -0.26529101 0.93152797
2.071146 -0.242823 0.93332398
2.05931 -0.235085 0.93029398
2.067241 -0.22754499 0.93487799
2.0736351 -0.228306 0.93404502
2.04565 -0.22316501 0.93405098
2.0721674 -0.22441199 0.9329465
2.048672 -0.214807 0.93245202
2.0428281 -0.206212 0.93479103
2.0475259 -0.198166 0.934717
2.036026 -0.17620701 0.93308097
2.0500979 -0.173371 0.93147498
2.0642691 -0.174528 0.93256301
2.0730669 -0.174611 0.934443
2.0537479 -0.16329201 0.93336999
2.057801 -0.15707199 0.93275702
2.0310249 -0.153447 0.93115199
2.0543289 -0.15223099 0.93147302
2.0344319 -0.14754499 0.93000501
2.0119531 -0.133522 0.93082899
2.096138 -0.29714501 0.93728
2.1421809 -0.29705 0.93632001
2.0986919 -0.29262 0.93860602
2.0904059 -0.28301099 0.93553299
2.12325 -0.27727401 0.93599898
2.066469 -0.26908401 0.93899101
2.0723741 -0.26749501 0.936616
2.0825989 -0.26185301 0.93854398
2.094079 -0.26150501 0.93881899
2.039619 -0.25667599 0.939542
2.115926 -0.25016499 0.93747699
2.0870631 -0.246788 0.93907201
2.063808 -0.242222 0.93822598
2.0658059 -0.239096 0.93691599
2.0502009 -0.22777499 0.935628
2.0450161 -0.222591 0.93790799
2.0607581 -0.22078 0.93642902
2.0522921 -0.215993 0.93809903
2.0873401 -0.211567 0.93778998
2.0918059 -0.196991 0.93741399
2.0742581 -0.18280201 0.938456
2.0383241 -0.177856 0.93926102
2.049197 -0.174908 0.93703198
2.047075 -0.16757999 0.936616
2.1318259 -0.311416 0.94288498
2.0847709 -0.29094201 0.94189203
2.0897241 -0.29133299 0.94103801
2.0984681 -0.288964 0.94257897
2.0709071 -0.27093101 0.943093
2.0831347 -0.26357198 0.94239199
2.0727749 -0.255458 0.94248402
2.0672519 -0.251436 0.94156301
2.0740769 -0.25157699 0.94193602
2.075562 -0.248108 0.94350702
2.046752 -0.228736 0.94457901
2.086854 -0.22403599 0.943142
2.0605171 -0.208738 0.94214499
2.0907149 -0.208533 0.94415498
2.029402 -0.204897 0.940157
2.063961 -0.202272 0.944058
2.065042 -0.195243 0.942581
2.036793 -0.18776301 0.94113499
2.0233941 -0.17537101 0.940476
2.0376279 -0.17626899 0.941329
2.0435851 -0.160303 0.94440699
2.0569451 -0.161373 0.94058198
2.0245121 -0.140378 0.94408399
2.14884 -0.301626 0.94887501
2.0920229 -0.297382 0.94843501
2.1770921 -0.29977599 0.94666702
2.093533 -0.29190299 0.94840097
2.1000731 -0.28767499 0.94584399
2.135716 -0.28407899 0.94915497
2.08777 -0.27973199 0.94926798
2.1062739 -0.27933601 0.94534701
2.1018269 -0.274151 0.94609803
2.1178551 -0.27236101 0.949094
2.116786 -0.26430199 0.94883502
2.0885019 -0.248307 0.946455
2.0867939 -0.241964 0.94737202
2.0978551 -0.244525 0.94851398
2.032949 -0.238021 0.94674999
2.107173 -0.234263 0.94985402
2.0823159 -0.219732 0.94708103
2.052016 -0.20601 0.94659299
2.0662129 -0.20948 0.94555598
2.059993 -0.204971 0.947873
2.045274 -0.19690201 0.94590503
2.0795901 -0.19989499 0.94689798
2.080055 -0.192026 0.946343
2.0410621 -0.185195 0.94755203
2.053792 -0.18993101 0.94941097
2.107841 -0.177553 0.94743299
2.0276871 -0.161165 0.94556701
2.0652931 -0.160198 0.94718099
2.040859 -0.157756 0.949045
2.1172071 -0.31196401 0.95030701
2.116591 -0.301514 0.953125
2.081512 -0.29332799 0.95277101
2.060936 -0.28466201 0.95253599
2.077177 -0.27686501 0.95433199
2.0814519 -0.27641299 0.95342302
2.085891 -0.27863899 0.95488
2.0588751 -0.255007 0.95143098
2.0872109 -0.252823 0.95315498
2.076252 -0.244507 0.95127499
2.099591 -0.24422 0.951581
2.084698 -0.23232 0.95261002
2.0573909 -0.22934601 0.95096701
2.0787251 -0.229635 0.95108497
2.0945239 -0.22746199 0.95403701
2.0626709 -0.209232 0.95448297
2.060627 -0.191544 0.950804
2.0451789 -0.18519799 0.95002502
2.1080761 -0.188425 0.95443797
2.0399549 -0.171252 0.95293999
2.0727701 -0.17248601 0.95489597
2.053901 -0.168293 0.95209903
2.015249 -0.16022401 0.95296401
2.1589379 -0.32603201 0.958359
2.1409781 -0.320407 0.95982897
2.095479 -0.29872301 0.95723403
2.123486 -0.29637399 0.95537102
2.1327879 -0.29992801 0.95623302
2.091928 -0.27252701 0.95833099
2.0542121 -0.26585501 0.95980299
2.0934889 -0.256998 0.95811099
2.12363 -0.25999299 0.955553
2.080873 -0.23400849 0.95869195
2.069175 -0.225255 0.95914602
2.079509 -0.222424 0.95592499
2.0523934 -0.21780699 0.95853949
2.0785661 -0.213577 0.95905501
2.0791409 -0.209736 0.95577902
2.074105 -0.20446 0.95967102
2.043648 -0.18859699 0.95858002
2.0556231 -0.185119 0.95607102
2.071193 -0.18256199 0.95898098
2.0568299 -0.17997199 0.95517099
2.0639141 -0.176433 0.95765001
2.0550399 -0.173609 0.95605302
2.056144 -0.16715901 0.95766097
2.0370719 -0.14723399 0.95733798
2.057518 -0.145785 0.95991802
2.147722 -0.327494 0.96337301
2.1203711 -0.32201201 0.961613
2.0809519 -0.30621701 0.96359497
2.108536 -0.29682499 0.96087098
2.13414 -0.29319701 0.96058202
2.1481831 -0.29088399 0.96231103
2.1400869 -0.28572401 0.96125197
2.1356349 -0.28112799 0.96338898
2.074435 -0.27407601 0.96064198
2.1135731 -0.27163899 0.96057498
2.129252 -0.27110699 0.96199101
2.079401 -0.26231799 0.96125501
2.0797589 -0.25989699 0.96132499
2.092731 -0.25850701 0.96424699
2.0976551 -0.25729799 0.96339899
2.109457 -0.25502801 0.96117699
2.110321 -0.25132999 0.96166998
2.074286 -0.236478 0.96132302
2.0913899 -0.231553 0.96134901
2.11654 -0.22473399 0.96195
2.0714231 -0.212129 0.96206349
2.1246729 -0.21437401 0.960186
2.048562 -0.19918901 0.96408701
2.0535281 -0.192 0.96070802
2.0787749 -0.189421 0.96455801
2.036839 -0.170156 0.962511
2.071722 -0.169846 0.96100497
2.076257 -0.168165 0.962888
2.1059141 -0.322741 0.96618301
2.1261959 -0.321105 0.96725899
2.156544 -0.311454 0.96695101
2.1577251 -0.30151001 0.96994799
2.111176 -0.280536 0.96717101
2.1243911 -0.28259501 0.96831602
2.14009 -0.27727899 0.96545303
2.107439 -0.25268251 0.96893698
2.047487 -0.24704801 0.96706998
2.073627 -0.241154 0.96776998
2.114877 -0.244091 0.96793002
2.0861261 -0.21012899 0.96612
2.096411 -0.213652 0.96905297
2.0620971 -0.206002 0.96701699
2.099427 -0.201554 0.96816403
2.043915 -0.199682 0.96550798
2.0724339 -0.19483399 0.9655
2.094996 -0.19054499 0.965859
2.073209 -0.17672899 0.96890903
2.0472851 -0.16796599 0.96808398
2.048619 -0.1647 0.96776098
2.08286 -0.155617 0.969594
2.173002 -0.33718401 0.97264999
2.1244731 -0.32315299 0.97407502
2.107702 -0.31299499 0.97017199
2.150528 -0.30873001 0.97047698
2.129621 -0.30256501 0.97009498
2.098599 -0.287386 0.97489703
2.1256571 -0.27828199 0.97219849
2.1640661 -0.27363801 0.97253001
2.1313341 -0.26982099 0.973629
2.122787 -0.25813499 0.97482598
2.0934711 -0.254089 0.97261202
2.071033 -0.24490499 0.973243
2.085151 -0.23984499 0.97012401
2.1024585 -0.2380265 0.9738825
2.108609 -0.23984399 0.97430998
2.1140461 -0.237883 0.97354698
2.090018 -0.217641 0.97136301
2.106849 -0.213864 0.97156101
2.1082599 -0.209336 0.97464401
2.065995 -0.198805 0.97386402
2.115845 -0.198337 0.97266799
2.0550201 -0.18674999 0.97488898
2.03719 -0.180875 0.97277498
2.064698 -0.18054 0.974307
2.090843 -0.184645 0.97010702
2.0470641 -0.179028 0.973544
2.066303 -0.176092 0.97194499
2.0496321 -0.15409 0.97059202
2.165421 -0.33633101 0.97756499
2.12449 -0.32836199 0.97547603
2.150131 -0.32939899 0.97677398
2.1393249 -0.31016099 0.975456
2.125361 -0.30300099 0.97829902
2.1477909 -0.29555199 0.97932798
2.168793 -0.29880801 0.97556299
2.1008649 -0.29387701 0.97755897
2.1196711 -0.26029 0.97659397
2.127212 -0.262936 0.97638202
2.1316819 -0.262113 0.97804201
2.091522 -0.242201 0.97685599
2.098876 -0.232217 0.97782898
2.0653651 -0.227432 0.97880799
2.0912161 -0.22180299 0.979105
2.0620489 -0.195329 0.97511101
2.077729 -0.19279601 0.978203
2.0872209 -0.17613199 0.97859597
2.0703671 -0.174255 0.97714698
2.1604769 -0.326902 0.98217303
2.141567 -0.305029 0.98460901
2.142117 -0.29142699 0.98259503
2.121968 -0.288378 0.98263198
2.149317 -0.28634399 0.98253697
2.0940289 -0.27475801 0.98494601
2.115994 -0.26526201 0.98039901
2.143095 -0.258719 0.98372
2.1004419 -0.23816501 0.98126203
2.112812 -0.233761 0.98478299
2.106123 -0.22818901 0.98030698
2.085851 -0.223993 0.98218399
2.1246991 -0.220891 0.98453701
2.1039209 -0.21892101 0.980537
2.1307311 -0.218141 0.98386103
2.0613639 -0.203669 0.98065901
2.1003361 -0.20079499 0.98449302
2.0880029 -0.198486 0.98164099
2.1059599 -0.198511 0.98156601
2.0479431 -0.16749801 0.98276001
2.0825629 -0.169246 0.98280102
2.062191 -0.160946 0.98384702
2.1235139 -0.33307701 0.98782599
2.164248 -0.321282 0.98502702
2.1177959 -0.315319 0.98869902
2.1570101 -0.319029 0.98968297
2.1168959 -0.31428599 0.98791599
2.1669531 -0.31057501 0.98703098
2.130928 -0.29282799 0.98753899
2.1181631 -0.28341901 0.98630399
2.1605129 -0.28341001 0.98825699
2.165637 -0.27618399 0.98991001
2.1165841 -0.268251 0.98639297
2.1352539 -0.26493999 0.98798198
2.122581 -0.25391901 0.98600602
2.1182082 -0.24647832 0.98839301
2.0973921 -0.22538701 0.98734099
2.092663 -0.22036199 0.98534298
2.091527 -0.212506 0.98645699
2.0585849 -0.20847 0.98613501
2.0801799 -0.20578501 0.98751301
2.0999811 -0.193938 0.98733902
2.052542 -0.188243 0.98768997
2.05953 -0.18583301 0.9867
2.107018 -0.1823 0.98514998
2.0537109 -0.178176 0.98712301
2.1351981 -0.336144 0.99081701
2.1348889 -0.33139801 0.99289101
2.184588 -0.33480501 0.99152601
2.123184 -0.32287499 0.991189
2.1779301 -0.308101 0.99279499
2.133707 -0.27412501 0.99471301
2.138078 -0.26995099 0.99283999
2.1662951 -0.26700401 0.99292499
2.110353 -0.24920601 0.99294198
2.1232741 -0.246948 0.99063098
2.0922301 -0.222894 0.99385297
2.0973699 -0.21228699 0.99268401
2.1056139 -0.21417899 0.99278897
2.09551 -0.201619 0.99265498
2.051805 -0.189509 0.99346203
2.0788541 -0.184017 0.99209797
2.098186 -0.18409801 0.994304
2.0693319 -0.17546199 0.99028599
2.1044719 -0.178418 0.99202198
2.037652 -0.164105 0.99194199
2.1719029 -0.34663099 0.99677002
2.195348 -0.332793 0.99733299
2.116291 -0.303597 0.99863797
2.182234 -0.30213299 0.99565798
2.1840761 -0.29143599 0.99745703
2.158911 -0.286623 0.99530298
2.1225309 -0.27549499 0.99962199
2.1300499 -0.268051 0.99542999
2.137959 -0.26316601 0.99871099
2.1126289 -0.255045 0.99703598
2.1348159 -0.24332 0.99641401
2.113827 -0.23801699 0.99838299
2.1041219 -0.23016 0.99949098
2.1104031 -0.229221 0.99974197
2.131968 -0.227576 0.99807
2.112896 -0.207651 0.997747
2.116924 -0.206478 0.99727398
2.0842659 -0.20302901 0.99742502
2.1222539 -0.20285 0.99655402
2.093823 -0.187727 0.99742401
2.0747509 -0.16780201 0.99710101
2.137347 -0.34370899 1.002735
2.171952 -0.33111 1.003103
2.1512051 -0.31824899 1.001017
2.201858 -0.31586701 1.001989
2.1433561 -0.313254 1.000246
2.1521809 -0.31319699 1.003649
2.109303 -0.30020899 1.000356
2.1485989 -0.301727 1.0017999
2.1361251 -0.29625601 1.00041
2.1522329 -0.26801199 1.000952
2.1568091 -0.26014701 1.0023921
2.1287889 -0.25196901 1.000818
2.1242909 -0.249562 1.0008399
2.105736 -0.23576701 1.004485
2.114866 -0.231782 1.00322
2.135663 -0.22885799 1.000244
2.109118 -0.20323101 1.004571
2.0984149 -0.19459701 1.000795
2.1413851 -0.18797 1.001671
2.0871 -0.18431599 1.0047719
2.091701 -0.17854001 1.000033
2.1884091 -0.35684001 1.0088021
2.145879 -0.35236299 1.005049
2.145906 -0.343925 1.0061589
2.21964 -0.340298 1.006521
2.163492 -0.32932901 1.008888
2.136095 -0.29350299 1.008321
2.146378 -0.29456499 1.009102
2.169651 -0.292703 1.005489
2.1093969 -0.28431901 1.0060869
2.200506 -0.28265801 1.006472
2.129843 -0.277055 1.007012
2.106663 -0.26000401 1.007707
2.1252961 -0.25682199 1.00683
2.1578169 -0.25171301 1.005618
2.130698 -0.243415 1.006786
2.1185319 -0.23107301 1.006251
2.1265359 -0.22792201 1.009109
2.1313839 -0.21816 1.009127
2.0978911 -0.211115 1.00604
2.0758679 -0.18569601 1.009508
2.113776 -0.18755899 1.0092469
2.168942 -0.343611 1.014423
2.2044859 -0.34208599 1.014565
2.1454511 -0.33977199 1.011995
2.116693 -0.32078999 1.011994
2.1559091 -0.32472101 1.014641
2.187068 -0.31739399 1.0100271
2.143553 -0.30406201 1.013555
2.1933811 -0.300576 1.0146821
2.125108 -0.282033 1.010631
2.140574 -0.27593201 1.014554
2.1755991 -0.276144 1.01015
2.102504 -0.26504099 1.013536
2.1235609 -0.25785401 1.013615
2.1439531 -0.25261399 1.013646
2.1479809 -0.244109 1.014874
2.1234369 -0.223663 1.014861
2.0988431 -0.216488 1.011935
2.1019919 -0.211918 1.01186
2.1127739 -0.212584 1.0116611
2.1266713 -0.21447599 1.0119915
2.1315579 -0.21199 1.013779
2.09166 -0.19206899 1.012589
2.1077666 -0.193324 1.010345
2.087311 -0.174658 1.010355
2.178385 -0.35692999 1.015976
2.165226 -0.33297399 1.017513
2.1383131 -0.32984799 1.018599
2.2111621 -0.32500699 1.019214
2.1631989 -0.31520799 1.01548
2.124783 -0.305307 1.01594
2.161371 -0.27730501 1.0181839
2.128834 -0.27375099 1.016396
2.191602 -0.26648301 1.019061
2.1479836 -0.236623 1.0171316
2.091949 -0.19721 1.019383
2.1070149 -0.194096 1.017072
2.1764209 -0.193727 1.018472
2.1008389 -0.187833 1.017266
2.156615 -0.351706 1.0215
2.2289441 -0.349439 1.023746
2.179656 -0.340938 1.021179
2.161618 -0.32368699 1.0225689
2.155082 -0.31202599 1.021006
2.1338439 -0.30250701 1.0229011
2.1787879 -0.30199599 1.022722
2.1185009 -0.28610599 1.022543
2.105175 -0.28381199 1.022815
2.141242 -0.263556 1.02106
2.1671209 -0.26085299 1.022843
2.1347711 -0.25729999 1.020007
2.1172791 -0.238653 1.0202169
2.1605201 -0.216628 1.021988
2.1182561 -0.212524 1.021803
2.1175594 -0.202675 1.0234351
2.09987 -0.18151399 1.02361
2.1961131 -0.366669 1.026878
2.176044 -0.353659 1.0291131
2.1962061 -0.32668799 1.027259
2.181175 -0.29600701 1.026369
2.1359 -0.289875 1.0260921
2.1849029 -0.28528401 1.027375
2.148849 -0.25323799 1.029166
2.1213329 -0.245079 1.025969
2.128967 -0.238667 1.0254591
2.135674 -0.237215 1.026341
2.1388531 -0.22241201 1.028689
2.1659601 -0.22413801 1.025853
2.110997 -0.21945199 1.0268199
2.1201141 -0.200032 1.025719
2.12308 -0.19669899 1.026472
2.185735 -0.36777499 1.031562
2.1886389 -0.36305299 1.03183
2.213624 -0.35137901 1.0317971
2.1490221 -0.33762899 1.03394
2.197773 -0.32195601 1.032117
2.1307199 -0.31577101 1.031039
2.1848831 -0.31325299 1.030187
2.2026851 -0.30971599 1.031907
2.154294 -0.303763 1.030714
2.1512051 -0.293762 1.0326639
2.122237 -0.26524201 1.033806
2.136909 -0.266646 1.034611
2.1763301 -0.26717201 1.0346299
2.153091 -0.26190701 1.030879
2.182699 -0.25030899 1.031649
2.1335289 -0.249257 1.033697
2.114382 -0.225639 1.033481
2.1231639 -0.220035 1.030912
2.140862 -0.22113 1.031004
2.135514 -0.192608 1.0328439
2.231041 -0.37606999 1.036335
2.1673241 -0.359487 1.036841
2.1798389 -0.34884799 1.037101
2.21437 -0.34790501 1.037864
2.1696579 -0.33414 1.0358239
2.2204659 -0.33414701 1.0364389
2.2141161 -0.307726 1.0383461
2.1705091 -0.286598 1.035416
2.172348 -0.27996999 1.038851
2.158644 -0.245562 1.0355361
2.141525 -0.23331399 1.037312
2.1530781 -0.21750601 1.03742
2.1315019 -0.208295 1.037187
2.184325 -0.20381001 1.037017
2.129344 -0.19944499 1.038923
2.2309661 -0.37385401 1.043612
2.2382481 -0.35857901 1.040971
2.2087431 -0.34342301 1.044752
2.231679 -0.33262399 1.0429209
2.173944 -0.32992199 1.042639
2.1651371 -0.31974599 1.044477
2.1444571 -0.31071901 1.042384
2.1632719 -0.314621 1.042536
2.1889451 -0.30591899 1.0445991
2.146692 -0.29771701 1.041554
2.194207 -0.294424 1.0446
2.1441951 -0.27415699 1.04024
2.176425 -0.26999301 1.040068
2.1395421 -0.24638 1.044963
2.1706409 -0.242404 1.041995
2.149817 -0.230379 1.044397
2.2012091 -0.230207 1.042864
2.10743 -0.20619801 1.040992
2.131078 -0.20799901 1.0414259
2.140476 -0.20082 1.042046
2.157922 -0.20108201 1.041883
2.2492421 -0.357521 1.047497
2.1835821 -0.341775 1.047401
2.2329171 -0.32882199 1.049039
2.2119889 -0.318856 1.049132
2.1568861 -0.295102 1.049248
2.138608 -0.29194099 1.047879
2.1882041 -0.26730099 1.046571
2.168556 -0.25275901 1.047367
2.1556439 -0.24686299 1.0468839
2.124243 -0.227928 1.047924
2.175853 -0.22571699 1.046453
2.134201 -0.21338999 1.045457
2.2401791 -0.38536301 1.0535671
2.1969681 -0.376638 1.051434
2.205399 -0.37370899 1.0541151
2.1780319 -0.367268 1.052183
2.1900871 -0.363397 1.050597
2.2297699 -0.34328699 1.053664
2.201611 -0.323477 1.052458
2.2057669 -0.29219899 1.051146
2.187294 -0.275139 1.050338
2.13276 -0.27316299 1.053375
2.1635201 -0.263933 1.051333
2.163672 -0.253932 1.053109
2.167948 -0.254702 1.052761
2.133693 -0.22760201 1.050458
2.162292 -0.226877 1.054796
2.117909 -0.20857 1.054581
2.1447289 -0.201979 1.05022
2.12499 -0.195226 1.050119
2.2475519 -0.36771899 1.0581959
2.191026 -0.35756099 1.057017
2.2221389 -0.35781699 1.0560941
2.1836481 -0.34371501 1.057364
2.2001791 -0.323771 1.058122
2.22333 -0.31709701 1.055722
2.1815879 -0.30156699 1.0551749
2.207274 -0.28647599 1.055832
2.150501 -0.275583 1.0559601
2.18573 -0.27913299 1.0572931
2.1798551 -0.25177401 1.059371
2.1301739 -0.234945 1.055391
2.16681 -0.2107535 1.0572624
2.1922281 -0.213893 1.055562
2.127845 -0.20882399 1.055953
2.2653339 -0.39215001 1.062728
2.2663951 -0.38116401 1.0606329
2.258456 -0.36689201 1.064873
2.198267 -0.353764 1.0618221
2.1943741 -0.349617 1.062863
2.2408929 -0.34199399 1.060297
2.1850841 -0.33848301 1.0626
2.1772089 -0.32403299 1.064132
2.155318 -0.31906199 1.0621949
2.2240131 -0.31264701 1.061628
2.194479 -0.303532 1.060165
2.2296431 -0.299624 1.060163
2.197418 -0.27667201 1.063947
2.1795199 -0.260726 1.0630749
2.1503639 -0.254215 1.0647939
2.181632 -0.244131 1.062624
2.1607809 -0.238346 1.060104
2.185235 -0.234934 1.063822
2.1231639 -0.215339 1.0629669
2.2760191 -0.39179 1.0694489
2.188741 -0.375049 1.067524
2.213311 -0.34177899 1.068576
2.1911359 -0.333819 1.0695291
2.221293 -0.32799599 1.066357
2.2169981 -0.30548599 1.069016
2.2149811 -0.30157 1.068523
2.1873479 -0.28358701 1.067872
2.1982591 -0.283106 1.066046
2.1983709 -0.270302 1.068421
2.169517 -0.25570899 1.068517
2.2031651 -0.25956899 1.068392
2.1539431 -0.21134999 1.067597
2.1949241 -0.38405001 1.071185
2.2043681 -0.37329999 1.072443
2.1781931 -0.36569199 1.0711451
2.2574921 -0.36499 1.073222
2.239074 -0.35242701 1.070889
2.2110569 -0.33167499 1.073705
2.2325439 -0.32646701 1.0730979
2.1731999 -0.300329 1.073765
2.2151101 -0.296473 1.074217
2.2210951 -0.28420499 1.072962
2.1962571 -0.241799 1.0741
2.144469 -0.23528799 1.070333
2.1715059 -0.236248 1.072172
2.1773679 -0.21923999 1.071106
2.2746379 -0.40129 1.079953
2.274231 -0.39116099 1.079018
2.2027941 -0.375736 1.076566
2.256856 -0.37685901 1.075421
2.197875 -0.353452 1.079268
2.2296481 -0.35387799 1.0766521
2.250107 -0.351365 1.077674
2.1840041 -0.31387401 1.077235
2.2390251 -0.30884099 1.0775321
2.1966109 -0.30440101 1.076864
2.167258 -0.28125101 1.079348
2.190484 -0.268693 1.078783
2.1802161 -0.26364201 1.075578
2.189069 -0.261145 1.076748
2.1630781 -0.236027 1.075285
2.172729 -0.227956 1.075213
2.1313429 -0.217026 1.076095
2.1385739 -0.216361 1.075871
2.176686 -0.219515 1.076622
2.2236121 -0.37948799 1.081248
2.2676699 -0.37626299 1.082249
2.2152121 -0.36443001 1.084554
2.196353 -0.34718099 1.082868
2.230597 -0.337136 1.083582
2.231849 -0.322644 1.080014
2.227962 -0.31345299 1.0847239
2.209223 -0.29107299 1.081753
2.2066319 -0.28604299 1.081323
2.1901181 -0.28455299 1.083689
2.1613159 -0.26217401 1.084931
2.1894679 -0.254127 1.08101
2.173084 -0.243697 1.083285
2.1946161 -0.24415 1.0811909
2.163157 -0.22072101 1.084973
2.1926451 -0.38265601 1.088496
2.248379 -0.36156699 1.088114
2.220556 -0.35767701 1.088239
2.248589 -0.34881499 1.085811
2.191396 -0.338361 1.087316
2.221935 -0.33957899 1.0892889
2.1903639 -0.32795101 1.088495
2.224195 -0.31094101 1.085899
2.206207 -0.28029799 1.0868061
2.2125471 -0.26878601 1.085761
2.1807201 -0.245618 1.089548
2.1884201 -0.22727001 1.086939
2.26616 -0.38599899 1.092646
2.2653279 -0.37498599 1.091607
2.240525 -0.36178201 1.092236
2.2417581 -0.33583799 1.090474
2.217607 -0.33390301 1.092234
2.185698 -0.31967399 1.092692
2.1843741 -0.30872101 1.0941221
2.2229459 -0.30646899 1.092603
2.2041969 -0.29364201 1.090657
2.2304771 -0.29342201 1.090331
2.201448 -0.27666 1.0944901
2.1697409 -0.27398399 1.092649
2.224781 -0.266579 1.092959
2.183625 -0.264705 1.0905139
2.182709 -0.25428 1.09152
2.1553741 -0.24309599 1.090513
2.2080359 -0.23405901 1.092651
2.1860681 -0.22873101 1.093991
2.1659529 -0.22375201 1.090992
2.2777071 -0.40618899 1.09813
2.242388 -0.404239 1.09692
2.2820671 -0.40115699 1.097404
2.244911 -0.39576399 1.09852
2.2344041 -0.38733 1.096709
2.276885 -0.38563401 1.0996259
2.2138951 -0.37540701 1.097803
2.186151 -0.36280799 1.0953211
2.259321 -0.36073601 1.09505
2.2663369 -0.342693 1.09947
2.2396851 -0.33264101 1.0984
2.22212 -0.321845 1.096275
2.2110591 -0.31388599 1.099117
2.1799991 -0.30098701 1.098067
2.2201869 -0.29903999 1.097461
2.242492 -0.291686 1.097573
2.197304 -0.26412401 1.099395
2.2039981 -0.25336701 1.09856
2.1494319 -0.22401901 1.096096
2.2842679 -0.36732799 1.10404
2.256424 -0.358812 1.104196
2.2576649 -0.34380001 1.103402
2.2389259 -0.32142001 1.100431
2.2602041 -0.31679401 1.102187
2.2219291 -0.27800199 1.10313
2.2032361 -0.24440099 1.103575
2.199472 -0.235301 1.102772
2.1706381 -0.225008 1.104164
2.1986511 -0.225814 1.101253
2.275465 -0.39513901 1.109871
2.2607861 -0.38611999 1.108951
2.273164 -0.384983 1.109993
2.2514031 -0.36968601 1.107819
2.2327371 -0.35667601 1.1099581
2.250973 -0.345209 1.107851
2.2057841 -0.34333801 1.1084239
2.2398591 -0.30263799 1.1077
2.20451 -0.29387 1.1059999
2.2140429 -0.290295 1.1051919
2.2027831 -0.289601 1.106138
2.1936741 -0.262247 1.107227
2.1898091 -0.25340399 1.106205
2.216362 -0.25092101 1.105867
2.155478 -0.23409399 1.108062
2.2885849 -0.41409299 1.113714
2.269994 -0.39188901 1.110767
2.2685361 -0.370107 1.112426
2.254951 -0.36698699 1.114455
2.2577889 -0.32727399 1.11227
2.230782 -0.316466 1.110988
2.2311511 -0.30700701 1.113168
2.2124131 -0.28462699 1.110198
2.2340729 -0.27602899 1.110482
2.1973529 -0.2720345 1.112347
2.239816 -0.25826401 1.114709
2.188401 -0.247949 1.111984
2.1954501 -0.237948 1.11136
2.2899029 -0.411154 1.11579
2.2569671 -0.40514699 1.1195869
2.2593119 -0.39784399 1.1179579
2.2336221 -0.39361399 1.117249
2.2686291 -0.351767 1.119109
2.2757189 -0.35190901 1.1168391
2.2491159 -0.34785399 1.119959
2.22665 -0.33713201 1.115678
2.2755721 -0.33965001 1.116039
2.2498901 -0.32938701 1.1161391
2.269495 -0.326244 1.11971
2.2517841 -0.30113599 1.115096
2.221312 -0.282388 1.116498
2.2578981 -0.283108 1.1193171
2.2328241 -0.27054 1.117043
2.191839 -0.26350999 1.115325
2.1910601 -0.25233299 1.1186249
2.2105241 -0.243332 1.118606
2.207943 -0.235263 1.118776
2.2773161 -0.41436699 1.123461
2.2936499 -0.37654501 1.1214091
2.2270169 -0.37342599 1.124191
2.2873681 -0.374147 1.12208
2.2642601 -0.368808 1.122582
2.2872059 -0.35135099 1.124324
2.2257321 -0.32353401 1.1217459
2.220562 -0.317588 1.121397
2.275979 -0.307951 1.123925
2.192687 -0.303305 1.12219
2.2497079 -0.296938 1.12289
2.204638 -0.27021399 1.1229351
2.2256539 -0.260371 1.12339
2.186095 -0.24467701 1.120743
2.2847691 -0.40427899 1.1270961
2.2714341 -0.39508101 1.1290081
2.2808721 -0.399793 1.12635
2.2809989 -0.394979 1.128378
2.250829 -0.38544199 1.125353
2.27775 -0.37947801 1.1298029
2.2671709 -0.33649001 1.129639
2.2432809 -0.32872 1.1254621
2.266592 -0.32333499 1.128737
2.242116 -0.31497401 1.128876
2.2144749 -0.298044 1.127116
2.207654 -0.29034501 1.129681
2.223377 -0.29259399 1.125906
2.1861379 -0.283288 1.129073
2.2704611 -0.281636 1.127117
2.2238431 -0.25422499 1.129741
2.2311959 -0.242715 1.127616
2.3262241 -0.418843 1.133579
2.265553 -0.37579399 1.1345561
2.2446921 -0.365738 1.131119
2.2851009 -0.36112601 1.134208
2.279593 -0.359734 1.134817
2.220413 -0.35323799 1.131132
2.2834761 -0.349733 1.134584
2.260854 -0.337354 1.131846
2.261076 -0.31058601 1.132618
2.2374461 -0.309587 1.1309659
2.2083869 -0.27849999 1.132835
2.2492771 -0.26755899 1.132224
2.221576 -0.251362 1.134439
2.282831 -0.42549801 1.139961
2.312876 -0.42927301 1.138954
2.26845 -0.40713799 1.13519
2.2762909 -0.38898799 1.139789
2.298332 -0.38211399 1.137787
2.238555 -0.34603399 1.136886
2.2787869 -0.335693 1.1372319
2.267359 -0.292402 1.136832
2.2407269 -0.28062299 1.135588
2.201865 -0.27136299 1.135141
2.2404649 -0.273922 1.137434
2.17959 -0.263271 1.135956
2.2023001 -0.25895599 1.138555
2.3103399 -0.429901 1.144881
2.269244 -0.41468599 1.141009
2.2940731 -0.41341901 1.144321
2.291749 -0.40769699 1.141934
2.248692 -0.404037 1.1402479
2.30036 -0.376131 1.140431
2.2964981 -0.36080101 1.141847
2.2407341 -0.33335 1.144784
2.2324171 -0.32632899 1.142652
2.2530799 -0.32294101 1.1445839
2.28544 -0.31724501 1.141441
2.257612 -0.30702099 1.141435
2.2343409 -0.30056101 1.141613
2.2798319 -0.29116601 1.144789
2.26197 -0.26584601 1.140136
2.267539 -0.247566 1.1441489
2.2823081 -0.40418801 1.149404
2.3172441 -0.40252799 1.146277
2.26017 -0.39173901 1.147885
2.2420299 -0.383674 1.1472501
2.2844391 -0.357153 1.147087
2.2718191 -0.345321 1.147554
2.3035209 -0.34208801 1.146049
2.2744961 -0.33341801 1.147282
2.22628 -0.30662501 1.1484179
2.217844 -0.29847401 1.149757
2.285774 -0.27261999 1.148796
2.2317469 -0.26430801 1.148286
2.2199409 -0.25218701 1.147477
2.3341279 -0.42892599 1.152124
2.313482 -0.424831 1.150894
2.2775879 -0.41643101 1.152423
2.288975 -0.39581299 1.153818
2.2840359 -0.39339799 1.15457
2.2944829 -0.37034199 1.151577
2.2905581 -0.36770099 1.150525
2.2913799 -0.35981601 1.153129
2.288079 -0.34514299 1.154755
2.2785089 -0.33771101 1.15268
2.2703681 -0.32003599 1.150141
2.2479081 -0.31793499 1.151199
2.234072 -0.312987 1.151786
2.276819 -0.301696 1.154348
2.200598 -0.29267401 1.151958
2.248631 -0.29070601 1.154133
2.2201431 -0.28692001 1.154184
2.2515171 -0.28195199 1.153267
2.2326281 -0.25939301 1.150273
2.3026271 -0.41560099 1.157517
2.2855949 -0.398128 1.157014
2.308264 -0.38621399 1.158975
2.2827361 -0.375779 1.15968
2.278615 -0.373321 1.159979
2.25068 -0.35508299 1.158451
2.2191629 -0.334728 1.157245
2.2949009 -0.32653901 1.1589561
2.29392 -0.31387299 1.159605
2.2453051 -0.30852801 1.157321
2.2120099 -0.27934101 1.155261
2.298887 -0.27141699 1.157169
2.321218 -0.437805 1.160464
2.3033769 -0.42255899 1.161546
2.3251481 -0.41261199 1.164822
2.301527 -0.38562801 1.162171
2.262671 -0.36387599 1.16115
2.282783 -0.35328799 1.163262
2.2859349 -0.35492301 1.164377
2.264044 -0.330908 1.160291
2.289202 -0.30069599 1.16246
2.286726 -0.425724 1.169655
2.3080349 -0.42563701 1.16998
2.2693081 -0.40103301 1.165117
2.277118 -0.38283601 1.1697069
2.2763231 -0.37909901 1.167207
2.2955489 -0.366027 1.167809
2.2559509 -0.34333599 1.168213
2.3109519 -0.34050101 1.165503
2.27966 -0.329485 1.1676641
2.262569 -0.289983 1.1691
2.295315 -0.281993 1.166461
2.2207479 -0.27226099 1.16579
2.239651 -0.27439201 1.166831
2.2392919 -0.26714399 1.166993
2.24368 -0.26742399 1.166106
2.230263 -0.260075 1.167842
2.342032 -0.43900901 1.170669
2.3248429 -0.434331 1.171795
2.313504 -0.42350599 1.1731009
2.293401 -0.41344601 1.170145
2.294899 -0.40726799 1.174239
2.294914 -0.40130201 1.170154
2.3279829 -0.367129 1.171401
2.2973709 -0.35459301 1.172278
2.289571 -0.34642601 1.173447
2.2383039 -0.315348 1.170079
2.2814579 -0.31254199 1.1720949
2.2862799 -0.31099001 1.171863
2.284862 -0.297416 1.172413
2.308337 -0.28102899 1.174991
2.26285 -0.25958499 1.170825
2.3320949 -0.44570899 1.176048
2.312681 -0.43169901 1.178771
2.3017421 -0.405435 1.175892
2.3450141 -0.39375699 1.1772979
2.2878289 -0.38269201 1.177356
2.26861 -0.36480001 1.179844
2.277386 -0.339504 1.177176
2.3003471 -0.33510101 1.175089
2.2835939 -0.32682401 1.179085
2.301893 -0.32404399 1.178311
2.232116 -0.29548001 1.1758929
2.286622 -0.266312 1.179477
2.362046 -0.420385 1.1831959
2.305392 -0.40759 1.181931
2.312789 -0.394806 1.183164
2.2872 -0.387003 1.182791
2.29545 -0.385232 1.1818039
2.295316 -0.36414 1.181746
2.298573 -0.31022701 1.180132
2.277616 -0.30722299 1.184723
2.2736211 -0.29801399 1.184934
2.246732 -0.28753299 1.18296
2.3324969 -0.28722501 1.1834691
2.2547319 -0.275455 1.181939
2.349936 -0.449092 1.189214
2.3106229 -0.442615 1.185519
2.3229549 -0.43248799 1.186507
2.3499639 -0.428395 1.187881
2.3057909 -0.409206 1.185737
2.286422 -0.39197701 1.186932
2.3067629 -0.37504399 1.188848
2.2891569 -0.36502999 1.187716
2.306663 -0.364043 1.189801
2.2889509 -0.33893499 1.185186
2.29251 -0.320573 1.187928
2.295742 -0.32028401 1.189379
2.2758031 -0.28095901 1.185222
2.2515359 -0.27561101 1.188993
2.2722211 -0.269115 1.1884969
2.3687019 -0.450775 1.190851
2.3210609 -0.43559399 1.192377
2.3045969 -0.42285299 1.191204
2.331177 -0.41341099 1.1908849
2.2970431 -0.39206299 1.194732
2.3071871 -0.37998199 1.190218
2.300736 -0.35528201 1.194533
2.2859721 -0.34684199 1.191707
2.313823 -0.34512699 1.193987
2.282865 -0.344827 1.193628
2.25054 -0.32421699 1.192104
2.292835 -0.307587 1.19112
2.290082 -0.29443601 1.19315
2.321985 -0.44083899 1.195996
2.3146605 -0.41609049 1.1988235
2.2985699 -0.40309101 1.196888
2.3529871 -0.40392801 1.196005
2.3234501 -0.39160201 1.197647
2.2794869 -0.372704 1.1954269
2.3319039 -0.36997101 1.198595
2.3079441 -0.31975701 1.197804
2.2442999 -0.30418301 1.1979671
2.2913079 -0.27922499 1.197029
2.3321691 -0.44185799 1.2038831
2.3609281 -0.436362 1.203588
2.370018 -0.430556 1.201903
2.3421891 -0.413982 1.200618
2.322629 -0.39799201 1.203684
2.3083701 -0.39484599 1.204301
2.2925429 -0.38332799 1.2025729
2.261364 -0.36285901 1.200673
2.298243 -0.34838501 1.202709
2.294709 -0.33552 1.200217
2.278198 -0.33242899 1.2044441
2.284673 -0.306045 1.200767
2.3143981 -0.30073899 1.201789
2.377507 -0.46447301 1.208257
2.3578401 -0.45917499 1.207759
2.379667 -0.45874199 1.2065589
2.368067 -0.41965699 1.207812
2.3150909 -0.39006501 1.208763
2.315954 -0.373492 1.207323
2.296937 -0.35480899 1.207414
2.305202 -0.32957801 1.206894
2.288682 -0.31575701 1.205902
2.300807 -0.31775799 1.209826
2.2815909 -0.27864501 1.206169
2.348192 -0.45381001 1.214661
2.3312891 -0.44997999 1.213221
2.36096 -0.41409901 1.214711
2.3340402 -0.39908451 1.212646
2.315675 -0.37718901 1.210385
2.3020239 -0.37447199 1.210263
2.3232839 -0.354422 1.211502
2.2804899 -0.343804 1.2139421
2.299453 -0.30396599 1.210822
2.282656 -0.295995 1.211587
2.2768359 -0.29151601 1.213606
2.3057041 -0.28505799 1.214806
2.263988 -0.28422001 1.211364
2.33429 -0.445721 1.215151
2.371892 -0.44432899 1.219296
2.3522649 -0.42282802 1.216439
2.3099239 -0.41249001 1.2183501
2.2946639 -0.40353 1.21939
2.3413651 -0.37926501 1.2161109
2.2956779 -0.35409799 1.216226
2.3173151 -0.32928699 1.215475
2.2961535 -0.31405199 1.2182004
2.4436409 -0.46115801 1.221177
2.3690879 -0.44881499 1.221166
2.377991 -0.440727 1.2206089
2.3420651 -0.43371701 1.22044
2.3278899 -0.425172 1.221164
2.359447 -0.40410799 1.220719
2.303848 -0.392564 1.224082
2.3530381 -0.37992799 1.224782
2.2722969 -0.37185001 1.221982
2.3348701 -0.371014 1.221622
2.3079009 -0.36277601 1.223122
2.3075349 -0.35783499 1.220232
2.2883821 -0.34145701 1.2224319
2.2893319 -0.33372301 1.222188
2.3867991 -0.473923 1.22578
2.3950219 -0.46735501 1.2265069
2.3956089 -0.45379499 1.229936
2.377528 -0.428951 1.225327
2.3453791 -0.407536 1.229063
2.370899 -0.405249 1.229435
2.3519011 -0.39764199 1.22752
2.2883179 -0.383156 1.225352
2.352391 -0.381753 1.225583
2.3327451 -0.36371601 1.229018
2.2662699 -0.352088 1.227667
2.2999549 -0.32443401 1.227438
2.2829859 -0.31334901 1.22815
2.3366899 -0.30986401 1.22846
2.2878881 -0.29954699 1.22944
2.413691 -0.47863799 1.234544
2.462904 -0.443542 1.2336659
2.3606679 -0.433157 1.234074
2.3901689 -0.426871 1.231572
2.350826 -0.38855901 1.233626
2.326685 -0.338817 1.233147
2.306777 -0.322106 1.232434
2.2938781 -0.304508 1.23317
2.2766399 -0.29297501 1.234112
2.3152449 -0.294431 1.23247
2.454782 -0.46925399 1.237139
2.360168 -0.46379599 1.236637
2.3783801 -0.45826501 1.238688
2.368907 -0.41340199 1.238234
2.3445549 -0.36722401 1.238422
2.3086891 -0.36352599 1.239204
2.344547 -0.36413801 1.2378
2.325666 -0.34466499 1.235428
2.3334811 -0.31948599 1.237118
2.3539889 -0.44353399 1.242465
2.3869891 -0.43824601 1.242843
2.3823321 -0.412343 1.244411
2.3624079 -0.389458 1.242453
2.3897569 -0.386383 1.241026
2.296983 -0.35173401 1.242082
2.2856181 -0.33278701 1.241276
2.3247321 -0.30351201 1.2449141
2.4050701 -0.46308899 1.2474509
2.375608 -0.45759699 1.246438
2.4549389 -0.428776 1.2467149
2.34781 -0.42327201 1.248294
2.38027 -0.41477901 1.247107
2.369951 -0.36959401 1.246412
2.302289 -0.34297699 1.245218
2.3178289 -0.33013701 1.2482671
2.3181939 -0.323026 1.246165
2.3455889 -0.47229001 1.2507091
2.4933341 -0.47463101 1.2528009
2.446882 -0.45460799 1.250082
2.3699601 -0.44260699 1.251597
2.369096 -0.43669 1.252556
2.3349111 -0.41457301 1.2504719
2.3416309 -0.40301099 1.254122
2.388186 -0.394649 1.25106
2.3818569 -0.371737 1.253969
2.3367181 -0.352696 1.251261
2.364156 -0.34501299 1.250976
2.3430221 -0.328859 1.254782
2.3247869 -0.30380401 1.250134
2.387671 -0.467715 1.256211
2.3394101 -0.45202801 1.256537
2.3783691 -0.42269599 1.2557499
2.328455 -0.39384601 1.256537
2.400898 -0.39447901 1.256988
2.3354521 -0.38274899 1.25995
2.3539181 -0.37366799 1.2554719
2.3612571 -0.35391301 1.259429
2.32303 -0.32283199 1.259383
2.3053 -0.31316301 1.2551171
2.3097041 -0.307235 1.259183
2.3866351 -0.47491199 1.264931
2.3615439 -0.46650901 1.261922
2.39645 -0.44753999 1.260358
2.466172 -0.43693799 1.262807
2.361541 -0.42694899 1.264505
2.41994 -0.41722 1.260006
2.371779 -0.39898801 1.260125
2.379492 -0.37896699 1.2640769
2.3219991 -0.37312001 1.262602
2.2969699 -0.34167799 1.263292
2.3033161 -0.34191701 1.264304
2.355592 -0.32908699 1.264106
2.3099921 -0.31560799 1.261106
2.485369 -0.459865 1.2658499
2.379252 -0.452057 1.26912
2.355032 -0.445602 1.2680399
2.397727 -0.40402201 1.268724
2.419812 -0.37631801 1.269769
2.3220551 -0.364297 1.267274
2.329273 -0.36248699 1.2657779
2.3736069 -0.35462499 1.2687989
2.357635 -0.482517 1.273175
2.3969629 -0.477164 1.273734
2.359874 -0.433083 1.27074
2.38783 -0.43199101 1.273265
2.34852 -0.424694 1.274158
2.41204 -0.402574 1.272949
2.3632879 -0.38319799 1.2731431
2.3806119 -0.334492 1.2725461
2.3474801 -0.47542 1.277406
2.351403 -0.46208301 1.279053
2.405911 -0.45683399 1.277873
2.4774041 -0.44510001 1.278899
2.4582069 -0.42217201 1.275856
2.3536429 -0.41264901 1.2766171
2.38115 -0.40851799 1.277797
2.3430459 -0.36675501 1.276956
2.3430481 -0.35306099 1.277029
2.316915 -0.32196301 1.2774349
2.321044 -0.32363901 1.27694
2.418941 -0.497868 1.282627
2.3960171 -0.48412901 1.2823
2.3409679 -0.45451301 1.283524
2.345171 -0.44164899 1.2849309
2.3708329 -0.43639901 1.282028
2.3474109 -0.39221501 1.282495
2.3890331 -0.38834101 1.281741
2.3588221 -0.36875701 1.282928
2.31428 -0.349884 1.2800111
2.3650429 -0.33869901 1.281929
2.3365359 -0.33215299 1.283147
2.4420741 -0.50651997 1.2870899
2.342932 -0.491083 1.287366
2.416873 -0.45916 1.2871031
2.334456 -0.433606 1.289642
2.407268 -0.41339499 1.286388
2.450242 -0.40740699 1.288904
2.40414 -0.38792899 1.285892
2.3411789 -0.37178099 1.288373
2.3547981 -0.36740699 1.286162
2.353061 -0.491824 1.29124
2.333416 -0.484332 1.292889
2.4347351 -0.48448101 1.291757
2.3367 -0.470649 1.293244
2.39729 -0.44128501 1.290781
2.469439 -0.430334 1.291947
2.3389399 -0.421215 1.290808
2.401073 -0.38977399 1.291315
2.3803401 -0.372659 1.294758
2.3349481 -0.351347 1.294251
2.3621049 -0.34760499 1.29011
2.358156 -0.32779899 1.292798
2.4053991 -0.49334499 1.299669
2.4098821 -0.48141101 1.295435
2.347208 -0.47190601 1.29655
2.4153719 -0.46612799 1.2953891
2.3269041 -0.46342501 1.2990071
2.3304689 -0.45021501 1.299122
2.390521 -0.41804901 1.295468
2.3985751 -0.39771399 1.299405
2.396239 -0.373283 1.298835
2.377198 -0.350541 1.295817
2.3744941 -0.34831101 1.299752
2.426244 -0.46869001 1.304775
2.341356 -0.451987 1.301859
2.4083819 -0.443369 1.300122
2.3242371 -0.42978099 1.304999
2.41681 -0.422768 1.304052
2.4614739 -0.41556901 1.304996
2.442277 -0.39264101 1.301953
2.392509 -0.37384799 1.304445
2.3193519 -0.49324399 1.308373
2.4441061 -0.49401101 1.309428
2.3219979 -0.479215 1.307435
2.3318679 -0.47979999 1.3092591
2.4008231 -0.46495399 1.308244
2.4067509 -0.45057899 1.308296
2.3203919 -0.44251701 1.305126
2.3595541 -0.40184301 1.30542
2.38203 -0.40225801 1.308486
2.3716459 -0.356978 1.3077739
2.363451 -0.50171202 1.312742
2.417855 -0.49158201 1.314142
2.3968501 -0.47792599 1.3124681
2.31284 -0.47233599 1.314491
2.3260159 -0.45988199 1.314568
2.3998921 -0.42757899 1.31314
2.3532691 -0.381235 1.311348
2.4182489 -0.378667 1.3128639
2.4151151 -0.35494801 1.311959
2.387114 -0.50481999 1.316572
2.446553 -0.450461 1.318524
2.3612161 -0.43350101 1.315986
2.3447249 -0.410483 1.319732
2.4081161 -0.407087 1.3170691
2.45351 -0.400803 1.318045
2.4343121 -0.37787601 1.315002
2.3469839 -0.36062601 1.317276
2.383945 -0.35792199 1.317575
2.3052881 -0.50215501 1.3238569
2.3072951 -0.48778 1.3216259
2.4356151 -0.47821999 1.322446
2.3424671 -0.46033999 1.322188
2.4263511 -0.43214101 1.321717
2.355315 -0.41341799 1.321339
2.4019599 -0.38345999 1.322268
2.3479841 -0.50967199 1.325557
2.396668 -0.50745398 1.3255171
2.4062321 -0.48714301 1.329837
2.2987759 -0.48124799 1.329975
2.4087961 -0.47512501 1.326951
2.3010631 -0.46734601 1.327504
2.4162121 -0.45987299 1.325811
2.3457489 -0.44146201 1.328801
2.3361821 -0.439731 1.328117
2.419975 -0.40899801 1.326961
2.3494151 -0.393334 1.3266931
2.3384399 -0.38987401 1.32566
2.409481 -0.36285201 1.325992
2.426348 -0.36311001 1.32805
2.3964181 -0.51396 1.333797
2.396282 -0.50335997 1.331725
2.342083 -0.48958901 1.33091
2.437989 -0.434535 1.331654
2.339848 -0.42137799 1.334154
2.3298969 -0.41912201 1.3340451
2.4176569 -0.41646001 1.334733
2.3994219 -0.391406 1.330086
2.445545 -0.38603699 1.331093
2.292592 -0.496346 1.335817
2.416419 -0.489856 1.33921
2.3361821 -0.46950501 1.3362629
2.427124 -0.46243 1.335465
2.3997369 -0.45866799 1.339759
2.4358921 -0.44151399 1.339381
2.2886 -0.42647901 1.339259
2.3339479 -0.40129501 1.339507
2.323611 -0.39851299 1.339973
2.3933959 -0.36753401 1.335397
2.378103 -0.518655 1.341977
2.326616 -0.497549 1.343724
2.3873019 -0.48704499 1.3444231
2.3976841 -0.471724 1.3426369
2.321353 -0.44837001 1.342429
2.330281 -0.449422 1.341616
2.429425 -0.41860899 1.344784
2.411411 -0.39307201 1.340091
2.359303 -0.37006599 1.340724
2.3695199 -0.37420499 1.34115
2.4191041 -0.37230501 1.3438081
2.4375801 -0.371272 1.344142
2.375031 -0.514938 1.349005
2.3879409 -0.498669 1.34649
2.320715 -0.477465 1.3490781
2.280129 -0.45547801 1.347573
2.4474399 -0.44414699 1.3494771
2.437495 -0.39757401 1.348495
2.317327 -0.377904 1.345901
2.36357 -0.353953 1.346548
2.27789 -0.50491202 1.350008
2.3698239 -0.50325698 1.354672
2.2437699 -0.497141 1.351855
2.279995 -0.48356599 1.352697
2.312809 -0.47761801 1.350814
2.408 -0.47419801 1.352119
2.3148141 -0.45738199 1.354431
2.3906789 -0.442211 1.352568
2.2738969 -0.43504399 1.3534499
2.4271989 -0.42583299 1.352398
2.3087831 -0.407152 1.354285
2.3539231 -0.382231 1.354072
2.4318471 -0.37402299 1.354267
2.3111479 -0.50550902 1.356539
2.2716579 -0.484478 1.355886
2.379463 -0.48337701 1.359183
2.237314 -0.47641501 1.3579201
2.3493879 -0.472592 1.355798
2.3891349 -0.45630401 1.355436
2.308913 -0.437298 1.359784
2.3502259 -0.43076101 1.356198
2.420862 -0.40268299 1.357913
2.3479731 -0.36197999 1.35947
2.2631869 -0.51347798 1.364199
2.2705071 -0.511379 1.3600971
2.369962 -0.51000398 1.362869
2.366127 -0.498763 1.361594
2.2654259 -0.464044 1.361764
2.2308581 -0.455688 1.363986
2.4388759 -0.42822099 1.362607
2.344276 -0.41050899 1.361596
2.3024981 -0.38654301 1.360213
2.4287269 -0.38175899 1.361623
2.2298269 -0.50597602 1.367205
2.2646551 -0.49146101 1.365406
2.389184 -0.485771 1.368494
2.2993469 -0.46534199 1.367246
2.3404851 -0.45641801 1.368386
2.39958 -0.45853999 1.365027
2.2591951 -0.44361001 1.367641
2.408432 -0.43806899 1.369141
2.447119 -0.40702799 1.366311
2.338326 -0.39025801 1.366994
2.351644 -0.51440001 1.3707581
2.223372 -0.48524901 1.37327
2.357224 -0.48258901 1.3741831
2.2588029 -0.471542 1.370715
2.370986 -0.468086 1.371876
2.2934461 -0.44525799 1.372599
2.32868 -0.41853601 1.374518
2.412298 -0.38675699 1.371043
2.332376 -0.37000701 1.372391
2.325762 -0.52320999 1.378024
2.345391 -0.51027799 1.378477
2.249315 -0.499356 1.378116
2.2831521 -0.49489599 1.379439
2.3615539 -0.49483901 1.375458
2.2507241 -0.47261 1.375955
2.2169161 -0.464522 1.379336
2.2529509 -0.45162401 1.376025
2.391161 -0.44288301 1.377936
2.251112 -0.436349 1.379297
2.287545 -0.42517501 1.377952
2.320771 -0.41699499 1.378054
2.4303131 -0.41229501 1.375736
2.409811 -0.39447099 1.378431
2.2422531 -0.50160998 1.384268
2.370682 -0.497152 1.384598
2.243463 -0.47943699 1.383425
2.3532641 -0.47246099 1.380061
2.2444921 -0.452176 1.381832
2.3625081 -0.452795 1.384569
2.3895929 -0.43592599 1.384083
2.247098 -0.431705 1.3813339
2.2791259 -0.42443001 1.38291
2.428046 -0.419525 1.3830791
2.360707 -0.52361703 1.387848
2.2020221 -0.50820899 1.389009
2.209429 -0.494084 1.38862
2.38029 -0.47722599 1.389101
2.348321 -0.466414 1.386772
2.2376111 -0.459519 1.388734
2.3487799 -0.39945799 1.3895
2.4217491 -0.39636901 1.3888659
2.3167801 -0.37803301 1.385313
2.2972629 -0.52298701 1.393468
2.234868 -0.51884401 1.39327
2.194315 -0.51305997 1.394083
2.2339749 -0.50725001 1.390825
2.34396 -0.50611103 1.391468
2.3365631 -0.494241 1.390959
2.236021 -0.48117599 1.390146
2.344985 -0.45706201 1.392756
2.2370479 -0.44525999 1.394781
2.2317581 -0.43959999 1.394043
2.3827419 -0.42722499 1.3908449
2.307133 -0.40631101 1.392837
2.341615 -0.39725 1.39369
2.401118 -0.37878901 1.391448
2.2299809 -0.49910399 1.3981479
2.228122 -0.48733199 1.396134
2.362402 -0.481754 1.397293
2.3394179 -0.45023999 1.399361
2.3540299 -0.43750301 1.397262
2.264297 -0.43306899 1.397223
2.3805339 -0.419469 1.396892
