# .PCD v0.7 - Point Cloud Data file format
VERSION 0.7
FIELDS x y z
SIZE 4 4 4
TYPE F F F
COUNT 1 1 1
WIDTH 199
HEIGHT 1
VIEWPOINT 0 0 0 1 0 0 0
POINTS 199
DATA ascii
1.06173 -0.72154802 2.409862
1.075635 -0.73701602 2.4192309
1.08869 -0.734541 2.4227569
1.071566 -0.70497799 2.433665
1.065052 -0.753631 2.435642
1.075325 -0.74300897 2.4374709
1.105616 -0.74132299 2.4449501
1.059917 -0.73289299 2.440768
1.085175 -0.72062099 2.443018
1.098554 -0.71834099 2.4462781
1.079175 -0.70019901 2.448462
1.056163 -0.64276397 2.4490399
1.0607539 -0.75428599 2.4547369
1.075447 -0.749138 2.4506061
1.092314 -0.69830698 2.452141
1.091038 -0.74981701 2.459022
1.0860749 -0.67827302 2.458004
1.031485 -0.76798499 2.460098
1.092811 -0.76190299 2.461591
1.0546269 -0.73419303 2.460516
1.0848579 -0.72955501 2.4648499
1.085078 -0.72688001 2.4611149
1.0798351 -0.65823901 2.463866
1.061174 -0.638933 2.464792
1.0649019 -0.58999503 2.4626479
1.063246 -0.76534301 2.4670229
1.088371 -0.74043697 2.465934
1.115597 -0.72483701 2.46925
1.069815 -0.716277 2.465029
1.078838 -0.706846 2.4669781
1.051451 -0.62959898 2.4677081
1.074616 -0.76798499 2.473052
1.058068 -0.74442899 2.4721911
1.08506 -0.73270601 2.474854
1.078679 -0.70929301 2.4706781
1.088819 -0.68335098 2.472692
1.047049 -0.60831499 2.472014
1.061424 -0.75171298 2.4753571
1.070176 -0.74651802 2.4773941
1.05691 -0.73024899 2.479634
1.0528899 -0.72351497 2.47736
1.1093661 -0.70440298 2.4751279
1.082768 -0.66275603 2.4781821
1.0474809 -0.779257 2.482116
1.056422 -0.77406597 2.484513
1.075249 -0.761464 2.482506
1.041142 -0.75166702 2.4845231
1.065737 -0.725052 2.4817369
1.0641 -0.71778703 2.48475
1.079008 -0.71210998 2.4803441
1.052397 -0.708785 2.483911
1.103134 -0.68396902 2.4810059
1.070612 -0.65457201 2.483304
1.040478 -0.779805 2.4879
1.069198 -0.74086899 2.4879961
1.0798711 -0.69937301 2.4896901
1.072957 -0.69151402 2.4858339
1.047883 -0.68732101 2.4881871
1.096903 -0.663535 2.4868841
1.089708 -0.64126003 2.487932
1.070666 -0.62156498 2.489161
1.035971 -0.75845098 2.4917271
1.0631469 -0.72027302 2.4934859
1.0991009 -0.72329098 2.490464
1.094623 -0.701639 2.494844
1.088703 -0.69027603 2.49107
1.074648 -0.67828 2.4949031
1.066906 -0.670919 2.491323
1.04337 -0.665856 2.4924641
1.083416 -0.62105697 2.493844
1.0646141 -0.60096902 2.4946511
1.057096 -0.69967699 2.498975
1.088432 -0.69253498 2.4951971
1.090145 -0.67998701 2.4992239
1.0824111 -0.67007297 2.4969821
1.060855 -0.65032297 2.4968131
1.038857 -0.64439201 2.4967411
1.047977 -0.63918698 2.4991059
1.0628 -0.70667303 2.5021269
1.038662 -0.68820101 2.5018821
1.051044 -0.67908198 2.5044651
1.0822001 -0.67210102 2.501075
1.0694259 -0.65718699 2.5001149
1.034343 -0.62292802 2.501018
1.043538 -0.61772001 2.503449
1.057392 -0.76245499 2.5070651
1.066875 -0.75721198 2.509203
1.050952 -0.735066 2.509351
1.0762711 -0.70777297 2.5064039
1.057578 -0.68558002 2.50734
1.044993 -0.65848601 2.509954
1.064204 -0.63609302 2.5053279
1.02983 -0.60146397 2.505295
1.039098 -0.59625399 2.507791
1.05284 -0.74080497 2.511379
1.062397 -0.73555899 2.5135829
1.020468 -0.694282 2.5133431
1.071793 -0.68612099 2.5107839
1.106882 -0.64623803 2.5117359
1.096826 -0.63227302 2.5128031
1.0589809 -0.61500001 2.510541
1.0635329 -0.60946602 2.5147181
1.035103 -0.790371 2.5188439
1.053001 -0.784998 2.5163829
1.044983 -0.74145502 2.5162959
1.048287 -0.71915501 2.5156929
1.057919 -0.713907 2.5179629
1.040507 -0.69287997 2.5197771
1.067314 -0.664469 2.5151639
1.093397 -0.603616 2.518362
1.0485229 -0.76334602 2.5207629
1.0404381 -0.71991903 2.520155
1.035892 -0.69838202 2.524014
1.043735 -0.697505 2.5200069
1.0391819 -0.67585498 2.5243211
1.035285 -0.67178702 2.5249889
1.092384 -0.65304798 2.5215271
1.087051 -0.58324099 2.5243239
1.026013 -0.747298 2.526562
1.031347 -0.67684603 2.527873
1.048962 -0.67060298 2.5267241
1.0920531 -0.65487701 2.5260479
1.086038 -0.63267398 2.5274889
1.041227 -0.62792999 2.525326
1.06431 -0.61212897 2.5271859
1.021468 -0.72576201 2.530421
1.0251189 -0.703637 2.5311379
1.067657 -0.668275 2.532634
1.049401 -0.57786 2.5326841
1.03061 -0.67673701 2.5382831
1.062389 -0.646999 2.5378931
1.022257 -0.63377303 2.5355909
1.117079 -0.62865102 2.537071
1.017712 -0.61223602 2.5394499
1.069072 -0.59708399 2.5358641
1.073346 -0.59192598 2.539413
1.044223 -0.77351803 2.5439179
1.048674 -0.75153798 2.543643
1.0863349 -0.63613802 2.5413859
1.057122 -0.625723 2.5431499
1.110739 -0.60786301 2.5430501
1.044082 -0.72969902 2.5479951
1.051854 -0.60444701 2.548408
1.1044 -0.58707601 2.5490301
1.097136 -0.56532502 2.549299
1.054456 -0.72440201 2.550369
1.040434 -0.65900898 2.553025
1.045171 -0.65436202 2.550437
1.059417 -0.65269101 2.551964
1.070199 -0.64444202 2.554754
1.1021219 -0.63736498 2.551507
1.076457 -0.72247398 2.555079
1.034897 -0.68602097 2.5566981
1.054899 -0.63085002 2.5563819
1.106365 -0.58877999 2.5592129
1.089443 -0.59579003 2.5634661
1.079313 -0.57884997 2.561594
1.1001559 -0.56764603 2.564847
1.074 -0.55738902 2.5668981
1.090089 -0.597157 2.5726991
1.061945 -0.58627802 2.5742481
1.093946 -0.54651099 2.5704801
1.1074409 -0.54710501 2.5747571
1.068686 -0.535927 2.572202
1.055203 -0.63662797 2.5762949
1.083879 -0.57602203 2.5783319
1.056631 -0.564816 2.5795519
1.063373 -0.51446599 2.5775061
1.080021 -0.62666798 2.5805509
1.099955 -0.576666 2.5840421
1.07767 -0.55488801 2.583966
1.108242 -0.54784501 2.580909
1.051318 -0.54335499 2.584856
1.073812 -0.605533 2.586184
1.0404069 -0.59702998 2.5864329
1.044576 -0.593705 2.5869019
1.0995491 -0.577604 2.5894401
1.07146 -0.53375298 2.5895989
1.09453 -0.50565201 2.5868881
1.075318 -0.48310801 2.5873799
1.067602 -0.58439898 2.5918181
1.0934989 -0.55593902 2.590107
1.0460041 -0.52189302 2.5901589
1.095452 -0.50590801 2.592973
1.0577461 -0.491853 2.593363
1.088074 -0.484925 2.592953
1.069108 -0.46197301 2.593013
1.0474319 -0.45008099 2.5934169
1.061393 -0.56326503 2.597451
1.065251 -0.51261902 2.595232
1.089057 -0.48493901 2.599004
1.051407 -0.47106501 2.5993431
1.081619 -0.46419799 2.5990191
1.084461 -0.58639401 2.604003
1.0551831 -0.54212999 2.6030841
1.117898 -0.52856302 2.6006279
1.059041 -0.49148399 2.6008649
1.0803649 -0.51469803 2.6075349
1.0826631 -0.46397001 2.605036
