# .PCD v0.7 - Point Cloud Data file format
VERSION 0.7
FIELDS x y z
SIZE 4 4 4
TYPE F F F
COUNT 1 1 1
WIDTH 210
HEIGHT 1
VIEWPOINT 0 0 0 1 0 0 0
POINTS 210
DATA ascii
2.085546 -0.39720401 1.541097
2.069442 -0.404091 1.55283
2.1360431 -0.41490099 1.567643
2.110877 -0.40461099 1.57034
2.0252459 -0.41608101 1.577824
2.0759439 -0.41248 1.57576
2.0554199 -0.41435701 1.580152
2.0939851 -0.41025701 1.5809799
2.0597081 -0.41942301 1.587589
2.038662 -0.419958 1.590708
2.1227379 -0.40948701 1.592634
2.0946331 -0.42634001 1.595626
2.0290899 -0.42317399 1.599472
2.1056039 -0.415131 1.60288
2.0796759 -0.43505299 1.610062
2.043309 -0.42719501 1.6129
2.066113 -0.42800301 1.610958
2.064719 -0.44376701 1.624498
2.0497439 -0.43500301 1.622885
2.0330651 -0.43038601 1.621503
2.1070819 -0.420118 1.6238149
2.0333741 -0.44200301 1.63481
2.009526 -0.43848699 1.634179
2.049762 -0.452481 1.638935
2.0486856 -0.43459851 1.635287
2.051403 -0.43494999 1.6382411
2.045295 -0.41527399 1.638623
1.9926341 -0.44413301 1.644819
1.99735 -0.44254547 1.641679
2.037066 -0.437709 1.643863
2.043422 -0.431694 1.644914
2.017005 -0.44900301 1.646736
1.978696 -0.448722 1.650692
1.9820679 -0.44718599 1.651998
1.996645 -0.449534 1.652421
2.035675 -0.44304499 1.6512721
2.0006361 -0.45600301 1.658662
2.028466 -0.44040799 1.659351
2.0523551 -0.44155499 1.656595
1.9577 -0.43470901 1.663303
2.048234 -0.42202601 1.660094
1.981048 -0.45756099 1.665343
1.984267 -0.46300301 1.670588
1.981112 -0.455681 1.672098
1.985664 -0.45464301 1.674601
2.013509 -0.44912201 1.673787
1.965451 -0.465588 1.678265
1.941958 -0.46107101 1.676739
2.0184579 -0.453491 1.67996
1.979259 -0.44277701 1.6755871
2.0467601 -0.420867 1.67744
1.967898 -0.47000301 1.682514
1.964044 -0.46093801 1.681335
1.968529 -0.460287 1.684846
1.9982181 -0.438811 1.682777
1.936123 -0.427901 1.680307
1.925066 -0.466717 1.687379
1.998551 -0.457836 1.688224
1.96289 -0.44977701 1.687513
1.992218 -0.41838899 1.68822
1.931156 -0.407839 1.6852649
1.951528 -0.47700301 1.69444
1.949855 -0.47361401 1.691187
1.9469759 -0.46619499 1.690572
1.942886 -0.44681799 1.694044
2.031673 -0.42965701 1.692003
1.929908 -0.47145301 1.699809
1.951395 -0.46593201 1.695092
1.94652 -0.45677701 1.699439
1.9824899 -0.446906 1.695807
1.916822 -0.42685899 1.695442
1.9127001 -0.40692899 1.699473
2.0252781 -0.40868801 1.698034
1.9835939 -0.46654999 1.70266
1.925818 -0.452075 1.703281
1.941669 -0.448603 1.703838
1.97649 -0.42648399 1.701251
1.91284 -0.47670999 1.7090451
1.934261 -0.47157601 1.705338
1.93007 -0.45164901 1.709309
1.9667619 -0.45500001 1.708838
1.977255 -0.44576201 1.70864
2.0165851 -0.438447 1.706565
1.89993 -0.43250501 1.706082
1.97049 -0.40606201 1.706694
1.9448251 -0.48022401 1.710196
1.928797 -0.474383 1.710499
1.924642 -0.45429501 1.714563
1.999193 -0.44490099 1.7100331
1.960762 -0.434578 1.714282
2.010191 -0.417478 1.712597
1.895808 -0.41257501 1.710113
1.918662 -0.48966801 1.717031
1.95711 -0.48613301 1.718899
1.895772 -0.481967 1.718282
1.957034 -0.48351601 1.716426
1.9171261 -0.47722101 1.715584
1.968637 -0.47526401 1.717097
1.912936 -0.457293 1.719555
1.963516 -0.43828601 1.716954
1.954762 -0.41415599 1.719725
1.91177 -0.480075 1.721224
1.9520611 -0.465738 1.7239389
1.9510339 -0.463094 1.721869
1.893025 -0.45031601 1.720448
1.962298 -0.454476 1.723076
1.908746 -0.43736601 1.723525
1.958467 -0.41789201 1.721994
1.899992 -0.48286501 1.72583
1.895802 -0.46293801 1.7298
1.9076149 -0.459986 1.725288
1.927829 -0.459113 1.7252541
1.947011 -0.445344 1.728979
1.887593 -0.443212 1.725227
1.946283 -0.43342099 1.7262011
1.995103 -0.42626801 1.727159
1.904556 -0.41743901 1.727496
1.940605 -0.493191 1.7309231
1.894743 -0.48576599 1.731949
1.935306 -0.47118801 1.7349
1.910628 -0.46441099 1.734563
1.861636 -0.49248099 1.736756
1.935329 -0.49153799 1.739096
1.882858 -0.48851001 1.736076
1.897413 -0.477777 1.735217
1.9355561 -0.47279599 1.735963
1.890588 -0.46567699 1.7360131
1.968086 -0.44423199 1.739926
1.925578 -0.49970499 1.742487
1.897549 -0.48923701 1.7403719
1.977718 -0.48578501 1.744221
1.931776 -0.47262001 1.742242
1.893428 -0.46970901 1.743871
1.929306 -0.450766 1.740343
1.9305069 -0.452402 1.741004
1.924256 -0.44167501 1.742213
1.980016 -0.435058 1.741722
1.8445669 -0.49773899 1.745993
1.918033 -0.49608201 1.746883
1.879676 -0.479792 1.745155
1.919578 -0.479283 1.747931
1.8761491 -0.461014 1.748278
1.911741 -0.44479999 1.746856
1.923306 -0.43034399 1.745787
1.907596 -0.50730699 1.7549731
1.823714 -0.50059402 1.751218
1.860688 -0.49714801 1.753399
1.8625081 -0.48430201 1.752885
1.876227 -0.475007 1.75318
1.91448 -0.47716299 1.750029
1.898693 -0.470577 1.7531821
1.971323 -0.464816 1.750252
1.9128357 -0.45885536 1.7531923
1.907091 -0.44741201 1.7530251
1.872622 -0.44223601 1.7514009
1.848868 -0.50759 1.757491
1.8485889 -0.49979901 1.756567
1.885645 -0.496353 1.7595069
1.898304 -0.49365199 1.755643
1.894115 -0.47340101 1.75974
1.858981 -0.46552399 1.756008
1.894469 -0.45049 1.757184
1.964928 -0.44384801 1.756284
1.908952 -0.43906599 1.758068
1.845341 -0.488812 1.760614
1.902546 -0.48691201 1.760013
1.881421 -0.47626701 1.76351
1.841814 -0.470034 1.763737
1.889927 -0.45314899 1.763837
1.908363 -0.45191699 1.760466
1.8317 -0.51209998 1.765221
1.845947 -0.50513101 1.768298
1.828173 -0.49332201 1.768344
1.8974971 -0.46651801 1.765053
1.877198 -0.45618001 1.767512
1.891028 -0.457257 1.769847
1.8507839 -0.44124901 1.769487
1.814532 -0.51661003 1.7729501
1.86415 -0.48195601 1.773838
1.87695 -0.47913799 1.770552
1.872762 -0.45888701 1.774648
1.872782 -0.44841301 1.771896
1.8924479 -0.44612399 1.770093
1.877846 -0.48227701 1.775702
1.859926 -0.461869 1.77784
1.873693 -0.46259701 1.779229
1.855486 -0.452957 1.779683
1.912867 -0.51676601 1.780147
1.851102 -0.50773299 1.780163
1.8468781 -0.48764601 1.784166
1.859785 -0.48487499 1.781364
1.841743 -0.47641799 1.784325
1.811546 -0.51572698 1.7869149
1.828001 -0.49987999 1.7889659
1.8605109 -0.48761699 1.7850831
1.856357 -0.46793601 1.78861
1.855597 -0.46462399 1.78546
1.83819 -0.45750001 1.7874711
1.814258 -0.52334201 1.793607
1.847329 -0.51263702 1.790938
1.843176 -0.49295601 1.7944649
1.824447 -0.48096201 1.792112
1.8107049 -0.50442398 1.796753
1.807151 -0.48550501 1.799899
1.820894 -0.46204299 1.795258
1.862594 -0.46956599 1.801827
1.813991 -0.53017801 1.814584
1.857897 -0.47521499 1.811636
1.820678 -0.46841699 1.8162481
1.840425 -0.48059601 1.8210911
