# .PCD v0.7 - Point Cloud Data file format
VERSION 0.7
FIELDS x y z
SIZE 4 4 4
TYPE F F F
COUNT 1 1 1
WIDTH 921
HEIGHT 1
VIEWPOINT 0 0 0 1 0 0 0
POINTS 921
DATA ascii
1.979359 -0.71442801 1.4834141
1.928196 -0.725999 1.498034
1.956596 -0.725088 1.495887
1.964507 -0.72207099 1.495719
1.9439811 -0.73354799 1.511881
1.929852 -0.73319298 1.528698
1.831859 -0.75173402 1.534059
1.913658 -0.73818099 1.537462
1.8159781 -0.75704199 1.544062
1.930778 -0.74822903 1.542172
1.844232 -0.75623399 1.549474
1.9144239 -0.75361699 1.5519511
1.881271 -0.74815702 1.554989
1.941738 -0.75719798 1.556481
1.8980711 -0.759004 1.56173
1.925367 -0.76266998 1.566793
1.948295 -0.76062 1.565982
1.8466001 -0.76562798 1.570112
1.944944 -0.76592499 1.571431
1.882902 -0.75702399 1.574767
1.837598 -0.77059102 1.575565
1.866588 -0.76204902 1.583596
1.856918 -0.77986401 1.59333
1.840536 -0.78023601 1.596796
1.8405989 -0.78415102 1.600677
1.867936 -0.77942097 1.602489
1.804696 -0.76753199 1.6007971
1.82428 -0.78843701 1.608025
1.8555681 -0.78545702 1.609009
1.816304 -0.78593999 1.610625
1.851458 -0.78484899 1.612343
1.789961 -0.77511501 1.613005
1.851616 -0.77613199 1.612583
1.820928 -0.77058798 1.610993
1.8080029 -0.79190999 1.616317
1.843513 -0.79002899 1.618351
1.791642 -0.79701102 1.62272
1.79995 -0.791327 1.620404
1.8398449 -0.79218102 1.620464
1.835182 -0.78119397 1.621477
1.823686 -0.77943701 1.62404
1.836674 -0.80282402 1.629787
1.872834 -0.79945499 1.628502
1.775323 -0.80129802 1.630067
1.818748 -0.78625602 1.630371
1.759004 -0.80558503 1.6374151
1.796005 -0.80533499 1.638973
1.767244 -0.80210203 1.639961
1.8107719 -0.800973 1.638975
1.802313 -0.791318 1.639264
1.795468 -0.786865 1.636215
1.809582 -0.78765398 1.637653
1.783828 -0.78181201 1.636762
1.789817 -0.81503803 1.644815
1.773 -0.80775899 1.643363
1.873258 -0.80768901 1.640622
1.802022 -0.801135 1.641904
1.787878 -0.78743303 1.644295
1.823849 -0.814327 1.647608
1.716759 -0.80840099 1.647753
1.794401 -0.80644399 1.649286
1.785879 -0.79637998 1.648158
1.7682281 -0.78848302 1.648127
1.7399909 -0.820768 1.6509041
1.773383 -0.82010001 1.6537091
1.7574 -0.81443 1.654729
1.828477 -0.81023401 1.6549129
1.858408 -0.81360799 1.650452
1.893497 -0.81287998 1.653343
1.736082 -0.80224699 1.654223
1.7954791 -0.79587102 1.651266
1.771443 -0.79175103 1.651695
1.743063 -0.81281602 1.658193
1.758384 -0.81404501 1.656105
1.77803 -0.81191599 1.659598
1.821682 -0.81493998 1.658327
1.7694449 -0.80144203 1.657052
1.752628 -0.79515398 1.659492
1.769065 -0.81199199 1.661612
1.7813751 -0.804088 1.664878
1.7305371 -0.79385698 1.663309
1.739099 -0.79364902 1.66207
1.674633 -0.831384 1.665621
1.881164 -0.82054901 1.665975
1.718183 -0.81826299 1.6692981
1.726817 -0.81824601 1.668426
1.65844 -0.83637202 1.674385
1.725513 -0.82268 1.670904
1.781139 -0.82218802 1.671427
1.863598 -0.82043898 1.673342
1.736576 -0.811566 1.67484
1.750912 -0.80979502 1.673131
1.7228529 -0.799079 1.672303
1.8287441 -0.82651198 1.67966
1.866707 -0.82897198 1.679929
1.70183 -0.82365102 1.679077
1.757712 -0.82261503 1.675032
1.767272 -0.81230402 1.678491
1.792707 -0.813133 1.679876
1.794394 -0.83646297 1.684314
1.757621 -0.83472598 1.683449
1.830246 -0.83274698 1.682137
1.720142 -0.81662798 1.683733
1.728007 -0.84941697 1.686927
1.759146 -0.84012198 1.686466
1.724606 -0.831312 1.6899379
1.737759 -0.80885798 1.685496
1.741064 -0.83982599 1.69241
1.797374 -0.83828998 1.691021
1.728917 -0.82833201 1.690533
1.818841 -0.82645702 1.693643
1.7037081 -0.82169002 1.692627
1.753168 -0.820521 1.692104
1.7212059 -0.81320602 1.6929491
1.658424 -0.845891 1.6950459
1.86575 -0.84487402 1.696844
1.818269 -0.83685303 1.69673
1.836706 -0.83690298 1.698738
1.678081 -0.83453602 1.699124
1.783975 -0.83140898 1.698539
1.654515 -0.827371 1.698364
1.756108 -0.82190901 1.696986
1.5986 -0.86018902 1.702011
1.6421109 -0.85091603 1.703874
1.691501 -0.84000802 1.704843
1.729782 -0.839248 1.700651
1.765084 -0.83734298 1.701099
1.80091 -0.83539802 1.701528
1.70315 -0.83370602 1.701027
1.7125469 -0.83380401 1.700845
1.687274 -0.82675201 1.701521
1.7946 -0.829009 1.703135
1.79777 -0.829099 1.702401
1.756817 -0.82391101 1.702036
1.704653 -0.817554 1.700402
1.69912 -0.81454098 1.704846
1.72373 -0.84008002 1.709278
1.638202 -0.83239502 1.707193
1.739064 -0.82873797 1.705717
1.6881 -0.82190198 1.707854
1.724972 -0.81981897 1.705453
1.765956 -0.85303199 1.711763
1.725119 -0.84567797 1.71334
1.757048 -0.84892398 1.7147141
1.7721519 -0.84084398 1.714729
1.78444 -0.84263003 1.713312
1.686671 -0.83913398 1.710881
1.732585 -0.83147901 1.713576
1.682642 -0.819969 1.7147
1.86842 -0.85549599 1.719804
1.611889 -0.84603298 1.7177351
1.636416 -0.8452 1.7181931
1.6455899 -0.84539598 1.719589
1.708593 -0.84912097 1.719287
1.781123 -0.83754897 1.717972
1.709249 -0.82654297 1.716908
1.722315 -0.82815802 1.715688
1.692181 -0.81996101 1.715064
1.6240619 -0.86960602 1.724182
1.641909 -0.860596 1.724859
1.690385 -0.84883898 1.724292
1.670193 -0.84456301 1.720735
1.679805 -0.84474802 1.721468
1.738735 -0.84352702 1.72203
1.705788 -0.83160102 1.721634
1.666163 -0.82539803 1.724553
1.752098 -0.86159098 1.728533
1.6200629 -0.85058701 1.727972
1.692066 -0.85256302 1.725233
1.637971 -0.84193802 1.728202
1.689262 -0.83504301 1.72758
1.68696 -0.830603 1.727324
1.693526 -0.83326697 1.728363
1.67581 -0.82543302 1.7253751
1.709447 -0.87174201 1.733368
1.625474 -0.86565799 1.733753
1.761894 -0.867746 1.734733
1.7973191 -0.85753602 1.73087
1.673713 -0.85321897 1.7317981
1.709977 -0.85056102 1.731601
1.760329 -0.85027999 1.730919
1.781895 -0.85348302 1.732245
1.711195 -0.84502298 1.734197
1.767647 -0.84608799 1.7328089
1.7317179 -0.84179997 1.731938
1.7460251 -0.84177351 1.732464
1.7577749 -0.84476697 1.731395
1.718869 -0.83802801 1.733006
1.7290961 -0.83977097 1.734485
1.649684 -0.83082598 1.7344069
1.660466 -0.875835 1.736272
1.657041 -0.85759902 1.739305
1.682613 -0.85941899 1.7350169
1.747085 -0.85354501 1.73528
1.677803 -0.83999097 1.739819
1.659439 -0.83090502 1.735687
1.692654 -0.87615299 1.740929
1.60904 -0.87072003 1.7426471
1.685569 -0.87457901 1.740214
1.7370059 -0.869358 1.741037
1.689872 -0.86045402 1.742924
1.7147419 -0.85960102 1.7420599
1.730347 -0.85202497 1.741608
1.70792 -0.84916902 1.743158
1.502243 -0.81681001 1.742154
1.490407 -0.81219101 1.7446049
1.628765 -0.88385302 1.74667
1.794422 -0.87108499 1.749698
1.6732301 -0.86392099 1.748911
1.661799 -0.85565603 1.746961
1.7485059 -0.85971498 1.7471091
1.637754 -0.85162699 1.74954
1.696224 -0.852727 1.7466
1.754171 -0.85462701 1.747645
1.711043 -0.84675997 1.745677
1.687047 -0.84281301 1.745288
1.523834 -0.82990003 1.7462161
1.533444 -0.81613302 1.745613
1.7219141 -0.87712502 1.753541
1.817017 -0.87243003 1.750542
1.656589 -0.867387 1.754899
1.620757 -0.86084801 1.750296
1.630692 -0.86116302 1.752403
1.7050869 -0.86126697 1.7501529
1.77935 -0.864335 1.751177
1.670406 -0.84627903 1.7512749
1.668961 -0.84382701 1.7546
1.52113 -0.83950597 1.7510819
1.507515 -0.83418697 1.753563
1.486167 -0.82176203 1.750854
1.522885 -0.82494903 1.753781
1.474202 -0.81644797 1.751901
1.496074 -0.818551 1.750535
1.4866019 -0.81266499 1.754298
1.610449 -0.88897401 1.758792
1.763756 -0.878474 1.757834
1.679292 -0.87219 1.756997
1.685842 -0.87122899 1.758831
1.705773 -0.87000501 1.759445
1.655617 -0.86660802 1.759106
1.621197 -0.856727 1.7585
1.717271 -0.85812199 1.758621
1.692589 -0.85344851 1.756757
1.653765 -0.84974498 1.7572629
1.5049371 -0.84449399 1.759846
1.516968 -0.83085501 1.758925
1.470091 -0.82671303 1.759554
1.479881 -0.82192397 1.756361
1.47052 -0.81530303 1.759016
1.4869339 -0.81813997 1.7564549
1.56248 -0.89289898 1.761454
1.6261311 -0.89196098 1.76451
1.703079 -0.87756902 1.763736
1.779965 -0.87950802 1.763652
1.5590791 -0.87479401 1.764465
1.6143219 -0.86663502 1.762715
1.736683 -0.86914998 1.763299
1.727025 -0.86273003 1.76029
1.740694 -0.86316597 1.762482
1.70706 -0.85940701 1.761372
1.680994 -0.85164601 1.763671
1.652167 -0.848239 1.762161
1.491196 -0.83847398 1.760911
1.456609 -0.83465397 1.761791
1.5007811 -0.83350998 1.763674
1.5068851 -0.83029699 1.763859
1.499658 -0.82526499 1.764659
1.53029 -0.82946199 1.762032
1.454438 -0.81794 1.763734
1.674597 -0.88981801 1.7685291
1.706822 -0.88489199 1.766044
1.744223 -0.882864 1.765166
1.5903521 -0.875117 1.769331
1.623307 -0.87431902 1.766874
1.638824 -0.87101901 1.766667
1.7001981 -0.87197298 1.7687041
1.6046391 -0.86182702 1.76746
1.67583 -0.86044598 1.7676049
1.555679 -0.85668802 1.767476
1.671952 -0.859963 1.767814
1.7126 -0.859402 1.766661
1.634001 -0.84648299 1.766879
1.541003 -0.84076899 1.765653
1.4832785 -0.83583802 1.768639
1.536043 -0.83393598 1.769995
1.545542 -0.832353 1.765588
1.438356 -0.82057798 1.768452
1.471808 -0.82460803 1.767475
1.592049 -0.88572401 1.773052
1.83219 -0.88382399 1.772495
1.622031 -0.87542999 1.774228
1.654022 -0.87540197 1.772828
1.5979511 -0.87210703 1.7730269
1.621456 -0.87126601 1.772961
1.650789 -0.87309802 1.771266
1.6662821 -0.868137 1.771407
1.683696 -0.866584 1.772284
1.703052 -0.86640602 1.772346
1.539126 -0.861036 1.774929
1.692109 -0.86287498 1.771917
1.666955 -0.85661501 1.773827
1.51379 -0.84591901 1.773983
1.5245889 -0.84418797 1.771559
1.4908839 -0.83564502 1.7739379
1.51406 -0.83480901 1.771737
1.476251 -0.82943398 1.773869
1.471524 -0.824911 1.771227
1.529374 -0.90159601 1.776359
1.648572 -0.88824999 1.779725
1.590024 -0.88125199 1.778849
1.6768301 -0.88268799 1.7753119
1.696804 -0.88041002 1.776829
1.671993 -0.87870902 1.777802
1.69259 -0.87523502 1.77987
1.72486 -0.87858498 1.779489
1.723703 -0.87343502 1.778972
1.727218 -0.871705 1.777319
1.588082 -0.86692703 1.776421
1.65232 -0.86658001 1.778666
1.501799 -0.85903102 1.777681
1.543907 -0.8563 1.779984
1.6185811 -0.85706198 1.777283
1.651178 -0.857638 1.775208
1.665145 -0.85842401 1.7752171
1.617395 -0.85195303 1.776809
1.508175 -0.84760702 1.777464
1.584115 -0.84812897 1.779789
1.452219 -0.84147602 1.77792
1.465855 -0.84081697 1.778488
1.415109 -0.83541501 1.7796659
1.4583149 -0.83195305 1.7791154
1.6233521 -0.90014601 1.782506
1.705736 -0.88666201 1.780134
1.765614 -0.88936299 1.781279
1.573383 -0.884718 1.7848361
1.620509 -0.88238198 1.784886
1.691062 -0.883053 1.783612
1.6048501 -0.87673599 1.78289
1.6172431 -0.87858701 1.7838759
1.651311 -0.87584102 1.783811
1.612785 -0.87040699 1.783033
1.522573 -0.865385 1.7823811
1.678468 -0.86947399 1.783885
1.684598 -0.86717701 1.780738
1.7023031 -0.86956799 1.7834409
1.601788 -0.86147302 1.784844
1.634421 -0.86112797 1.781237
1.669772 -0.86490101 1.784559
1.511222 -0.85934401 1.7825119
1.527504 -0.85899001 1.784796
1.544152 -0.85880899 1.784863
1.567291 -0.85796899 1.783676
1.481613 -0.85161102 1.782275
1.491761 -0.851026 1.78337
1.503787 -0.85407299 1.7811379
1.488668 -0.84716803 1.780481
1.474884 -0.84099299 1.784016
1.5215369 -0.84140199 1.7820131
1.4686691 -0.83608401 1.7806669
1.479182 -0.83504403 1.784214
1.5268691 -0.89603001 1.7871161
1.676929 -0.89515299 1.785805
1.751862 -0.89693999 1.788914
1.732137 -0.89398903 1.787392
1.647548 -0.88354099 1.789492
1.6696939 -0.87507498 1.788674
1.684411 -0.87354702 1.7897429
1.688832 -0.87469 1.78607
1.5060199 -0.86973298 1.789834
1.570559 -0.86707598 1.7872
1.649297 -0.865201 1.786764
1.511102 -0.86168098 1.789608
1.6176651 -0.864618 1.787266
1.487474 -0.859097 1.789966
1.572961 -0.85795999 1.786801
1.577585 -0.85826403 1.787245
1.600789 -0.85742402 1.786739
1.475347 -0.85444498 1.789276
1.509479 -0.85303599 1.789565
1.543002 -0.85105002 1.78817
1.528704 -0.84576499 1.789076
1.452476 -0.84107202 1.789431
1.465397 -0.840074 1.786075
1.442601 -0.83688545 1.7875586
1.463093 -0.83789003 1.788361
1.637467 -0.90192801 1.794628
1.558935 -0.89592397 1.7909729
1.591496 -0.89582098 1.794897
1.74848 -0.89500803 1.791525
1.63174 -0.894651 1.790205
1.638297 -0.89156097 1.793471
1.687835 -0.89081401 1.794214
1.679226 -0.88370401 1.794584
1.522931 -0.87737203 1.790459
1.554968 -0.87712699 1.794341
1.6611789 -0.8761 1.794486
1.6698509 -0.876302 1.794594
1.682843 -0.87674099 1.790354
1.5401829 -0.87126797 1.794995
1.553918 -0.870543 1.793187
1.6577311 -0.87444299 1.790765
1.600908 -0.86810797 1.793295
1.658062 -0.86693197 1.791065
1.494699 -0.864371 1.79442
1.4951 -0.86473298 1.792667
1.550812 -0.863397 1.79353
1.578249 -0.862257 1.794947
1.57978 -0.85683697 1.792959
1.602487 -0.859671 1.793786
1.513195 -0.851017 1.7939219
1.458883 -0.84634101 1.794094
1.447005 -0.84073597 1.7925071
1.5242929 -0.84495503 1.790153
1.527087 -0.91087198 1.796324
1.748124 -0.90961999 1.7983969
1.679338 -0.89240903 1.799666
1.571651 -0.88866502 1.796911
1.6671439 -0.88932598 1.796198
1.708524 -0.88852602 1.795856
1.599053 -0.88268602 1.79611
1.587499 -0.876881 1.798291
1.537277 -0.87400901 1.799175
1.599187 -0.87361002 1.7970949
1.633449 -0.87197798 1.79831
1.4711601 -0.86412197 1.798795
1.561161 -0.862836 1.7988991
1.4573655 -0.85683298 1.795231
1.477093 -0.85876501 1.797911
1.527523 -0.857669 1.7994469
1.432559 -0.851246 1.798401
1.5188119 -0.85157698 1.799767
1.436282 -0.84605998 1.7981941
1.503432 -0.847413 1.799963
1.430916 -0.84358197 1.796653
1.452422 -0.83782601 1.79827
1.5573699 -0.90954 1.802752
1.670422 -0.90597701 1.803782
1.649133 -0.90009999 1.803793
1.62019 -0.89893401 1.801723
1.554858 -0.893076 1.804472
1.5702389 -0.89285302 1.802973
1.548838 -0.88852298 1.803962
1.640339 -0.88625503 1.801006
1.6179301 -0.88154 1.803745
1.631317 -0.88159198 1.800631
1.64419 -0.88263899 1.80495
1.659809 -0.88371801 1.800935
1.474417 -0.87979299 1.804881
1.507584 -0.87703401 1.803396
1.619819 -0.87907702 1.804886
1.50159 -0.86927801 1.8002141
1.596725 -0.86694598 1.801322
1.439363 -0.86012 1.80268
1.4425189 -0.86128199 1.801087
1.460899 -0.86162901 1.802085
1.478931 -0.85628498 1.804435
1.4870465 -0.85676098 1.8013085
1.415187 -0.85373402 1.803829
1.442883 -0.85168898 1.804173
1.4593 -0.85021502 1.802917
1.4653701 -0.85084802 1.8008519
1.510635 -0.85291201 1.803335
1.515871 -0.85389698 1.803205
1.4815331 -0.84714597 1.804414
1.42643 -0.84401298 1.800536
1.455433 -0.84328002 1.803148
1.5889781 -0.921817 1.80952
1.645246 -0.92005903 1.808656
1.559094 -0.91246003 1.808832
1.580308 -0.90469497 1.8052289
1.634322 -0.90348703 1.8061399
1.736594 -0.90477502 1.805514
1.779431 -0.90191698 1.80861
1.59662 -0.89684701 1.808152
1.622449 -0.89833897 1.805017
1.69242 -0.89541298 1.8075891
1.621369 -0.89125103 1.8086179
1.644307 -0.89398402 1.807717
1.665861 -0.89217198 1.809297
1.5825551 -0.888201 1.806502
1.605419 -0.88735503 1.805976
1.659484 -0.88515502 1.805312
1.583464 -0.88033301 1.80855
1.634192 -0.88228899 1.8063591
1.676712 -0.88422 1.807569
1.491284 -0.87991703 1.807596
1.503565 -0.87877899 1.809896
1.567974 -0.87570602 1.808246
1.649168 -0.877249 1.808303
1.485236 -0.87466598 1.809992
1.567471 -0.87334901 1.808863
1.600629 -0.87002403 1.807752
1.614727 -0.87251103 1.807783
1.454847 -0.869147 1.807623
1.5336159 -0.869313 1.806427
1.444706 -0.86449403 1.806258
1.4533916 -0.86162198 1.8088335
1.545841 -0.862252 1.807896
1.470641 -0.85862797 1.805079
1.492525 -0.856332 1.806049
1.495194 -0.85828 1.808749
1.4200881 -0.85104799 1.806958
1.459679 -0.852705 1.806025
1.488385 -0.85378897 1.809818
1.423319 -0.84729999 1.809324
1.425737 -0.841649 1.80923
1.435986 -0.842143 1.80567
1.513231 -0.93002099 1.814486
1.572243 -0.92456198 1.81443
1.586846 -0.91549599 1.812948
1.56374 -0.90456301 1.812724
1.586719 -0.90442401 1.811542
1.612218 -0.90229303 1.813648
1.678865 -0.90121901 1.8115979
1.538065 -0.89748698 1.8120331
1.662295 -0.89994299 1.814595
1.555033 -0.89314699 1.81268
1.6268671 -0.89247751 1.8124665
1.637098 -0.89058101 1.8113379
1.521854 -0.887326 1.8122621
1.5953281 -0.8859275 1.8125505
1.663345 -0.88712698 1.812571
1.695135 -0.88799697 1.812413
1.45789 -0.88323599 1.810827
1.474985 -0.882801 1.811797
1.503994 -0.88094097 1.81115
1.583575 -0.880063 1.812987
1.4628561 -0.87550998 1.812977
1.4845901 -0.87935603 1.814916
1.536005 -0.87865198 1.810936
1.548583 -0.87731302 1.813431
1.4904031 -0.87150198 1.811021
1.529894 -0.87096298 1.812036
1.5682909 -0.87208802 1.811175
1.5822625 -0.87232947 1.8133199
1.428512 -0.86735803 1.810431
1.568791 -0.86770803 1.812657
1.576444 -0.86727703 1.810968
1.422928 -0.864438 1.8100801
1.512044 -0.86428797 1.810724
1.426066 -0.85068297 1.8123831
1.454326 -0.850007 1.8146451
1.45199 -0.845456 1.810125
1.569972 -0.91900998 1.819019
1.5645781 -0.91299897 1.818465
1.638942 -0.91292298 1.818278
1.661762 -0.91207302 1.8188241
1.722137 -0.91319799 1.819468
1.569983 -0.90716898 1.816452
1.6167229 -0.90646797 1.818774
1.752893 -0.90841103 1.816736
1.583302 -0.895742 1.8177119
1.596042 -0.895724 1.815233
1.588684 -0.89286798 1.815982
1.6279269 -0.89220399 1.8189369
1.458685 -0.88568401 1.815997
1.4687415 -0.881239 1.819064
1.4868931 -0.88315898 1.817403
1.533882 -0.88207 1.8174109
1.495416 -0.875099 1.8155611
1.537858 -0.87739998 1.816023
1.473891 -0.87421 1.815865
1.4385591 -0.86915803 1.819121
1.483445 -0.867576 1.819698
1.517769 -0.866211 1.8163019
1.522658 -0.86914903 1.817582
1.453204 -0.86035597 1.819759
1.46538 -0.86418003 1.8175139
1.4735301 -0.86007899 1.819538
1.47802 -0.86379701 1.818068
1.503038 -0.86202902 1.817333
1.748741 -0.92028999 1.821273
1.535043 -0.91832399 1.824294
1.567108 -0.90112197 1.821416
1.652496 -0.90064001 1.824011
1.614812 -0.89734697 1.821604
1.550988 -0.89252001 1.823384
1.571528 -0.89281797 1.824602
1.634063 -0.89362401 1.820254
1.64679 -0.89153802 1.820999
1.47022 -0.88753802 1.82491
1.557188 -0.886509 1.821416
1.56774 -0.88705701 1.820006
1.614448 -0.88895601 1.82081
1.446734 -0.88089901 1.823132
1.521113 -0.88465202 1.823269
1.553594 -0.88143402 1.822257
1.559948 -0.88262302 1.8216619
1.457379 -0.87691802 1.820709
1.527372 -0.87970001 1.8236769
1.586959 -0.877509 1.823235
1.4641629 -0.87251198 1.82064
1.4965661 -0.87090701 1.8220021
1.5506409 -0.874035 1.822804
1.449829 -0.869169 1.8234349
1.43291 -0.86154199 1.820263
1.452464 -0.86493301 1.82144
1.470634 -0.85756803 1.822278
1.4531389 -0.85306102 1.8202111
1.644763 -0.91767299 1.828989
1.669896 -0.91162401 1.8289829
1.593431 -0.90712202 1.826084
1.6893899 -0.90689099 1.82806
1.550234 -0.90463698 1.827487
1.579795 -0.90198499 1.8285249
1.612132 -0.90268803 1.828232
1.618777 -0.90390599 1.8261631
1.534252 -0.89526498 1.828293
1.549559 -0.89923 1.827286
1.60199 -0.89915299 1.828501
1.61089 -0.89543802 1.82543
1.454071 -0.89134002 1.8291121
1.596966 -0.89331245 1.826386
1.669014 -0.89489198 1.825395
1.452529 -0.88543999 1.82955
1.56481 -0.88590002 1.826037
1.640274 -0.88756597 1.825541
1.526612 -0.88123697 1.829759
1.533848 -0.88489598 1.825639
1.544902 -0.88122702 1.825845
1.440868 -0.87962598 1.8255531
1.453256 -0.87896103 1.829378
1.500874 -0.876701 1.828558
1.448988 -0.87137002 1.826278
1.478107 -0.865825 1.829897
1.4428 -0.86187798 1.82698
1.4538929 -0.86454803 1.826202
1.536224 -0.92603999 1.831162
1.638458 -0.917135 1.834908
1.5590481 -0.914837 1.830525
1.566174 -0.91475898 1.833603
1.535792 -0.90686399 1.8325371
1.586001 -0.90563703 1.831596
1.625604 -0.90412998 1.833787
1.638499 -0.90092802 1.832257
1.488739 -0.89752603 1.830182
1.517517 -0.89801002 1.833203
1.520771 -0.897434 1.834402
1.547891 -0.89951801 1.834206
1.4537585 -0.89254051 1.8322465
1.552017 -0.89378101 1.831461
1.580749 -0.89448398 1.830696
1.609338 -0.89323097 1.831441
1.52798 -0.887151 1.832119
1.472295 -0.88222599 1.834197
1.550884 -0.88277799 1.83296
1.50652 -0.87518799 1.831706
1.451829 -0.87207502 1.830593
1.463514 -0.87126303 1.830086
1.490205 -0.87015998 1.831462
1.475974 -0.868442 1.834622
1.4537669 -0.86374098 1.831995
1.445928 -0.85974902 1.830923
1.5120831 -0.94045198 1.836643
1.487215 -0.92891401 1.835879
1.5193501 -0.929555 1.8372329
1.522351 -0.929811 1.837077
1.566789 -0.92751199 1.837679
1.570959 -0.92415798 1.83652
1.605425 -0.92412603 1.83939
1.639486 -0.92115903 1.83801
1.523288 -0.916035 1.835072
1.549324 -0.91752303 1.838546
1.557323 -0.91642702 1.835272
1.574904 -0.91867 1.839656
1.546543 -0.90786701 1.837095
1.576955 -0.90630001 1.835246
1.613979 -0.90726697 1.8392529
1.5007811 -0.90075499 1.838112
1.555215 -0.90389401 1.835996
1.594581 -0.901703 1.835454
1.552496 -0.89678198 1.8392169
1.578915 -0.89880198 1.837244
1.473809 -0.89219999 1.8381521
1.507346 -0.892672 1.836557
1.546908 -0.89088601 1.836019
1.502265 -0.88804901 1.8389241
1.446185 -0.88368702 1.838675
1.5518039 -0.88295799 1.839312
1.444779 -0.87673098 1.838498
1.477477 -0.87853646 1.8361421
1.520311 -0.87915802 1.835043
1.447108 -0.87049699 1.8365999
1.4581439 -0.87242401 1.839497
1.505435 -0.934255 1.8446929
1.515802 -0.93086898 1.84366
1.5540529 -0.93055099 1.842594
1.552307 -0.926696 1.842919
1.5783269 -0.92695999 1.842996
1.532475 -0.92028701 1.8434891
1.540514 -0.92160398 1.844368
1.640408 -0.92408299 1.842281
1.590242 -0.91739798 1.844017
1.609208 -0.91737598 1.841195
1.677567 -0.91632599 1.84425
1.518876 -0.91130799 1.8401541
1.529917 -0.91080701 1.841379
1.5980279 -0.910905 1.841845
1.605522 -0.912305 1.8407561
1.484045 -0.90350002 1.843022
1.536294 -0.90050501 1.842916
1.597513 -0.90395898 1.843769
1.516379 -0.898857 1.843686
1.561646 -0.89609402 1.843827
1.616504 -0.89559501 1.842188
1.5211281 -0.89008701 1.840927
1.544088 -0.89091998 1.843092
1.497483 -0.88586801 1.844438
1.465608 -0.88414598 1.844556
1.449008 -0.87872797 1.842104
1.461408 -0.87460703 1.844148
1.455093 -0.94377702 1.848797
1.5179 -0.94056201 1.846396
1.693223 -0.93004298 1.847376
1.524541 -0.92645401 1.846709
1.5543439 -0.92741299 1.8476595
1.561589 -0.92992097 1.847309
1.576373 -0.92886198 1.8456711
1.636072 -0.92748398 1.845998
1.496664 -0.91668898 1.849949
1.50196 -0.91575098 1.84777
1.57596 -0.91554999 1.847959
1.51329 -0.91374898 1.845664
1.546912 -0.913037 1.8462059
1.551265 -0.9127 1.847129
1.576456 -0.91436499 1.845829
1.5920219 -0.913849 1.8492171
1.610512 -0.911897 1.8462909
1.630865 -0.911511 1.849933
1.46731 -0.90624499 1.847932
1.521705 -0.90981001 1.848377
1.53848 -0.90940702 1.8460031
1.575798 -0.909724 1.845013
1.598628 -0.90967798 1.846657
1.493579 -0.900693 1.8498451
1.458693 -0.897825 1.848628
1.518103 -0.89690202 1.848215
1.521932 -0.89542902 1.849553
1.584156 -0.89984697 1.845718
1.478263 -0.89474702 1.847931
1.553395 -0.89137101 1.848457
1.454126 -0.88386899 1.845054
1.4773721 -0.87829202 1.84559
1.478719 -0.950728 1.854699
1.5219395 -0.92642498 1.853024
1.559056 -0.925448 1.851203
1.645674 -0.92887503 1.853
1.480038 -0.91962999 1.854233
1.529919 -0.91657603 1.85232
1.570609 -0.91685802 1.852779
1.550274 -0.91009903 1.850962
1.578982 -0.91006202 1.85375
1.597127 -0.91041601 1.851167
1.487407 -0.90771103 1.852458
1.49278 -0.90519297 1.852327
1.5208244 -0.90768945 1.8535
1.545526 -0.90960503 1.851804
1.488259 -0.90195501 1.852688
1.4976031 -0.892461 1.852344
1.594907 -0.94241899 1.856565
1.6794 -0.94164801 1.858799
1.547248 -0.93251401 1.858197
1.559507 -0.93441802 1.855756
1.485043 -0.92019498 1.855386
1.512926 -0.92011601 1.858434
1.542828 -0.92295998 1.859961
1.592267 -0.92070401 1.8553489
1.663371 -0.92170101 1.856258
1.583925 -0.91912198 1.8554569
1.490252 -0.91218901 1.855966
1.521745 -0.91491902 1.85601
1.541581 -0.91315001 1.856901
1.562649 -0.91397601 1.855093
1.547804 -0.90705597 1.857018
1.467665 -0.90242201 1.855127
1.493794 -0.90120697 1.855919
1.46241 -0.89571297 1.855438
1.486266 -0.89942503 1.857062
1.537836 -0.89753902 1.858127
1.4645391 -0.88642299 1.859719
1.462037 -0.95586598 1.863726
1.513694 -0.94842899 1.863858
1.542541 -0.94966 1.86408
1.557435 -0.93789899 1.864029
1.465076 -0.93134099 1.8632621
1.506896 -0.93195897 1.862561
1.543207 -0.93222499 1.862749
1.5283689 -0.92801398 1.860931
1.565919 -0.92546201 1.8643219
1.4720041 -0.92049903 1.862329
1.5479569 -0.92305601 1.864993
1.571461 -0.923105 1.863013
1.517063 -0.91780198 1.863937
1.5336469 -0.91565597 1.8614351
1.547027 -0.91999 1.864717
1.4707251 -0.91284901 1.861486
1.479812 -0.90871298 1.863133
1.5208271 -0.90741199 1.864733
1.5726269 -0.90904701 1.861506
1.543273 -0.90061402 1.860338
1.553243 -0.90424001 1.862958
1.555774 -0.90263098 1.863414
1.495154 -0.89579898 1.861764
1.496729 -0.95121098 1.868835
1.481824 -0.94520903 1.8682491
1.586085 -0.94702798 1.866076
1.502929 -0.94398099 1.865612
1.529381 -0.94328099 1.868963
1.57121 -0.94054502 1.868857
1.542641 -0.93997401 1.865841
1.549664 -0.93538302 1.866127
1.511403 -0.93079698 1.865908
1.542502 -0.92876101 1.869398
1.569821 -0.92733902 1.8690701
1.579012 -0.929102 1.869941
1.483567 -0.921287 1.868853
1.5006551 -0.92095202 1.867469
1.50501 -0.92043197 1.866017
1.591195 -0.923693 1.86673
1.623232 -0.92209297 1.867609
1.4896899 -0.91514999 1.8697031
1.523874 -0.91906297 1.866587
1.54316 -0.91969198 1.869401
1.478462 -0.91162801 1.8686531
1.504848 -0.91395199 1.865827
1.521952 -0.91324002 1.865042
1.591699 -0.913692 1.865629
1.522325 -0.90709502 1.869911
1.475033 -0.90486002 1.865376
1.522469 -0.90362102 1.867659
1.477914 -0.94295001 1.872244
1.535814 -0.94163901 1.873855
1.555149 -0.94093001 1.871057
1.589898 -0.94301498 1.874918
1.490088 -0.93713599 1.871657
1.527359 -0.93900198 1.8742959
1.531756 -0.93959498 1.874464
1.4944381 -0.93357903 1.870885
1.687673 -0.93113202 1.8732589
1.477155 -0.927342 1.870778
1.52329 -0.92959702 1.873969
1.580327 -0.92743099 1.871299
1.479002 -0.921166 1.871371
1.484246 -0.924101 1.8710001
1.51702 -0.92121398 1.8719079
1.496555 -0.91933399 1.872959
1.48647 -0.91136199 1.87288
1.489869 -0.90717101 1.871246
1.504143 -0.90103602 1.872875
1.50445 -0.94638801 1.878412
1.50688 -0.94684201 1.877058
1.512267 -0.94684601 1.875121
1.537969 -0.94008702 1.8792059
1.620721 -0.93918699 1.879934
1.653921 -0.93519598 1.8766299
1.514032 -0.93432897 1.875687
1.536533 -0.93343198 1.877352
1.4823869 -0.92981702 1.876385
1.509362 -0.92870301 1.877551
1.519998 -0.92614299 1.87861
1.4891239 -0.92067599 1.877282
1.506368 -0.92488497 1.8761179
1.507787 -0.91567498 1.879089
1.507612 -0.91280699 1.875152
1.540803 -0.910335 1.875818
1.490029 -0.94982302 1.8814
1.538391 -0.94653201 1.881613
1.5449719 -0.94565701 1.8839279
1.525279 -0.94020599 1.88499
1.498969 -0.93602598 1.882785
1.5091881 -0.93933702 1.884244
1.522622 -0.93836802 1.883175
1.5557981 -0.93546498 1.8816836
1.565496 -0.93634951 1.8841685
1.590368 -0.93353599 1.884243
1.549521 -0.92852497 1.880109
1.58288 -0.92392302 1.882723
1.542681 -0.96219701 1.8867019
1.5003279 -0.95383 1.886789
1.5089099 -0.95108598 1.886011
1.542769 -0.95127302 1.8899781
1.558712 -0.95097601 1.886699
1.5139461 -0.94613701 1.887606
1.54826 -0.93640298 1.885926
1.4866 -0.92510599 1.887078
1.552676 -0.92923999 1.888101
1.492313 -0.91553497 1.8863291
1.521517 -0.91671503 1.887027
1.4955389 -0.91101599 1.889551
1.510501 -0.951087 1.893991
1.527128 -0.94789499 1.890413
1.5066479 -0.94456601 1.892787
1.5229779 -0.93447101 1.8933949
1.491938 -0.92944402 1.8904769
1.529332 -0.95153397 1.89939
1.508633 -0.946518 1.896677
1.552503 -0.94590002 1.899127
1.550143 -0.94296497 1.896307
1.517651 -0.93615198 1.896071
1.526168 -0.93665701 1.899132
1.5520149 -0.93706 1.895501
1.500895 -0.92302799 1.896331
1.544425 -0.956168 1.902156
1.5153199 -0.950037 1.9012181
1.506609 -0.94873202 1.904547
1.5474451 -0.946096 1.903173
1.510832 -0.95617199 1.905117
1.535051 -0.95073199 1.908811
1.508646 -0.94235402 1.908434
1.505621 -0.95948398 1.910094
1.523944 -0.95437598 1.912133
1.539248 -0.95429897 1.91372
1.554509 -0.94559503 1.910893
1.514303 -0.944534 1.910208
1.532896 -0.96536899 1.917944
1.5637 -0.96804601 1.917483
1.520533 -0.98199701 1.9211431
1.531376 -0.96428102 1.924919
1.519959 -0.95849901 1.921315
1.525993 -0.96269798 1.928313
1.557003 -0.95412999 1.926285
