# .PCD v0.7 - Point Cloud Data file format
VERSION 0.7
FIELDS x y z
SIZE 4 4 4
TYPE F F F
COUNT 1 1 1
WIDTH 1103
HEIGHT 1
VIEWPOINT 0 0 0 1 0 0 0
POINTS 1103
DATA ascii
0.92223698 0.15778799 0.027212
0.94435698 0.135589 0.044831999
0.95656502 0.13706499 0.047454
0.92947203 0.14993 0.048246
0.93793899 0.147525 0.054673001
0.96080399 0.138184 0.062526003
0.97943699 0.13682701 0.063596003
0.95869797 0.142141 0.062638
0.951711 0.124126 0.068594001
0.98341298 0.128647 0.066609003
0.97288102 0.13856 0.069471002
0.9853 0.137321 0.066942997
0.99441397 0.13632099 0.066272996
1.003268 0.12734801 0.072393999
0.973355 0.132138 0.072982997
0.98168498 0.129131 0.077473998
0.94514 0.135979 0.078433
0.998882 0.124684 0.083521999
1.030111 0.121867 0.083573997
1.006752 0.127097 0.082734004
1.051037 0.119932 0.088202998
1.010622 0.120124 0.086009003
0.97631502 0.129614 0.088059999
0.996795 0.12554701 0.085685
1.01051 0.126853 0.085271001
1.021862 0.12535 0.085963003
0.96316302 0.13212299 0.089190997
1.047815 0.11846 0.091569997
0.992944 0.123164 0.093617998
1.012677 0.121174 0.092633002
1.017976 0.1129 0.099623002
1.028511 0.116769 0.098117001
0.97482902 0.123621 0.097104996
1.021034 0.118413 0.102192
1.027593 0.118248 0.102411
1.043532 0.115033 0.101327
0.96701097 0.124361 0.103153
0.98612398 0.120125 0.102474
1.017553 0.108965 0.108252
1.045119 0.106874 0.10947
1.038197 0.111491 0.105661
1.041908 0.111887 0.106807
1.05625 0.107621 0.114569
0.98836601 0.104967 0.119194
1.024416 0.1015 0.118366
1.0656739 0.105046 0.115806
1.026945 0.110873 0.11606
1.070592 0.103356 0.122331
1.017908 0.106227 0.12271
1.032855 0.103332 0.12992799
1.061052 0.102505 0.12738
1.066141 0.102744 0.12557299
1.041762 0.1065 0.12652799
1.050308 0.097662002 0.133799
1.084934 0.099090002 0.13009299
1.01896 0.098555997 0.136135
1.073688 0.096418001 0.137908
1.093781 0.095664002 0.136168
1.017309 0.104827 0.13804001
1.0525174 0.100613 0.137674
1.094566 0.082530998 0.142693
1.0689549 0.094846003 0.141506
1.077758 0.090807997 0.143198
1.073179 0.092649996 0.148305
1.086323 0.090331003 0.148435
1.058134 0.095361002 0.14986899
1.041719 0.084904 0.15461899
1.021237 0.090764999 0.150185
1.037979 0.093529999 0.15462799
1.050199 0.090861 0.153615
1.064347 0.094172001 0.150362
1.0183001 0.097220004 0.15211201
1.081758 0.082741 0.157708
1.087629 0.082717001 0.15721001
1.073856 0.087058999 0.15602601
1.083761 0.088225998 0.15806
1.060549 0.081873998 0.16276801
1.073101 0.086487003 0.16239899
1.046008 0.092138 0.16185801
1.111595 0.078157 0.169489
1.0443521 0.085385002 0.16602901
1.079632 0.078805998 0.171023
1.0823885 0.081930995 0.1716115
1.1030591 0.074399002 0.17567299
1.0617599 0.079428002 0.17589501
1.078414 0.077042997 0.176283
1.086863 0.080425002 0.177112
1.102266 0.067832001 0.18481199
1.068119 0.064299002 0.18728299
1.066232 0.070262998 0.187374
1.0841324 0.071251497 0.18536
1.1086479 0.070611 0.18971901
1.065835 0.075765997 0.18592601
1.084685 0.075011998 0.18590599
1.089739 0.068639003 0.19429301
1.123153 0.068934001 0.192818
1.165036 0.057645001 0.19503
1.064045 0.068130001 0.199246
1.149501 0.059895001 0.20107099
1.124375 0.064365998 0.20135
1.113851 0.066986002 0.20136701
1.1766915 0.051677503 0.20685101
1.074652 0.058983002 0.205924
1.127334 0.059617002 0.205947
1.107587 0.060637999 0.207781
1.126513 0.063529998 0.20543
1.155214 0.04721 0.212422
1.120345 0.054832 0.211768
1.139729 0.057898998 0.21486899
1.07014 0.048799001 0.215956
1.149069 0.047488999 0.21937899
1.187929 0.045148 0.219189
1.1130379 0.051561002 0.216884
1.130753 0.050758 0.219097
1.137984 0.05071 0.21952701
1.149025 0.051518001 0.217896
1.156474 0.054237999 0.216554
1.126775 0.057505999 0.21612699
1.142617 0.047642 0.223858
1.105719 0.054854002 0.224141
1.120728 0.056958001 0.22149301
1.154623 0.043786999 0.228691
1.098429 0.054384001 0.228953
1.122472 0.054598998 0.225105
1.156356 0.042925999 0.23422
1.131741 0.049616002 0.230841
1.132041 0.052228998 0.231712
1.120181 0.038431998 0.23932201
1.134918 0.039498001 0.238263
1.148723 0.035287 0.237395
1.151553 0.038752999 0.23791
1.099895 0.040157001 0.235937
1.143865 0.042771999 0.237284
1.168646 0.042739999 0.237473
1.1080689 0.046813 0.23864301
1.133655 0.049807999 0.23562101
1.1901079 0.032324001 0.24453799
1.210822 0.032651 0.243348
1.1315399 0.038059998 0.240018
1.1659499 0.036095001 0.24315
1.182238 0.035891 0.24238101
1.200043 0.035546999 0.24318001
1.206974 0.037206002 0.240458
1.161191 0.029281 0.24778301
1.144603 0.034678001 0.24870899
1.209784 0.034031998 0.249477
1.1527179 0.035725001 0.24731299
1.131255 0.042075001 0.249116
1.212679 0.02946 0.253708
1.144908 0.034770999 0.25208399
1.172753 0.034455001 0.25237399
1.171636 0.023999 0.256221
1.1876481 0.0244 0.25836599
1.180541 0.029617 0.25613701
1.15438 0.03489 0.256899
1.158623 0.037528001 0.256217
1.1849 0.024534 0.26143399
1.228876 0.024959 0.263767
1.141203 0.027233999 0.261608
1.2078691 0.025864 0.263726
1.1606539 0.030246001 0.26257199
1.169197 0.032763999 0.26187199
1.175927 0.032926999 0.26411799
1.192152 0.030319 0.26183501
1.196105 0.031024 0.26212001
1.183514 0.018937999 0.26691899
1.17777 0.027442999 0.267674
1.183089 0.028632 0.26938999
1.205729 0.026291 0.268731
1.15237 0.034618001 0.266258
1.213523 0.019251 0.271853
1.1766191 0.025663 0.273193
1.1977146 0.0125685 0.2785995
1.207646 0.012734 0.278734
1.1543159 0.018641001 0.27742699
1.205953 0.017696001 0.27797499
1.196982 0.024499999 0.27690899
1.203572 0.023429999 0.27620101
1.148719 0.025155 0.276869
1.164014 0.029646 0.276961
1.179683 0.0096359998 0.281928
1.1429549 0.010696 0.282664
1.1966965 0.0124445 0.28170651
1.232245 0.018477 0.28094399
1.192801 0.021021999 0.28395301
1.277958 0.0031290001 0.28888601
1.2086816 0.0086745005 0.2884295
1.215966 0.017726 0.286533
1.213796 0.00489 0.29316199
1.153635 0.010546 0.29182899
1.2092021 0.016319999 0.294855
1.1614619 0.02166 0.290737
1.2138619 0.0099069998 0.299651
1.1968529 0.0113275 0.29605749
1.203194 -0.0034129999 0.300558
1.264716 -0.00095900003 0.304423
1.2050101 0.00046700001 0.30277699
1.234934 0.001685 0.30152199
1.194648 0.0096800001 0.302856
1.205097 0.01305 0.30449501
1.202122 0.00136 0.306474
1.247683 0.00092100003 0.30819401
1.227669 0.0057999999 0.30712301
1.233912 0.0058129998 0.30910599
1.192733 0.011557 0.30804449
1.2359999 -0.006757 0.31011
1.262028 -0.0069269999 0.31349
1.256348 -0.0015670001 0.31000099
1.287659 -0.003212 0.31215501
1.1949281 0.004704 0.31413901
1.196493 0.00364 0.31017199
1.205088 0.0045099999 0.31406999
1.241475 0.001694 0.314594
1.185167 0.011432 0.312713
1.200796 -0.015083 0.31908301
1.163659 -0.0099060005 0.31616399
1.240387 -0.0093649998 0.31503499
1.215189 -0.0038980001 0.317615
1.258708 -0.004493 0.31655499
1.2780401 -0.0048690001 0.31860301
1.209409 0.0044100001 0.31699601
1.230953 0.002077 0.319406
1.207599 0.0071180002 0.316423
1.219908 -0.010874 0.32159001
1.218853 -0.0073350002 0.320126
1.24156 -0.006234 0.32201001
1.243307 -0.001014 0.32256499
1.255282 -0.002413 0.32206601
1.1831371 0.004621 0.32252899
1.208594 0.002136 0.323944
1.2222375 0.0020610001 0.32326001
1.197243 0.0062210001 0.323908
1.214704 -0.013029 0.3281
1.256494 -0.011304 0.325791
1.2718379 -0.010088 0.32593301
1.290947 -0.011087 0.327905
1.2954201 -0.010836 0.32652301
1.18089 -0.0076899999 0.328289
1.228339 -0.0092399996 0.328917
1.282156 -0.0085549997 0.32754299
1.298328 -0.0096810004 0.328141
1.181311 -0.0012450001 0.32823601
1.195992 -0.003455 0.32923201
1.2155941 -0.000734 0.32543001
1.2448519 -0.0016280001 0.326251
1.300824 -0.020126 0.332008
1.23123 -0.01276 0.33177599
1.250724 -0.011625 0.333011
1.227706 -0.0066769999 0.3344
1.200724 -4.2e-05 0.33295301
1.215351 -0.00056399999 0.334122
1.234412 -0.002503 0.332389
1.248588 -0.026140001 0.33956701
1.291805 -0.026434001 0.33770999
1.29663 -0.019746 0.335509
1.257923 -0.012699 0.33700001
1.212049 -0.0084969997 0.33888099
1.227875 -0.0050039999 0.33651799
1.194644 -0.001916 0.33794501
1.219811 -0.0039869999 0.33578101
1.2624871 -0.028705001 0.34462699
1.212088 -0.021217 0.342226
1.1802011 -0.015889 0.34287599
1.243793 -0.018248999 0.34357199
1.25946 -0.0184345 0.342614
1.3031811 -0.018459 0.340891
1.241679 -0.014647 0.340361
1.2556649 -0.011838 0.344578
1.2283109 -0.0060859998 0.34337801
1.2478189 -0.0073139998 0.340372
1.308446 -0.027876999 0.34638101
1.253507 -0.022009 0.34509999
1.2616606 -0.013395 0.34891802
1.269645 -0.014418 0.34966701
1.206888 -0.0072389999 0.34936601
1.244728 -0.0099449996 0.347922
1.33175 -0.030761 0.35471201
1.273466 -0.028534999 0.35324201
1.1944129 -0.021116 0.35421801
1.23973 -0.0234665 0.35300049
1.268845 -0.016485 0.352254
1.2226011 -0.013864 0.350472
1.312232 -0.031112 0.35531801
1.259698 -0.029906999 0.359626
1.261448 -0.028258 0.35636601
1.299206 -0.029177001 0.35865399
1.3109421 -0.026083 0.35525799
1.239668 -0.020362001 0.35917801
1.256431 -0.023824001 0.35553199
1.269233 -0.022624999 0.35542601
1.299086 -0.024941999 0.35927701
1.242245 -0.016233001 0.359456
1.2680711 -0.026779 0.360241
1.296868 -0.028889 0.36277899
1.271489 -0.021492001 0.36294001
1.23333 -0.019289 0.36219999
1.263913 -0.036366999 0.36557499
1.339425 -0.038566999 0.369185
1.253877 -0.032053001 0.369894
1.336545 -0.033231001 0.367062
1.253244 -0.028502 0.36657
1.278689 -0.028219 0.36683199
1.2874629 -0.025350001 0.366804
1.273066 -0.024999 0.367567
1.311373 -0.042529501 0.3725675
1.345883 -0.044098001 0.37498501
1.2653871 -0.035181001 0.37473401
1.301473 -0.035007998 0.37386799
1.310575 -0.035383001 0.37065199
1.319067 -0.03238 0.371777
1.326528 -0.033103 0.37412801
1.254692 -0.025749 0.37092
1.267234 -0.025467999 0.37068
1.253461 -0.022356 0.37129301
1.2588381 -0.022383999 0.37230799
1.2671911 -0.022653 0.37114599
1.275111 -0.042036001 0.377619
1.2740279 -0.035973001 0.37970901
1.2822599 -0.035181001 0.37991101
1.3032531 -0.038816001 0.37576699
1.336733 -0.036081001 0.37622401
1.282838 -0.031280998 0.37558201
1.2950259 -0.03039 0.37878901
1.3471 -0.046372 0.38365901
1.326463 -0.041331001 0.38399401
1.264678 -0.028479001 0.383131
1.270005 -0.027964 0.38439399
1.3093131 -0.054361999 0.389373
1.349315 -0.052262001 0.386866
1.321396 -0.049136002 0.38624901
1.278486 -0.040897999 0.38677299
1.295211 -0.041717999 0.38880399
1.317088 -0.043145999 0.386388
1.325386 -0.040442001 0.38660401
1.348179 -0.042328998 0.38830301
1.296935 -0.036970999 0.38763201
1.3193386 -0.039112501 0.38864648
1.25398 -0.034221001 0.38599199
1.283626 -0.041673999 0.39132801
1.2954479 -0.040966999 0.39233699
1.332688 -0.041274 0.39382401
1.339874 -0.043586999 0.39134699
1.303592 -0.035941999 0.39032701
1.263985 -0.031716 0.390486
1.338791 -0.050457001 0.39892799
1.354775 -0.054177001 0.398132
1.317422 -0.048965 0.395594
1.328914 -0.049005002 0.39887899
1.342383 -0.047176 0.39600801
1.316272 -0.042011999 0.395197
1.333539 -0.043161001 0.39526001
1.269094 -0.039756 0.398013
1.306071 -0.039220002 0.39891499
1.364081 -0.058279 0.40083501
1.371359 -0.052478999 0.40115201
1.275784 -0.049353998 0.40136099
1.293281 -0.047454 0.40309399
1.329596 -0.046792999 0.40312999
1.331706 -0.048503999 0.40143201
1.34727 -0.046820998 0.402022
1.3596261 -0.048576999 0.400383
1.299672 -0.041971002 0.40331599
1.304392 -0.043368001 0.40163699
1.312209 -0.041568 0.40200701
1.318823 -0.043047 0.40432101
1.281293 -0.036912002 0.40241799
1.378634 -0.057245001 0.406858
1.345203 -0.051927999 0.40701601
1.278855 -0.048262998 0.40520799
1.2928441 -0.049357999 0.40698099
1.336149 -0.049422 0.40554801
1.30086 -0.042373002 0.40712699
1.334085 -0.066294998 0.41001201
1.289046 -0.055202 0.41365299
1.339914 -0.059069999 0.41486099
1.3429199 -0.051573001 0.41106299
1.354177 -0.052191 0.41080499
1.316777 -0.049334001 0.411957
1.32099 -0.047253001 0.41382399
1.254683 -0.037641 0.41104701
1.259636 -0.037978001 0.41175801
1.368421 -0.067033999 0.416583
1.333128 -0.062776998 0.41708601
1.356051 -0.060206998 0.418643
1.339828 -0.057473999 0.416787
1.349805 -0.056267999 0.41568801
1.302991 -0.053314 0.41501001
1.309067 -0.048797 0.416774
1.34647 -0.072261997 0.420331
1.373149 -0.072826996 0.424375
1.346599 -0.066783004 0.42437699
1.3653131 -0.064617001 0.42091501
1.2768641 -0.056754 0.420021
1.29024 -0.057748999 0.42162499
1.329163 -0.055300999 0.42227599
1.363454 -0.059905998 0.422409
1.365505 -0.059275001 0.42131701
1.300133 -0.051015999 0.42250499
1.289151 -0.047433998 0.42307201
1.269147 -0.043691002 0.423572
1.387141 -0.079591997 0.42874101
1.390301 -0.072140999 0.427771
1.3701251 -0.069788001 0.42707899
1.302487 -0.061126001 0.42610899
1.3334759 -0.064285003 0.427627
1.337134 -0.063207 0.42585599
1.366852 -0.062119 0.42729199
1.312868 -0.059239998 0.42706901
1.315522 -0.054832999 0.426485
1.328138 -0.079157002 0.43278399
1.385617 -0.078833997 0.43476301
1.3600709 -0.07079 0.431667
1.274873 -0.065246001 0.434834
1.341037 -0.067682996 0.430794
1.36742 -0.066413 0.430641
1.331579 -0.061363 0.433065
1.341549 -0.061268002 0.43259501
1.373542 -0.074796997 0.43895799
1.287636 -0.066140004 0.43626899
1.3160011 -0.067146003 0.43874499
1.322911 -0.065233998 0.43927601
1.35586 -0.068612002 0.438355
1.365925 -0.069193996 0.435844
1.37332 -0.066951998 0.435785
1.310055 -0.062413 0.43914601
1.3159519 -0.056763999 0.43500599
1.300701 -0.053286999 0.43571901
1.383289 -0.088023998 0.443353
1.394673 -0.080959 0.44363201
1.35923 -0.076628 0.44045201
1.333358 -0.071474001 0.440182
1.359374 -0.073275998 0.44334301
1.372136 -0.070514001 0.442947
1.305059 -0.068567999 0.444893
1.344456 -0.066849999 0.44226199
1.353935 -0.067234002 0.44291401
1.366904 -0.068426996 0.44066599
1.3313479 -0.063274004 0.44328001
1.324211 -0.058819 0.44139701
1.396649 -0.085225999 0.449963
1.3618 -0.082138002 0.446998
1.3638051 -0.077849001 0.44857901
1.3683259 -0.078394003 0.44914401
1.384361 -0.078459002 0.44820401
1.387013 -0.078804001 0.44624901
1.34657 -0.070657 0.449422
1.317093 -0.069774002 0.44736001
1.331971 -0.062595002 0.44768
1.345474 -0.077592 0.45318601
1.395672 -0.075905003 0.452705
1.366321 -0.073201001 0.453233
1.3824825 -0.073491 0.45235151
1.39465 -0.074787997 0.453545
1.399606 -0.073798001 0.452317
1.318933 -0.068253003 0.45125899
1.344738 -0.067257002 0.450526
1.348132 -0.069366001 0.45071301
1.412658 -0.092278004 0.45530301
1.41695 -0.086193003 0.45508301
1.336154 -0.071966 0.45521101
1.347234 -0.073521003 0.45876101
1.358128 -0.071239002 0.457773
1.377185 -0.073055997 0.45578501
1.404897 -0.0911 0.462165
1.384774 -0.086558998 0.46369499
1.388765 -0.088393003 0.460087
1.3435215 -0.078431003 0.46433049
1.378706 -0.079167999 0.463552
1.396791 -0.077877 0.463707
1.4015501 -0.077463999 0.460289
1.3312351 -0.071356997 0.463269
1.33904 -0.073899999 0.462926
1.342397 -0.072449997 0.463043
1.3534679 -0.094354004 0.46668401
1.439492 -0.091513999 0.46671399
1.36023 -0.089134999 0.46628001
1.401527 -0.085031003 0.46663401
1.410303 -0.085812002 0.46514499
1.433762 -0.087274 0.46924999
1.438529 -0.088625997 0.466003
1.3408 -0.084934004 0.465857
1.3597389 -0.081845999 0.466084
1.37406 -0.081637003 0.46509901
1.3855211 -0.081275001 0.46814099
1.4022059 -0.082696997 0.46836501
1.414772 -0.081680998 0.465684
1.3522955 -0.076642498 0.467976
1.3715169 -0.075222 0.46501899
1.385209 -0.078826003 0.467949
1.39054 -0.097846001 0.47373301
1.398487 -0.098535001 0.47458801
1.415544 -0.096358001 0.47457901
1.373028 -0.087075002 0.47020099
1.382704 -0.087306 0.47425801
1.449509 -0.089819998 0.47452801
1.37963 -0.084663004 0.47052601
1.361307 -0.079764001 0.47214201
1.374621 -0.079107001 0.47359899
1.398772 -0.098774001 0.47656399
1.462404 -0.096905001 0.47850701
1.370209 -0.090070002 0.479711
1.376778 -0.090418003 0.47977901
1.412896 -0.091237001 0.478632
1.340984 -0.088142999 0.47958601
1.336828 -0.080169998 0.47593799
1.34661 -0.081597999 0.4772
1.353687 -0.083686002 0.476832
1.373396 -0.084753998 0.478636
1.3475519 -0.077313997 0.47621399
1.361038 -0.102052 0.480959
1.400964 -0.100856 0.48324353
1.4800659 -0.097338997 0.48361501
1.380788 -0.094699003 0.484568
1.403478 -0.091100998 0.484191
1.412015 -0.093745999 0.48087999
1.4159271 -0.090540998 0.48207399
1.428901 -0.094291002 0.48358801
1.348912 -0.086874001 0.48345599
1.422703 -0.088362001 0.48066601
1.356081 -0.084239997 0.48076099
1.380434 -0.082339004 0.48101801
1.377537 -0.107396 0.48700601
1.417159 -0.105763 0.488139
1.424288 -0.101797 0.48871899
1.442324 -0.104323 0.489072
1.450026 -0.100065 0.48879701
1.4070669 -0.092992 0.48666251
1.375558 -0.086093999 0.485708
1.3624225 -0.083967999 0.48876601
1.378862 -0.109781 0.49345201
1.390783 -0.103311 0.49448401
1.425006 -0.104406 0.49430701
1.485685 -0.10237 0.490466
1.366357 -0.098502003 0.494322
1.404578 -0.097658999 0.49365401
1.415864 -0.097067997 0.49450999
1.424265 -0.097442999 0.49063
1.348789 -0.091833003 0.49036199
1.355119 -0.094457999 0.49283499
1.382738 -0.091344997 0.49388799
1.386978 -0.092095003 0.49268401
1.425987 -0.092621997 0.49047601
1.354179 -0.089296997 0.49147499
1.396112 -0.109008 0.495307
1.437696 -0.105371 0.49532199
1.346853 -0.095655002 0.49877399
1.363991 -0.099541001 0.49823701
1.388532 -0.098084003 0.49922401
1.417082 -0.099400997 0.498463
1.421717 -0.099771 0.49744201
1.4253221 -0.097323999 0.496829
1.443004 -0.097797997 0.49904799
1.394727 -0.092237003 0.49800199
1.422459 -0.106141 0.50278401
1.428769 -0.10064 0.50284499
1.458542 -0.102901 0.50028801
1.35934 -0.098186001 0.50328398
1.386873 -0.098419003 0.50448102
1.3715465 -0.092780501 0.50096297
1.3777601 -0.092549004 0.50070798
1.396067 -0.094898 0.50045198
1.34705 -0.086603001 0.50308198
1.357888 -0.086719997 0.50043201
1.4071259 -0.115602 0.50851601
1.438074 -0.115439 0.50896901
1.432734 -0.112266 0.50888199
1.400525 -0.109675 0.507487
1.420267 -0.10867 0.50816399
1.395499 -0.102897 0.50695699
1.401762 -0.102019 0.50638402
1.417766 -0.102851 0.50797498
1.43244 -0.100855 0.50561702
1.395154 -0.098053001 0.50522202
1.4086015 -0.097690001 0.50640297
1.423452 -0.116756 0.51233298
1.420754 -0.110476 0.51246202
1.471338 -0.114929 0.51092499
1.414992 -0.105954 0.51354402
1.418237 -0.10826 0.51485199
1.427941 -0.106287 0.51299298
1.3872581 -0.101307 0.51480901
1.421806 -0.1018125 0.51357853
1.379181 -0.099496998 0.51005
1.3655961 -0.094292 0.5147
1.344164 -0.089929 0.51161999
1.468413 -0.124483 0.51603597
1.443516 -0.118696 0.51849401
1.431983 -0.113062 0.51642799
1.4392281 -0.114774 0.51912701
1.447471 -0.110745 0.51583499
1.440915 -0.108283 0.51734149
1.385689 -0.10285 0.51584297
1.4024606 -0.104519 0.51804996
1.402101 -0.123962 0.52239799
1.4404049 -0.1224165 0.52297699
1.410419 -0.116118 0.52065599
1.420207 -0.113012 0.52258903
1.431559 -0.114835 0.52008098
1.394538 -0.105953 0.52363598
1.408444 -0.109436 0.520854
1.4282219 -0.109889 0.52070397
1.40922 -0.103687 0.52458203
1.493425 -0.127691 0.525509
1.44726 -0.121613 0.52547199
1.475806 -0.123941 0.527134
1.421739 -0.112368 0.52643502
1.453021 -0.114968 0.52546698
1.45619 -0.111454 0.52545601
1.396636 -0.109405 0.529185
1.3894351 -0.103305 0.52706498
1.436291 -0.121149 0.53394502
1.442852 -0.120999 0.53199798
1.46506 -0.12369 0.53313899
1.4215519 -0.116065 0.53494102
1.444508 -0.116101 0.531982
1.384529 -0.110101 0.53015602
1.411729 -0.110198 0.53076297
1.416514 -0.111555 0.532076
1.437984 -0.114391 0.53272998
1.397076 -0.132321 0.53627998
1.471704 -0.12659 0.53894502
1.3948621 -0.121302 0.53592199
1.418144 -0.124331 0.539738
1.425441 -0.124739 0.535308
1.465407 -0.120935 0.53578699
1.4345911 -0.116266 0.53508002
1.4459929 -0.1167035 0.53572249
1.389028 -0.110712 0.53615999
1.4101861 -0.112489 0.537404
1.416075 -0.1112255 0.5393365
1.501407 -0.13553099 0.54028499
1.454144 -0.12716299 0.54391497
1.460611 -0.12833101 0.54337698
1.391611 -0.117764 0.54306698
1.399204 -0.11672 0.54430598
1.405201 -0.11777 0.54341602
1.395587 -0.112975 0.54222
1.399258 -0.109707 0.54035902
1.441105 -0.135905 0.54919201
1.4616669 -0.136246 0.547171
1.445153 -0.131908 0.54548401
1.4562221 -0.130514 0.54941702
1.415208 -0.12719201 0.54860699
1.446559 -0.12779699 0.547544
1.456053 -0.126922 0.54806101
1.477793 -0.126901 0.54610598
1.417596 -0.124727 0.54995102
1.439955 -0.123095 0.545138
1.452377 -0.123832 0.54655099
1.470489 -0.120926 0.54738402
1.426585 -0.116877 0.54735601
1.431648 -0.118263 0.54616499
1.487883 -0.14256251 0.55260199
1.419065 -0.136234 0.553904
1.45592 -0.135846 0.552607
1.419729 -0.133341 0.55258602
1.4229161 -0.13122 0.55439299
1.46501 -0.13435499 0.55191898
1.4524651 -0.1260795 0.55133301
1.472603 -0.12720799 0.55498999
1.481109 -0.128473 0.55061901
1.505345 -0.12783 0.55098599
1.414294 -0.121478 0.554205
1.409119 -0.1162 0.55382502
1.414377 -0.115358 0.55163002
1.426016 -0.119123 0.55137002
1.448076 -0.130753 0.556346
1.467978 -0.134427 0.55613601
1.477041 -0.127029 0.55619001
1.4138091 -0.1237225 0.55758297
1.418995 -0.122769 0.55639702
1.433664 -0.12283 0.559986
1.440683 -0.121794 0.557778
1.466102 -0.145192 0.56326199
1.492187 -0.147838 0.56005001
1.452629 -0.142864 0.563115
1.458317 -0.14212 0.56489301
1.4425116 -0.137227 0.56180149
1.454971 -0.135205 0.56387001
1.457366 -0.135996 0.56096399
1.460997 -0.13539 0.56404001
1.479479 -0.13362899 0.564601
1.482357 -0.134745 0.56229597
1.492854 -0.134679 0.56205297
1.517813 -0.133837 0.56137401
1.428737 -0.12737601 0.561885
1.4471115 -0.127992 0.56383401
1.412403 -0.123885 0.56481802
1.526198 -0.151555 0.56608403
1.463649 -0.14370599 0.567182
1.475371 -0.14060301 0.56904799
1.486443 -0.136103 0.56602502
1.495509 -0.138657 0.56941402
1.4578905 -0.13345951 0.5668745
1.494095 -0.13331699 0.56818902
1.423884 -0.128213 0.56722802
1.453396 -0.127211 0.56685799
1.419129 -0.122774 0.56746399
1.5001121 -0.155623 0.57472199
1.473919 -0.140026 0.57173401
1.492654 -0.13714001 0.57108903
1.428973 -0.130261 0.57321298
1.458908 -0.130932 0.57268548
1.473098 -0.134984 0.571172
1.484966 -0.13481399 0.570862
1.437559 -0.12751499 0.57184052
1.4425164 -0.1276485 0.57265002
1.447017 -0.127918 0.57008398
1.503251 -0.160087 0.57752597
1.585149 -0.155195 0.57922
1.447469 -0.151446 0.57736897
1.489208 -0.150977 0.57576102
1.542865 -0.15464699 0.57977599
1.467364 -0.14865901 0.57845497
1.488215 -0.14654601 0.57841897
1.48684 -0.14466199 0.579427
1.4924459 -0.144017 0.57810497
1.496034 -0.14307199 0.57976401
1.508661 -0.14256901 0.57653099
1.4619499 -0.136509 0.578381
1.482856 -0.13901401 0.57757151
1.444129 -0.13423499 0.57628101
1.531904 -0.15366 0.58486998
1.482905 -0.146851 0.58212298
1.4942679 -0.145679 0.58322197
1.499823 -0.149694 0.58229399
1.4967721 -0.14247601 0.58470702
1.519003 -0.144163 0.58406401
1.446297 -0.13539501 0.58379102
1.452193 -0.13762701 0.58127302
1.471505 -0.135958 0.58027899
1.496875 -0.139817 0.58293301
1.439988 -0.134997 0.58149898
1.457065 -0.1337145 0.58430201
1.429287 -0.12943301 0.58128101
1.568778 -0.15811899 0.58984601
1.523113 -0.154092 0.585567
1.550485 -0.15464 0.58940798
1.461565 -0.14963301 0.58911097
1.484326 -0.140742 0.58843398
1.492891 -0.142599 0.58553302
1.498881 -0.142097 0.58698303
1.5064369 -0.142552 0.58777499
1.444173 -0.13717499 0.58797199
1.454976 -0.13601799 0.58551002
1.448132 -0.134948 0.585711
1.493699 -0.155523 0.591474
1.496953 -0.15594399 0.59332049
1.512128 -0.15562101 0.59254497
1.47541 -0.15425 0.59433597
1.4871351 -0.154264 0.59263003
1.492475 -0.15408801 0.59287202
1.499314 -0.15182 0.59158301
1.5056241 -0.150041 0.59350401
1.511847 -0.15242299 0.59378803
1.522404 -0.15383001 0.592439
1.459692 -0.14119799 0.59088701
1.4648269 -0.14301001 0.59029597
1.475806 -0.14351299 0.59326601
1.491536 -0.143463 0.59409797
1.464375 -0.138542 0.592493
1.4679739 -0.139884 0.59254402
1.556857 -0.155792 0.59643799
1.526585 -0.15329801 0.59860998
1.497147 -0.14552499 0.59658802
1.518634 -0.148738 0.59821802
1.453571 -0.143499 0.598589
1.4553355 -0.141509 0.59813899
1.470257 -0.140697 0.59715497
1.4805075 -0.1437095 0.59956801
1.510711 -0.160401 0.601825
1.536438 -0.16280501 0.60132003
1.472231 -0.156601 0.603347
1.525605 -0.158572 0.60250801
1.500816 -0.15038399 0.600205
1.509968 -0.150309 0.604743
1.534652 -0.17208999 0.60538399
1.558942 -0.17044 0.60953999
1.5093499 -0.166298 0.60782301
1.483034 -0.16061801 0.60765201
1.485651 -0.16200399 0.606098
1.503975 -0.163267 0.60652697
1.505967 -0.1628 0.60606802
1.510221 -0.160319 0.60949898
1.519516 -0.16313501 0.608679
1.5237091 -0.164267 0.608859
1.515214 -0.15700901 0.607243
1.4717391 -0.152418 0.60869598
1.490093 -0.153776 0.60834098
1.495195 -0.154714 0.60739303
1.472103 -0.146402 0.607068
1.492268 -0.14955799 0.609743
1.450036 -0.14301001 0.60946298
1.523919 -0.17507599 0.61416501
1.5546139 -0.165355 0.61312097
1.5385261 -0.16320799 0.61020201
1.564593 -0.16291299 0.612486
1.492426 -0.155269 0.61189598
1.508741 -0.158169 0.61487597
1.522789 -0.155092 0.61289799
1.465433 -0.150594 0.61303401
1.482144 -0.152611 0.61202103
1.4482424 -0.149093 0.61073649
1.526968 -0.17967699 0.61790699
1.521574 -0.172187 0.61800802
1.536706 -0.16813301 0.61589301
1.482928 -0.16367 0.61777103
1.521898 -0.164149 0.615417
1.495065 -0.156454 0.61901402
1.5036094 -0.15730351 0.61864495
1.507753 -0.15710001 0.61515999
1.519528 -0.159253 0.61849099
1.548417 -0.180264 0.62418699
1.50261 -0.178013 0.62438899
1.511759 -0.171183 0.62120497
1.51849 -0.17017099 0.62086499
1.5359811 -0.17053699 0.62423497
1.549704 -0.17199899 0.62292701
1.490679 -0.167072 0.62112999
1.5114 -0.16767401 0.62106901
1.501259 -0.160339 0.62072903
1.5248049 -0.163978 0.620983
1.504096 -0.157822 0.62367201
1.455319 -0.15477701 0.62427503
1.4798321 -0.15426201 0.62164301
1.503656 -0.188144 0.62916201
1.549294 -0.182575 0.62893999
1.533633 -0.17743349 0.6274665
1.562701 -0.175864 0.62996101
1.533191 -0.170313 0.627334
1.5094301 -0.169726 0.62623698
1.5166661 -0.16595399 0.62954801
1.49791 -0.163855 0.62802398
1.515359 -0.164543 0.62638599
1.531994 -0.162126 0.62732601
1.543861 -0.164123 0.62922102
1.473398 -0.155148 0.62536198
1.477443 -0.157787 0.627675
1.524328 -0.181118 0.63150501
1.529443 -0.183725 0.63041198
1.545506 -0.181097 0.63422
1.593068 -0.18198 0.63481301
1.5513541 -0.17730699 0.630867
1.498457 -0.173604 0.63477999
1.588106 -0.174881 0.63172001
1.511098 -0.169576 0.63300699
1.551393 -0.166464 0.63012999
1.516717 -0.161336 0.63011199
1.564198 -0.181915 0.638515
1.590084 -0.184696 0.63693398
1.519542 -0.179098 0.63588297
1.53105 -0.17765699 0.63586599
1.5444829 -0.176477 0.63925099
1.537866 -0.173492 0.63643998
1.568205 -0.17223901 0.63807201
1.518527 -0.165132 0.63920099
1.4779249 -0.160115 0.63907802
1.482668 -0.16190401 0.63958001
1.507825 -0.162691 0.63598198
1.571111 -0.193967 0.64310902
1.530426 -0.186308 0.64315701
1.5542181 -0.189145 0.64313799
1.57365 -0.185259 0.643803
1.617558 -0.181887 0.644476
1.5527231 -0.178045 0.64002001
1.513805 -0.174649 0.64032698
1.52459 -0.173739 0.64421898
1.522346 -0.169075 0.64062399
1.528941 -0.167225 0.640297
1.559472 -0.19228999 0.64709002
1.558164 -0.18705501 0.64713699
1.5697 -0.18728399 0.64753503
1.577042 -0.186524 0.64616197
1.603133 -0.186391 0.64867002
1.506367 -0.180218 0.648606
1.5510581 -0.18004601 0.64638501
1.526359 -0.17999899 0.64929301
1.534128 -0.17894401 0.64741498
1.5399849 -0.175648 0.64865798
1.543985 -0.17791501 0.64846098
1.550855 -0.17225701 0.64520597
1.501879 -0.167896 0.64615399
1.562452 -0.200877 0.654966
1.501314 -0.197484 0.65245903
1.583057 -0.19413 0.654185
1.527325 -0.187013 0.65056002
1.543862 -0.18524 0.651079
1.530861 -0.18161801 0.65001702
1.555776 -0.182641 0.651169
1.56038 -0.178967 0.65051299
1.5243829 -0.17006201 0.65145499
1.533219 -0.17254201 0.65495402
1.5419569 -0.17339301 0.65042299
1.547068 -0.17438599 0.653427
1.485622 -0.166604 0.65284097
1.4920731 -0.16874801 0.65398502
1.5755579 -0.19762 0.65786099
1.609028 -0.195593 0.65768999
1.567323 -0.19198 0.65801799
1.579385 -0.19464201 0.65605199
1.616055 -0.191027 0.65636402
1.538913 -0.185348 0.65825897
1.549793 -0.187488 0.65649903
1.609112 -0.187958 0.65991497
1.532515 -0.18152399 0.65889102
1.5686769 -0.18029299 0.65964401
1.5834301 -0.184328 0.65859902
1.547307 -0.17773101 0.65576297
1.49544 -0.169377 0.65723598
1.5679621 -0.19919901 0.66135502
1.574268 -0.19649801 0.66410798
1.552774 -0.191064 0.66119897
1.59305 -0.19316401 0.66323102
1.516188 -0.185433 0.66223198
1.540676 -0.18873601 0.664774
1.557656 -0.18621799 0.660007
1.565892 -0.186075 0.662476
1.553576 -0.184884 0.66220099
1.557448 -0.180668 0.66067499
1.55339 -0.179003 0.66066599
1.55554 -0.202866 0.66578197
1.591095 -0.20202699 0.66906601
1.604944 -0.20021901 0.66915703
1.6555949 -0.195566 0.66667002
1.538449 -0.194244 0.666031
1.5463049 -0.18510801 0.66561902
1.552634 -0.183099 0.66979402
1.503018 -0.177843 0.66536802
1.4932871 -0.172225 0.66744852
1.507917 -0.174694 0.66614699
1.556381 -0.211311 0.67345399
1.560077 -0.206983 0.67420298
1.569253 -0.206361 0.67246097
1.6163501 -0.20547099 0.67457598
1.6157171 -0.204127 0.67338598
1.668596 -0.200231 0.67440999
1.566682 -0.19518401 0.67264301
1.6053981 -0.19781899 0.67332798
1.548997 -0.193128 0.67186397
1.5785249 -0.191458 0.67149901
1.594799 -0.190534 0.67059702
1.54044 -0.189309 0.67356199
1.587059 -0.189255 0.67087901
1.529034 -0.181704 0.67083001
1.514454 -0.179968 0.67282301
1.594921 -0.20752101 0.67911601
1.542891 -0.20284399 0.67991501
1.588773 -0.202528 0.67945802
1.533625 -0.196916 0.67844099
1.58611 -0.199725 0.67795098
1.538471 -0.19284201 0.67838502
1.545413 -0.191762 0.67839903
1.520393 -0.18001001 0.67505699
1.528056 -0.181813 0.67605001
1.5610189 -0.21157099 0.682015
1.591542 -0.21310399 0.68467802
1.5591069 -0.208535 0.68356901
1.599133 -0.209923 0.68394798
1.6228679 -0.20897 0.68480903
1.661244 -0.205605 0.68144602
1.551365 -0.20200101 0.68156302
1.546275 -0.19611 0.68016601
1.606168 -0.19674 0.68259501
1.565966 -0.19297899 0.68415701
1.532869 -0.185326 0.68396801
1.5905989 -0.212199 0.68903202
1.669999 -0.208619 0.68930501
1.576575 -0.201396 0.685157
1.583845 -0.202995 0.68902802
1.56252 -0.195307 0.68551999
1.571872 -0.19881 0.68871653
1.607021 -0.19676401 0.68681002
1.5582 -0.19181301 0.68616199
1.573078 -0.19355001 0.688748
1.58922 -0.19393399 0.687904
1.52715 -0.18756799 0.68829501
1.585312 -0.213287 0.69045103
1.605329 -0.21377701 0.69126201
1.651193 -0.210435 0.69057399
1.687919 -0.21072599 0.69359398
1.568451 -0.207008 0.690763
1.589129 -0.206746 0.69412398
1.6033945 -0.207572 0.69214201
1.543633 -0.204179 0.69349599
1.617537 -0.20294601 0.694592
1.546824 -0.199754 0.69285297
1.5570821 -0.199369 0.693946
1.535839 -0.18972901 0.69072801
1.59859 -0.219644 0.69889599
1.607172 -0.21782 0.698829
1.5839496 -0.21341 0.69646955
1.559482 -0.20558301 0.69999498
1.58336 -0.208646 0.69802201
1.616424 -0.207607 0.69856697
1.573947 -0.200819 0.69893301
1.599681 -0.201552 0.69930899
1.583396 -0.19733 0.69939703
1.555017 -0.194809 0.69976401
1.520962 -0.189832 0.698349
1.679864 -0.21578699 0.70343798
1.59433 -0.21124101 0.70177698
1.577832 -0.20520701 0.70189703
1.59586 -0.202406 0.70348501
1.539986 -0.195278 0.70398301
1.5991319 -0.21743 0.70715803
1.611124 -0.21976499 0.70712298
1.553767 -0.211541 0.708754
1.601281 -0.210921 0.70565999
1.629057 -0.21299 0.70758897
1.5553 -0.206756 0.70751202
1.568992 -0.20707799 0.70971602
1.5868109 -0.207008 0.70575702
1.597047 -0.20586 0.70806402
1.576225 -0.19998901 0.707537
1.6152101 -0.22571699 0.71371102
1.587971 -0.224141 0.71382701
1.596948 -0.216671 0.71412301
1.600047 -0.21987601 0.71232599
1.623221 -0.215433 0.71037799
1.698164 -0.218373 0.71059197
1.569008 -0.212249 0.71397901
1.612238 -0.21346299 0.71075398
1.581928 -0.20866001 0.713709
1.570297 -0.20127399 0.71069902
1.6217951 -0.225804 0.71554601
1.642284 -0.223704 0.71594101
1.5919369 -0.212759 0.71715897
1.598956 -0.212859 0.71587598
1.582773 -0.206591 0.71960998
1.589003 -0.206108 0.71588701
1.603675 -0.20776901 0.71813297
1.596 -0.227236 0.72407299
1.620268 -0.22709 0.72227299
1.638013 -0.227438 0.720689
1.641646 -0.229702 0.72474802
1.584128 -0.22295099 0.72032797
1.626791 -0.222794 0.72102201
1.564025 -0.21900401 0.72421902
1.6189899 -0.21896701 0.72254503
1.62353 -0.21962699 0.72267097
1.607886 -0.212505 0.72467703
1.580792 -0.209203 0.72411001
1.6127415 -0.23183951 0.72785103
1.62091 -0.225289 0.72757202
1.637815 -0.227383 0.729877
1.689783 -0.226515 0.72668201
1.611101 -0.21871001 0.725995
1.618997 -0.21558701 0.72697997
1.5986315 -0.21312051 0.72664297
1.610119 -0.22729801 0.73155302
1.666957 -0.229139 0.73465699
1.610671 -0.224815 0.73045498
1.580786 -0.216323 0.732813
1.5917521 -0.218272 0.73072499
1.609236 -0.21660399 0.73460799
1.573871 -0.21029601 0.73036599
1.594611 -0.21488699 0.73237699
1.668407 -0.233757 0.73595798
1.679702 -0.23197199 0.73700702
1.574405 -0.22657 0.73989499
1.6170936 -0.22933051 0.73903102
1.589422 -0.22033501 0.73946297
1.615924 -0.220402 0.73955899
1.623247 -0.22456101 0.73611403
1.647015 -0.222055 0.73706502
1.64516 -0.242318 0.74343199
1.592867 -0.237041 0.74098802
1.636536 -0.23169801 0.74293
1.611118 -0.226696 0.74463701
1.5932455 -0.22221601 0.74179697
1.690997 -0.24136101 0.749699
1.644532 -0.23198999 0.74812198
1.6461149 -0.23195501 0.74650502
1.58664 -0.220302 0.749538
1.598823 -0.224932 0.74541599
1.6002181 -0.223665 0.74886698
1.6202019 -0.22253899 0.74634099
1.68441 -0.24147099 0.75409198
1.619818 -0.234649 0.750265
1.646181 -0.231975 0.75471401
1.663409 -0.232004 0.75232899
1.59842 -0.22766399 0.75483102
1.623963 -0.22829901 0.75444102
1.610052 -0.22493 0.75489902
1.612951 -0.238426 0.756504
1.644487 -0.239785 0.75792497
1.657407 -0.23812 0.75842202
1.589829 -0.23210999 0.75773299
1.605707 -0.230869 0.758376
1.620708 -0.233665 0.75837702
1.625854 -0.231814 0.75721997
1.632678 -0.227855 0.755252
1.675634 -0.237893 0.76251298
1.6409565 -0.23204499 0.763583
1.625935 -0.229462 0.76267201
1.561395 -0.219291 0.76034999
1.671285 -0.24431901 0.76958799
1.59027 -0.23571 0.768112
1.5997 -0.228184 0.76611298
1.6073 -0.228544 0.76564401
1.630299 -0.240633 0.77211601
1.608076 -0.24360199 0.77612901
1.658558 -0.240256 0.780761
