# .PCD v0.7 - Point Cloud Data file format
VERSION 0.7
FIELDS x y z
SIZE 4 4 4
TYPE F F F
COUNT 1 1 1
WIDTH 431
HEIGHT 1
VIEWPOINT 0 0 0 1 0 0 0
POINTS 431
DATA ascii
0.033018 -0.037074 0.94873703
0.040321 -0.0363965 0.94899052
0.0474905 -0.036462002 0.94760597
0.023494 -0.034338001 0.94880003
0.030723 -0.034338001 0.94880003
0.037951998 -0.034338001 0.94880003
0.045180999 -0.034338001 0.94880003
0.069389999 -0.044234499 0.95350951
0.026052 -0.036392998 0.95277029
0.033335 -0.035895333 0.95316964
0.040575501 -0.036116999 0.95087349
0.048140001 -0.036255002 0.95344198
0.052324001 -0.037870999 0.95469201
0.055025999 -0.037448999 0.95411301
0.062293999 -0.037519 0.954171
0.016310001 -0.034432001 0.95139998
0.052696999 -0.034526002 0.954
0.069251999 -0.046806999 0.95987803
0.076765001 -0.0473525 0.9585405
0.053268999 -0.042194001 0.959548
0.067424998 -0.041912999 0.95670003
0.072437495 -0.042705998 0.95667255
0.077509999 -0.043595999 0.956514
0.012022667 -0.035783 0.95758897
0.018923499 -0.035731748 0.957151
0.022504199 -0.0389672 0.95780075
0.027420999 -0.036571499 0.95650947
0.0315695 -0.037438497 0.95806205
0.037110999 -0.036872666 0.9575457
0.046031497 -0.037882 0.95865846
0.056732249 -0.037165251 0.95728499
0.063300669 -0.036384668 0.95887703
0.069980003 -0.037763 0.95963198
-0.0026229999 -0.034456 0.95570803
0.0084893331 -0.033611998 0.9575513
0.022806 -0.033515599 0.95853502
0.027516 -0.032617997 0.95866871
0.033503 -0.030104 0.95941502
0.036004335 -0.032492336 0.95759267
0.042016998 -0.032839999 0.9589988
0.046702001 -0.032322001 0.95928144
0.053514 -0.032664001 0.95994401
0.060134999 -0.034623001 0.95670003
0.022048 -0.029514 0.959535
0.031996999 -0.02946 0.95592201
0.046335999 -0.025807001 0.95523399
0.031383 -0.023437001 0.95997
0.074807003 -0.049559001 0.96466798
0.032727502 -0.042147499 0.96214348
0.038034 -0.041885 0.96242702
0.046364002 -0.042938501 0.96390748
0.054272 -0.041942 0.96306401
0.05934 -0.040374 0.962286
0.067699499 -0.042084001 0.96298701
0.072008997 -0.044293001 0.96085101
0.076137006 -0.042027 0.96248496
0.083771497 -0.043276999 0.96424299
-0.01058 -0.036759 0.96463603
0.0042364998 -0.035263002 0.96208096
0.0058309999 -0.035898 0.9646315
0.011741667 -0.036709998 0.96122295
0.017556001 -0.038718 0.96006203
0.027548 -0.037700001 0.96049201
0.031592 -0.037121002 0.96101803
0.039666001 -0.035356 0.96217
0.054933999 -0.0379715 0.96335101
0.071527496 -0.036551498 0.96299899
-0.015152 -0.031654999 0.96217
-0.010777 -0.034600001 0.96370101
-0.00229 -0.034127001 0.96371198
0.0025867999 -0.033850599 0.96278107
0.0065593333 -0.032393664 0.96220833
0.012244 -0.031762499 0.96248299
0.01895 -0.030029001 0.96199799
0.0217345 -0.030994501 0.96322954
0.033361502 -0.031192001 0.96264851
0.035209998 -0.034609001 0.96394002
0.043505002 -0.032949001 0.964571
0.047901671 -0.032979667 0.96255034
0.051514 -0.032476336 0.9623127
0.056563664 -0.030886665 0.96240664
0.061803497 -0.0335605 0.96376002
0.067805 -0.034818999 0.96210003
0.00091 -0.025053 0.96203399
0.0180532 -0.027891403 0.9630208
0.0223855 -0.027729999 0.96377254
0.028001001 -0.02874 0.96359777
0.032954197 -0.0285274 0.96331823
0.038278498 -0.0276505 0.96330452
0.041506998 -0.028019251 0.96306252
0.047077 -0.028094999 0.96302551
0.020189 -0.022004001 0.96139097
0.026795998 -0.0237865 0.96417749
0.076536 -0.051058996 0.96786332
0.047076002 -0.046484504 0.96783119
0.052371442 -0.047655225 0.96783352
0.056658 -0.047510501 0.96758074
0.062984496 -0.047649 0.96777803
0.065659001 -0.04789 0.96988201
0.082929 -0.049757 0.96749997
0.01733 -0.042936798 0.96856135
0.020931141 -0.042000145 0.96742171
0.028835287 -0.041882716 0.96799815
0.032099999 -0.042518124 0.96782362
0.037363403 -0.042753503 0.96694994
0.043959998 -0.043617249 0.96752501
0.047336668 -0.043490667 0.96745801
0.050878 -0.044735 0.96785802
0.0719295 -0.0420385 0.96687305
-0.023271 -0.035689499 0.96833348
-0.017278999 -0.035858002 0.96922398
-0.0058800001 -0.036234498 0.96876395
-0.0028876669 -0.036944333 0.96698666
0.001985 -0.035130333 0.96757269
0.011902 -0.039038502 0.96805704
0.0220345 -0.038920999 0.968045
0.027528999 -0.038068336 0.96730298
0.030851999 -0.039409999 0.96787
0.038254 -0.037172999 0.96645302
0.054547999 -0.039039999 0.96567398
0.059358001 -0.038410001 0.96778899
0.067582339 -0.037463669 0.96721071
0.070703998 -0.036683001 0.96932399
0.075557001 -0.035014 0.96749997
-0.026507 -0.030959001 0.96781999
-0.023126001 -0.030361 0.96881098
-0.0023815001 -0.032704502 0.96825451
0.0018335 -0.0322395 0.96829498
0.0076124999 -0.033882 0.96654546
0.010929 -0.031677 0.96782303
0.017506666 -0.031571668 0.9683544
0.024372 -0.031055501 0.96697998
0.032272998 -0.030562 0.96720499
0.040661 -0.033622 0.96580797
-0.0124105 -0.028103501 0.96636802
-0.0067934999 -0.0299465 0.96602601
0.0019725 -0.027729999 0.966748
0.0086620003 -0.028902 0.967237
0.01306 -0.028894 0.96977401
0.0184114 -0.0278858 0.96754301
0.021394499 -0.027823001 0.96825755
0.027806668 -0.027586333 0.96850634
0.031676501 -0.027058501 0.96789998
0.050151002 -0.029194999 0.96514797
0.007487 -0.024675 0.96735698
0.012290999 -0.022977 0.96633768
0.065775 -0.051088002 0.97148502
0.073691249 -0.052606501 0.9736253
0.082426503 -0.0522995 0.97227252
0.032414 -0.045756999 0.97354698
0.043768 -0.046526998 0.97160101
0.048977502 -0.048242502 0.97063398
0.053242397 -0.047309004 0.97299224
0.057113167 -0.047982004 0.97400451
0.060222998 -0.047019999 0.97237599
0.068005502 -0.045413002 0.97333503
0.070275001 -0.047187999 0.97031802
0.0072993995 -0.0428169 0.97234124
0.013034286 -0.042130433 0.97224534
0.016237 -0.041777998 0.970985
0.022498285 -0.041497856 0.97140312
0.028934 -0.041005667 0.97148401
0.032242998 -0.041772999 0.97208071
0.036568999 -0.042443998 0.97211301
0.041846335 -0.041397333 0.97252345
0.048295751 -0.042664874 0.97328675
0.053776 -0.042204998 0.97391498
0.058192499 -0.04177 0.97221249
0.063222006 -0.0416435 0.97345799
0.081234999 -0.044392999 0.97171599
-0.017685 -0.037844501 0.97163451
-0.012791 -0.037966002 0.97199798
-0.0070663337 -0.036198664 0.97207499
-0.002507 -0.035834 0.97248399
0.0012725 -0.037595503 0.97142398
0.0082226666 -0.039118003 0.97321004
0.01330975 -0.03849325 0.97279274
0.017591249 -0.037064999 0.97215575
0.022523001 -0.037161399 0.97292346
0.028187251 -0.036062501 0.97317153
0.032458715 -0.037023716 0.97358048
0.038369 -0.037593 0.97375345
0.0413955 -0.038230002 0.97371852
0.046164665 -0.037869334 0.97259831
0.055307999 -0.039312001 0.97381598
-0.020066001 -0.033411998 0.97388899
-0.016504999 -0.033895001 0.97123802
-0.010585 -0.034171 0.97195899
-0.0082542505 -0.032046501 0.97249228
-0.0030060001 -0.034233503 0.97228098
0.0040914998 -0.031525001 0.97059155
0.0124275 -0.033181999 0.97330248
0.022467 -0.034796 0.97380698
0.029337 -0.034779999 0.97225702
-0.024757 -0.028562 0.97373903
-0.000235 -0.028666001 0.97082901
0.00238 -0.027368667 0.97244698
0.0092409998 -0.027722999 0.97030002
0.012832333 -0.027709665 0.97240633
0.053562332 -0.051277 0.97618532
0.062947333 -0.052008167 0.97754484
0.067171998 -0.052610334 0.9775188
0.071273997 -0.052953664 0.97762865
0.075832501 -0.051101997 0.97787547
0.082408004 -0.053390998 0.97978002
0.017996 -0.046013001 0.976071
0.028191 -0.047272 0.975025
0.048518002 -0.047619998 0.97762102
0.051576197 -0.047410402 0.97646922
0.057068836 -0.045925003 0.97751421
0.062602602 -0.048519999 0.97809422
0.068204336 -0.047270667 0.97730535
0.074506 -0.04998 0.97978002
0.077918001 -0.046073999 0.97921801
-0.0057826662 -0.043733001 0.97814035
-0.0019476666 -0.042913333 0.97805905
0.0014201667 -0.042664334 0.9778654
0.0068015 -0.042171001 0.97709846
0.01041 -0.0410785 0.97775102
0.0161255 -0.042119503 0.97760451
0.021877 -0.040127002 0.97867602
0.027814001 -0.042777501 0.97701454
0.031668 -0.042688001 0.97548801
0.037555665 -0.043151002 0.97765166
0.042127125 -0.042402249 0.97695053
0.0473435 -0.041615501 0.97633499
0.051857751 -0.04272325 0.97757447
0.061241001 -0.041119002 0.97713703
0.066203997 -0.042449001 0.97755599
0.070818998 -0.043972999 0.97645199
-0.030696001 -0.036922999 0.97525799
-0.02073 -0.039728999 0.97725499
-0.017379999 -0.037512999 0.97794479
-0.012265999 -0.036911748 0.97765374
-0.0060990001 -0.035640001 0.97687197
-0.00098949997 -0.038300499 0.9788115
0.003456 -0.03816 0.97934353
0.0074832505 -0.037723251 0.97778499
0.012161714 -0.037417285 0.97769785
0.017809998 -0.037023801 0.9766714
0.023155142 -0.036156144 0.97688663
0.028003668 -0.037110999 0.979343
0.031698197 -0.0364758 0.97720277
0.037304498 -0.036178499 0.9760555
0.042759251 -0.036504749 0.97820497
0.047669332 -0.039455667 0.97698599
-0.025056999 -0.030613 0.97905999
-0.024565 -0.034864999 0.97658002
-0.011213 -0.034233999 0.97655803
-0.0087780003 -0.034214001 0.97742701
-0.0033159996 -0.032751001 0.97783154
0.0016855 -0.033535 0.97597301
0.0079030003 -0.0320035 0.97949147
0.013614 -0.0329425 0.97811198
0.016362499 -0.034969501 0.9788
0.021591 -0.033763751 0.97741276
-0.015859 -0.025211001 0.97598499
-0.013505 -0.026296666 0.97551829
0.086374998 -0.056924 0.98180997
0.057358995 -0.051831 0.982162
0.062355336 -0.051848169 0.98183799
0.067135796 -0.053474002 0.98312122
0.074432001 -0.052338999 0.98360997
0.078089997 -0.051937498 0.98360902
0.088685997 -0.053902 0.98039198
0.0490475 -0.046145499 0.98155403
0.050749999 -0.047710001 0.98012298
0.057908751 -0.048427753 0.98299128
0.062329665 -0.047513336 0.9833867
0.067757331 -0.048860338 0.98314667
0.074193001 -0.049417 0.98096502
-0.032423001 -0.0417795 0.98294252
-0.017581001 -0.042946 0.983787
-0.01278425 -0.043316498 0.98373228
-0.0066496669 -0.042801004 0.98227733
-0.0035255002 -0.040989 0.98141974
0.000241 -0.041338999 0.98363501
0.0057470002 -0.041560002 0.98099703
0.015686 -0.040509999 0.98336399
0.047557328 -0.042704504 0.98212796
0.052437831 -0.042921167 0.98154163
0.057175428 -0.042414002 0.98182833
-0.020467 -0.039231002 0.98324049
-0.018163001 -0.038062666 0.98399037
-0.011363501 -0.036204748 0.980762
-0.0074175 -0.037495501 0.98255754
-0.0039165001 -0.039474249 0.98271275
0.0025337501 -0.036898248 0.98295063
0.0089466665 -0.035983667 0.98299867
0.011490666 -0.036875334 0.98170203
0.028596999 -0.037223667 0.98247498
0.033281997 -0.0384215 0.98411
-0.026139 -0.033015002 0.98150998
-0.021488 -0.0312775 0.98334396
-0.016989999 -0.030342998 0.98225266
-0.0117995 -0.034449499 0.98220003
-0.0078819999 -0.034181997 0.98216349
0.0028005 -0.033092998 0.98277605
0.087017998 -0.060621001 0.988994
0.095770001 -0.061096001 0.98719299
0.063836753 -0.056445748 0.98796475
0.069940999 -0.056736998 0.98931998
0.072963797 -0.058143795 0.98726654
0.076499753 -0.057690751 0.986148
0.083476998 -0.057473999 0.986224
0.086290665 -0.058408666 0.98921967
0.063745327 -0.050846666 0.98785734
0.066091664 -0.053940337 0.98817867
0.072043173 -0.053747501 0.98735523
0.076291248 -0.052089497 0.98774076
0.080955997 -0.0526185 0.98737895
0.051842999 -0.047497001 0.988868
0.057348203 -0.046390403 0.98687238
0.062572747 -0.048596501 0.98719102
0.066918999 -0.0490015 0.98879451
0.072108999 -0.049126748 0.98804277
0.081428997 -0.049824499 0.98795003
-0.044163 -0.042169999 0.98995203
-0.036015999 -0.040989 0.989142
-0.027829334 -0.04397333 0.98808199
-0.024367999 -0.040713001 0.98817253
-0.015163 -0.042064998 0.98796499
-0.012823001 -0.043699335 0.98794001
-0.0083524995 -0.041928001 0.98730499
-0.031309001 -0.038828999 0.98834699
-0.02657 -0.035887502 0.98667002
-0.024225667 -0.036664996 0.98859668
-0.018586 -0.03734 0.98579103
-0.006167667 -0.038732331 0.98699433
-0.0037904002 -0.037658598 0.98823702
0.001886 -0.036026999 0.986597
0.012704 -0.036860999 0.98661298
-0.020562001 -0.034056 0.98878503
0.090694003 -0.061415002 0.99397397
0.096911997 -0.062107999 0.994232
0.069743998 -0.058892999 0.99313599
0.072335005 -0.056189001 0.99257624
0.078359999 -0.056951001 0.99023801
0.082664996 -0.057328001 0.99247199
0.085876003 -0.057739001 0.99239051
0.062174998 -0.051705003 0.99237752
0.067320004 -0.052185498 0.99056005
0.072646327 -0.053411003 0.99296361
0.078717001 -0.053182501 0.99307454
0.083068006 -0.052988004 0.99131233
0.086739004 -0.053958498 0.99159652
-0.030470001 -0.046073999 0.99435103
-0.016961999 -0.047096498 0.99302804
-0.035162002 -0.042964 0.99204999
-0.030561665 -0.040792666 0.99413103
-0.027122 -0.042868 0.99210799
-0.0243 -0.040279999 0.99052399
-0.016144667 -0.042976335 0.99313164
-0.0119255 -0.042107247 0.99275649
-0.0093689999 -0.040548999 0.99058902
-0.034038 -0.038927 0.99192703
-0.026479501 -0.037506498 0.992284
-0.021904999 -0.039229002 0.99043
-0.015946001 -0.036169998 0.99047101
-0.0042035002 -0.037165999 0.99029005
-0.026776001 -0.034462001 0.99254203
0.068240002 -0.060164999 0.99644297
0.071913004 -0.061642498 0.9965145
0.076273501 -0.062567838 0.9968276
0.082325995 -0.062890001 0.99671698
0.086373001 -0.061868668 0.99949628
0.060784001 -0.056593001 0.99565899
0.068729997 -0.055511497 0.99788249
0.072951749 -0.057194248 0.99682659
0.078171566 -0.057209145 0.99683338
0.081332497 -0.057349503 0.99923199
0.088913001 -0.059850998 0.99522799
0.055148002 -0.051713001 0.99662
-0.036453001 -0.046098001 0.99894297
-0.03019 -0.045954 0.99931902
-0.021567667 -0.048515666 0.99773735
-0.018632 -0.046147 0.99632204
-0.043880999 -0.044231001 0.99961001
-0.037846997 -0.044642001 0.99840498
-0.032639336 -0.042466667 0.99913639
-0.027228666 -0.042089667 0.99747699
-0.024501 -0.040313002 0.99982297
-0.012621 -0.042989001 0.99532098
-0.030464001 -0.0364535 0.99571598
-0.02987 -0.038892999 0.996849
-0.024488 -0.037930999 0.99518102
-0.016171999 -0.039542999 0.99666399
-0.012879 -0.039972998 0.995655
0.10269 -0.069124997 1.0048
0.074021503 -0.064538501 1.004199
0.076585747 -0.060996499 1.0033526
0.082623497 -0.064480498 1.0026345
0.086504661 -0.062710337 1.0025767
0.092611499 -0.0621785 1.0006175
0.068516664 -0.057438668 1.0022923
-0.041499 -0.046805002 1.003976
-0.035863999 -0.046918001 1.001135
-0.030502999 -0.047844999 1.0041521
-0.020759 -0.046608001 1.0034
-0.035657 -0.042137999 1.00297
-0.032413252 -0.043253999 1.0028485
-0.017684 -0.043444499 1.0019825
-0.038121998 -0.038291998 1.001266
0.071961999 -0.066051997 1.008319
0.085274994 -0.066294998 1.0074903
0.093169004 -0.067018002 1.007279
0.096051671 -0.068567999 1.0071256
0.073308997 -0.064231001 1.0051351
-0.040748999 -0.049619999 1.005403
-0.036881 -0.047627002 1.007872
-0.032510333 -0.047009666 1.008074
-0.020264 -0.04569 1.006713
-0.01754 -0.047350999 1.0062259
-0.041284002 -0.044590503 1.007339
-0.030878499 -0.043407999 1.0056479
0.07753101 -0.067346446 1.0124918
0.081058003 -0.068475001 1.0100549
-0.042113401 -0.051784802 1.0116582
-0.032559499 -0.050879002 1.0119336
-0.0253 -0.053567 1.010041
-0.036110248 -0.047088251 1.0116568
0.096547335 -0.072236329 1.0166737
-0.039246999 -0.052919 1.017814
-0.034890998 -0.052273002 1.017743
0.07713633 -0.072577335 1.0223206
0.082506999 -0.072431497 1.0211003
0.087270603 -0.073464401 1.0215623
-0.0375075 -0.057269 1.023648
-0.039615002 -0.057294998 1.0256
-0.032405999 -0.061949998 1.033728
-0.045717001 -0.059215002 1.030859
