# .PCD v0.7 - Point Cloud Data file format
VERSION 0.7
FIELDS x y z
SIZE 4 4 4
TYPE F F F
COUNT 1 1 1
WIDTH 1424
HEIGHT 1
VIEWPOINT 0 0 0 1 0 0 0
POINTS 1424
DATA ascii
-0.09577433 -0.37081766 1.3680524
-0.09194421 -0.37135622 1.3675913
-0.087566994 -0.37310141 1.3677703
-0.082261197 -0.37351483 1.3661768
-0.077285498 -0.372554 1.3659825
-0.021982899 -0.3730852 1.3673259
-0.018429501 -0.37191126 1.3679837
-0.011866 -0.372646 1.369101
-0.105639 -0.36819899 1.36755
-0.101152 -0.36700749 1.3687245
-0.098029897 -0.3680658 1.367498
-0.092978291 -0.36879972 1.3675444
-0.021268999 -0.36937299 1.369935
-0.017284693 -0.36786002 1.3675112
-0.014278857 -0.36649784 1.3682164
-0.1065435 -0.36181349 1.369257
-0.10172989 -0.36254501 1.3678896
-0.099236168 -0.36275387 1.3669053
-0.094696999 -0.36390999 1.367551
-0.015451 -0.36473799 1.366928
-0.013203769 -0.36187398 1.3674874
-0.10729799 -0.35764599 1.3679584
-0.10265876 -0.35662201 1.367461
-0.09839125 -0.35724476 1.3667955
-0.0120346 -0.35721096 1.3673823
-0.0095456662 -0.355472 1.3683075
-0.11081 -0.35256401 1.3654079
-0.10722967 -0.35193703 1.3682913
-0.10229658 -0.35145459 1.3671685
-0.098580495 -0.3533875 1.36769
-0.010927714 -0.35374874 1.3663027
-0.0077761002 -0.3523944 1.3673772
-0.003720857 -0.35104629 1.368867
0.0024280001 -0.35017601 1.3678941
-0.10706971 -0.34722137 1.3678019
-0.102415 -0.34827134 1.3667523
-0.098285504 -0.34782574 1.3668977
-0.094710998 -0.34547901 1.367551
-0.0062831999 -0.34877259 1.3664219
-0.0020940714 -0.34792137 1.3672014
0.0022366 -0.34627098 1.3681302
0.00671625 -0.34582123 1.3685452
0.010172 -0.34730899 1.365636
-0.115807 -0.34396899 1.368866
-0.112607 -0.3413043 1.3676838
-0.1073525 -0.34202993 1.3673145
-0.1028477 -0.34328049 1.3677402
-0.098641999 -0.34391651 1.3690197
-0.00042 -0.34327 1.365029
0.0029733751 -0.34261149 1.3669043
0.0076449998 -0.34330201 1.3672662
0.012572375 -0.34213975 1.3683525
0.016744832 -0.34173834 1.368472
-0.1160686 -0.33607659 1.3674837
-0.11277635 -0.33742645 1.3676059
-0.10785714 -0.33888373 1.3680449
-0.102411 -0.33906701 1.367341
0.0099769998 -0.338689 1.365099
0.012959667 -0.33915719 1.3667971
0.018187692 -0.33802512 1.3680676
0.0224426 -0.33693403 1.3687953
-0.12521499 -0.33199799 1.3667541
-0.12222622 -0.33177233 1.367352
-0.11787107 -0.33294696 1.3674104
-0.11298621 -0.3337788 1.3663479
0.0181625 -0.334993 1.365171
0.0222407 -0.3329587 1.3664033
0.027000999 -0.33169189 1.3684286
-0.131185 -0.32682139 1.3666275
-0.12701708 -0.32661626 1.3671893
-0.12302823 -0.32791254 1.3674033
0.024553999 -0.328412 1.365207
0.028167924 -0.32830742 1.3672936
0.031235332 -0.32605198 1.3676554
-0.13691327 -0.32200462 1.3688778
-0.1326457 -0.32290262 1.3679826
-0.12941599 -0.32415017 1.36647
0.029339001 -0.324664 1.365173
0.03232288 -0.3231208 1.3676026
0.03576 -0.32057399 1.369951
-0.146438 -0.3170805 1.366847
-0.14178242 -0.31716171 1.3680265
-0.13703865 -0.31813982 1.3678081
-0.1335144 -0.31799099 1.3671148
0.034395713 -0.31740269 1.36721
0.03594492 -0.31676215 1.367278
-0.1470682 -0.31205338 1.3677166
-0.14229153 -0.3127341 1.3677875
-0.138174 -0.31338599 1.3672647
-0.070130996 -0.38552201 1.374884
-0.047196001 -0.38651749 1.372052
-0.037124999 -0.38562 1.373486
-0.085476004 -0.38033 1.37486
-0.081632003 -0.38174301 1.372461
-0.077431001 -0.38089949 1.3712255
-0.072302669 -0.38069376 1.3731986
-0.066800639 -0.38105077 1.3730081
-0.061735407 -0.38144606 1.372259
-0.057275243 -0.38121143 1.3721062
-0.052455563 -0.38121593 1.372468
-0.047808591 -0.38171804 1.3724866
-0.041893821 -0.38229054 1.3725082
-0.037532814 -0.38274565 1.3725423
-0.032114945 -0.38237628 1.3723853
-0.027728768 -0.38147905 1.3728678
-0.024241 -0.38119799 1.372515
-0.090579666 -0.37588465 1.3727827
-0.087006383 -0.37661332 1.3729587
-0.082490273 -0.37724403 1.3723848
-0.077933624 -0.37802216 1.3722625
-0.072987825 -0.37876168 1.3721019
-0.067709252 -0.37848988 1.3720633
-0.062976003 -0.37912902 1.3709136
-0.056976624 -0.37881428 1.3722801
-0.05380233 -0.37893966 1.3721234
-0.045423999 -0.37979701 1.370353
-0.042508498 -0.37933701 1.370362
-0.026317399 -0.37888059 1.3723514
-0.022564737 -0.37703758 1.3723975
-0.01904 -0.37660065 1.3738747
-0.103699 -0.37095201 1.374947
-0.097759634 -0.37153327 1.3736171
-0.0931748 -0.37306949 1.3725263
-0.088413 -0.37351388 1.3715235
-0.020964 -0.37433499 1.370793
-0.017930083 -0.3724035 1.3725904
-0.014438 -0.37022001 1.3728271
-0.10236333 -0.36706325 1.3730059
-0.098597005 -0.36803713 1.3721898
-0.092558168 -0.36935136 1.3720888
-0.016639624 -0.36834314 1.3724401
-0.013179572 -0.36643928 1.3733822
-0.106723 -0.36252248 1.373438
-0.10317241 -0.36244917 1.3719898
-0.099262334 -0.36314902 1.3726979
-0.094426997 -0.362443 1.370598
-0.016410999 -0.36400801 1.3715069
-0.013188998 -0.36273509 1.3722674
-0.10646228 -0.35729527 1.3728355
-0.10320967 -0.35675934 1.3711748
-0.011603429 -0.35805103 1.372
-0.0097059999 -0.35787401 1.3734602
-0.1112438 -0.35216218 1.3720104
-0.10749286 -0.35313174 1.3728268
-0.10212714 -0.35270956 1.3712739
-0.0073452373 -0.35296389 1.3719459
-0.0030380003 -0.35220546 1.3728904
0.0016963334 -0.35121217 1.3740797
0.0066435002 -0.35043502 1.373837
-0.11925 -0.34557599 1.374482
-0.11164075 -0.347094 1.3726751
-0.10826284 -0.34550449 1.3718144
-0.10278101 -0.34821519 1.3717717
-0.00158575 -0.34900776 1.3715283
0.0029029234 -0.34850228 1.3722892
0.0079120006 -0.34792963 1.3728918
0.012454268 -0.34706762 1.3735954
0.0151675 -0.347657 1.3736185
-0.11164057 -0.34144247 1.3729652
-0.10705534 -0.34277487 1.372419
-0.10418501 -0.34395099 1.3726693
0.0093475003 -0.342334 1.372061
0.013172556 -0.34352511 1.3713344
0.017343801 -0.34246641 1.3725232
0.021321833 -0.34070566 1.3734792
-0.12236975 -0.33689874 1.3727663
-0.11655354 -0.33657891 1.3723565
-0.11249388 -0.33724612 1.3722848
-0.1077955 -0.3391965 1.3716705
0.019184001 -0.33973098 1.3718359
0.023304716 -0.3375816 1.3723404
0.0263338 -0.33633661 1.3727343
-0.12720376 -0.33126688 1.3727934
-0.12192731 -0.33225155 1.372426
-0.11899723 -0.33391166 1.3717734
-0.110418 -0.33467701 1.372882
0.024168499 -0.33366448 1.370471
0.028593572 -0.33290428 1.3728274
0.030827001 -0.33086234 1.3729663
-0.13710925 -0.3258335 1.3744266
-0.13295065 -0.3275567 1.373042
-0.1274326 -0.32764673 1.372185
-0.12264475 -0.32861575 1.3729944
-0.118872 -0.325073 1.371557
0.02427 -0.328235 1.3704211
0.029011 -0.32920501 1.370419
0.032497358 -0.32719448 1.3723472
0.037751 -0.32519299 1.374472
-0.14219201 -0.32042751 1.3724895
-0.138257 -0.32147551 1.3728471
-0.13299906 -0.32330361 1.3719951
-0.129759 -0.32482898 1.370437
0.033653375 -0.32287252 1.3723794
0.0361345 -0.32071519 1.372557
-0.1469685 -0.3164885 1.3734195
-0.14208719 -0.31789669 1.3720653
-0.13856699 -0.317579 1.372841
0.036287099 -0.31734008 1.3727248
-0.060226001 -0.385818 1.379943
-0.057647999 -0.38562199 1.379362
-0.051002003 -0.38568437 1.378419
-0.0465395 -0.38558948 1.3787844
-0.0422507 -0.38628656 1.3770108
-0.037140541 -0.38612059 1.3782979
-0.032466166 -0.38540998 1.3786999
-0.027356001 -0.38593799 1.375147
-0.024374999 -0.38512 1.376084
-0.101368 -0.380555 1.37808
-0.085152 -0.380537 1.379575
-0.081277505 -0.38120651 1.3781178
-0.077235356 -0.38067478 1.3780516
-0.072818108 -0.38108951 1.3774828
-0.067180492 -0.38125083 1.377552
-0.062891915 -0.38173831 1.3775132
-0.057458039 -0.38180453 1.3772372
-0.052051499 -0.38325873 1.3773602
-0.047212783 -0.38389495 1.3770949
-0.042983569 -0.38368425 1.3769609
-0.037480637 -0.38384488 1.3770679
-0.032121882 -0.38358203 1.3773339
-0.027357301 -0.38195473 1.3777239
-0.022938598 -0.38067898 1.3779992
-0.097462997 -0.37603199 1.3786585
-0.091641553 -0.37630078 1.3780499
-0.087631568 -0.3775146 1.3774173
-0.082787439 -0.3782534 1.3774871
-0.0776105 -0.3786149 1.3774647
-0.0725936 -0.37928319 1.3766357
-0.068001159 -0.37923154 1.3770481
-0.063432001 -0.379951 1.3756065
-0.058871001 -0.37890199 1.376778
-0.02581043 -0.379513 1.37655
-0.022041565 -0.37791374 1.3774929
-0.018338999 -0.37687013 1.3779888
-0.10195433 -0.37217236 1.3778716
-0.097970165 -0.37237456 1.3780342
-0.093226306 -0.37374336 1.3766749
-0.088774502 -0.3739965 1.3765035
-0.017181132 -0.37261888 1.3771461
-0.0143344 -0.37053257 1.3781512
-0.10563767 -0.36824965 1.3774916
-0.10212242 -0.36721516 1.3778034
-0.098395571 -0.36858216 1.3775423
-0.016101571 -0.36796671 1.3766878
-0.013376429 -0.36638984 1.3778163
-0.113959 -0.363904 1.379413
-0.10703411 -0.362194 1.3774981
-0.1028466 -0.36339301 1.3766888
-0.01612 -0.36261401 1.378492
-0.012365778 -0.36246759 1.377281
-0.116767 -0.35747901 1.376259
-0.1126518 -0.3561984 1.3787973
-0.10720275 -0.35714746 1.3772694
-0.10288899 -0.35710952 1.3763403
-0.010760333 -0.35856137 1.379055
-0.0084788427 -0.35738537 1.3778154
-0.0038673331 -0.35575768 1.3787454
-0.112612 -0.35148501 1.3778833
-0.10698764 -0.35155776 1.3769367
-0.10389167 -0.35371366 1.3774515
-0.010723 -0.354545 1.376182
-0.0063477503 -0.35414001 1.375577
-0.002678294 -0.3528156 1.3770539
0.0020617777 -0.35221165 1.3769803
0.008074834 -0.35142007 1.3785533
0.01103525 -0.350234 1.378684
0.016401 -0.35001901 1.379411
-0.1159705 -0.34674549 1.3775465
-0.1121591 -0.34698787 1.377835
-0.10818779 -0.3475309 1.3769126
-0.104131 -0.34661299 1.3759151
-0.098530002 -0.345375 1.375555
0.0030970001 -0.34724998 1.3764125
0.0080570001 -0.34878799 1.3773903
0.012675334 -0.34859243 1.3776063
0.016826624 -0.34702688 1.3777646
0.02152 -0.34597799 1.377849
-0.128094 -0.34268099 1.379434
-0.121897 -0.34177601 1.3776131
-0.11658273 -0.34144461 1.3780421
-0.11244567 -0.3428964 1.377667
-0.10884751 -0.34231725 1.3777527
-0.104142 -0.34473199 1.375059
0.018518429 -0.34438545 1.3761886
0.022733578 -0.34226054 1.3778028
-0.12759 -0.33641401 1.379279
-0.12165845 -0.33697554 1.3782071
-0.11824094 -0.33720008 1.3770248
-0.1136758 -0.3379958 1.3773298
-0.109746 -0.33648899 1.376762
0.027492568 -0.33745021 1.3774918
-0.13189918 -0.33146515 1.3786169
-0.12680092 -0.33245698 1.3776331
-0.12300457 -0.33255601 1.3764999
-0.11795551 -0.33384377 1.3770803
0.0295115 -0.33319652 1.3761566
0.031769168 -0.33221117 1.3777399
-0.13721798 -0.32595861 1.3782994
-0.13274781 -0.32759163 1.3772169
-0.12800141 -0.32816842 1.3769608
-0.121557 -0.32984099 1.376423
0.033039801 -0.32782859 1.3772887
-0.14160049 -0.3227295 1.3778769
-0.13705857 -0.32287455 1.3771095
-0.13350751 -0.32408249 1.3767143
-0.12830199 -0.32300499 1.378455
0.034636799 -0.32316381 1.377061
0.035778109 -0.32269251 1.3775439
-0.15053001 -0.31576401 1.3762895
-0.14642729 -0.3171294 1.3766167
-0.14245518 -0.31810102 1.3782541
-0.13892674 -0.31763926 1.3764763
-0.079172999 -0.38525599 1.381018
-0.069453999 -0.387041 1.3825051
-0.056216002 -0.38551825 1.3823755
-0.052719753 -0.38678908 1.3833562
-0.046919573 -0.38640207 1.3827013
-0.042187307 -0.38645577 1.3826634
-0.037105065 -0.38618752 1.3827229
-0.032469146 -0.38586187 1.3834008
-0.0282798 -0.38703799 1.383936
-0.087041497 -0.38062599 1.383641
-0.082840197 -0.38070762 1.3830464
-0.076907396 -0.3809877 1.3829395
-0.072503261 -0.38153699 1.3828174
-0.067625888 -0.38223687 1.3823229
-0.062812142 -0.38271755 1.3826495
-0.057744082 -0.38318127 1.3818768
-0.052301802 -0.38373837 1.3818276
-0.04736625 -0.38429075 1.3817624
-0.042340998 -0.3838973 1.3807403
-0.037285667 -0.38453099 1.3815117
-0.032469317 -0.38395652 1.3822608
-0.027541002 -0.3826763 1.3822749
-0.023015082 -0.38132027 1.3829752
-0.0196875 -0.38095799 1.3833876
-0.097566493 -0.37590066 1.3820796
-0.092536926 -0.37686151 1.3824803
-0.087411329 -0.37840372 1.3827536
-0.082155488 -0.3789137 1.3827631
-0.078471377 -0.37900239 1.3822711
-0.070381001 -0.379031 1.381127
-0.066583999 -0.379004 1.382121
-0.061596498 -0.37949449 1.3823266
-0.021595925 -0.37879515 1.3822576
-0.017772309 -0.37654558 1.3826334
-0.10813 -0.37475899 1.383207
-0.10210335 -0.37131634 1.3828188
-0.09699057 -0.37313801 1.3827955
-0.09258467 -0.37428784 1.3821477
-0.088549003 -0.37404099 1.3828965
-0.016866073 -0.37319323 1.382261
-0.014280749 -0.37199897 1.3829852
-0.117172 -0.366584 1.384843
-0.1122915 -0.36584848 1.3820535
-0.10658767 -0.367311 1.3825282
-0.10277644 -0.36786589 1.3827549
-0.015092 -0.36762401 1.3834161
-0.013315714 -0.36785191 1.3826392
-0.115745 -0.36048499 1.383821
-0.11211419 -0.36166459 1.3837829
-0.1071106 -0.36302269 1.3819196
-0.10451449 -0.36443698 1.38241
-0.011395181 -0.36246446 1.381989
-0.0086204009 -0.36180952 1.3830559
-0.0029683334 -0.36131933 1.3837153
-0.115406 -0.35848701 1.3832411
-0.11176442 -0.35787183 1.3827163
-0.10834563 -0.3585569 1.3820304
-0.011105 -0.35853299 1.380592
-0.0063995994 -0.35810533 1.3829926
-0.0024599477 -0.35694373 1.3825703
0.0025923334 -0.355829 1.3826747
0.006693 -0.35621849 1.3837361
0.011350499 -0.3555595 1.3824835
-0.11706816 -0.35088149 1.3832369
-0.11238277 -0.35292545 1.3827298
-0.1088416 -0.35293502 1.3823115
-0.0052729999 -0.35457 1.380077
-0.0011544999 -0.35417351 1.381176
0.0031924443 -0.35398424 1.3817122
0.0074443077 -0.35284981 1.3820268
0.012528571 -0.35171297 1.3825796
0.016847335 -0.35026267 1.382393
-0.12199739 -0.34733337 1.3827894
-0.1171725 -0.34781748 1.3834918
-0.11282764 -0.34747845 1.3822595
-0.105068 -0.34797201 1.381876
0.013285334 -0.34971932 1.3818496
0.018265063 -0.34854981 1.3827119
0.021202916 -0.34633625 1.3823671
-0.12700799 -0.3412745 1.3829296
-0.12190972 -0.34157014 1.3824815
-0.11774682 -0.34223235 1.3824458
-0.11419251 -0.34303001 1.3819107
-0.105332 -0.34317049 1.3803685
0.023058636 -0.34367809 1.3826271
0.0263 -0.34230974 1.3826556
-0.13280267 -0.33531734 1.3841916
-0.126755 -0.336611 1.3820231
-0.12257994 -0.33808702 1.3825125
-0.11931001 -0.33761051 1.3821495
0.028002722 -0.33863005 1.3824778
0.030962998 -0.3364875 1.3823037
-0.13575199 -0.33282 1.3845446
-0.131909 -0.33239713 1.3831085
-0.12783147 -0.33343074 1.3826375
-0.12398215 -0.33396783 1.3810147
0.032476824 -0.33255813 1.382236
-0.14180949 -0.3280575 1.3831043
-0.13718984 -0.32682249 1.3818045
-0.13259268 -0.32839149 1.3825401
-0.128786 -0.329447 1.380574
0.034055665 -0.32842615 1.3822464
0.035531573 -0.3273496 1.3824852
0.040376998 -0.32527399 1.383914
-0.15185151 -0.32053852 1.3841724
-0.14744401 -0.32117614 1.3828149
-0.14214182 -0.32263902 1.3829174
-0.13814189 -0.32324463 1.3823354
0.0346025 -0.3244355 1.383633
0.03703877 -0.32222083 1.3822014
-0.14327733 -0.31837997 1.3821164
-0.1377165 -0.31972399 1.381844
-0.059039999 -0.39010599 1.387187
-0.048131999 -0.39042899 1.389492
-0.081745997 -0.385398 1.389557
-0.068131998 -0.38558501 1.388204
-0.062755428 -0.38585141 1.3885683
-0.057591751 -0.38632041 1.3877428
-0.052376747 -0.38680029 1.3877971
-0.047633883 -0.38702822 1.3874547
-0.042825367 -0.38684213 1.3875966
-0.037466716 -0.38669655 1.3874828
-0.032267887 -0.38607383 1.3879014
-0.028608 -0.38567781 1.3876771
-0.023602 -0.385032 1.385341
-0.087012999 -0.380514 1.388257
-0.082078628 -0.38152346 1.3875961
-0.077364579 -0.38165393 1.387045
-0.072684176 -0.38230437 1.3879626
-0.06799487 -0.38273424 1.3872597
-0.063024722 -0.38371852 1.3871135
-0.059291203 -0.38422021 1.386781
-0.052848749 -0.38437974 1.3879455
-0.048300002 -0.38467801 1.386099
-0.040309999 -0.384132 1.389305
-0.036628 -0.38474101 1.385428
-0.032577831 -0.38439167 1.3867012
-0.027092561 -0.38356343 1.3878171
-0.023028564 -0.38212308 1.3877127
-0.0188535 -0.38067201 1.3882285
-0.102321 -0.37704301 1.388872
-0.096465617 -0.37594402 1.387426
-0.092195198 -0.37725899 1.3868268
-0.087540396 -0.3785637 1.3880168
-0.082739271 -0.37932846 1.3883259
-0.077544495 -0.37916449 1.3872664
-0.071575664 -0.37852335 1.3868946
-0.021214334 -0.37943497 1.3874826
-0.017921899 -0.37781137 1.3878003
-0.013536001 -0.3767235 1.3883491
-0.117141 -0.37060201 1.388509
-0.108647 -0.37293601 1.389118
-0.10274863 -0.37179226 1.3878598
-0.09767516 -0.37283674 1.3874732
-0.093601003 -0.37326375 1.3862441
-0.016685333 -0.37391534 1.3862437
-0.013435001 -0.3723821 1.3877357
-0.0084885005 -0.37162226 1.3893929
-0.110043 -0.36546099 1.389351
-0.10737788 -0.36760202 1.3874171
-0.1032566 -0.36873221 1.386989
-0.011184571 -0.36844057 1.3869818
-0.0086164288 -0.367268 1.3883934
-0.117694 -0.36107349 1.386912
-0.1115945 -0.36403099 1.3878866
-0.10811687 -0.36339387 1.3865565
-0.010455 -0.36372799 1.385222
-0.0070888181 -0.36330345 1.3872088
-0.0032320002 -0.36133766 1.3884348
0.0019097499 -0.36108351 1.3876429
-0.11694511 -0.35722011 1.3872758
-0.11215049 -0.35794342 1.3865595
-0.108815 -0.35996699 1.387634
-0.0021722498 -0.35933027 1.3873322
0.0025224118 -0.35814855 1.3875086
0.0075285789 -0.35695243 1.3873472
0.012087571 -0.35641986 1.3881749
-0.1213908 -0.35183603 1.3890169
-0.1165603 -0.35346711 1.3877599
-0.11212957 -0.35195526 1.3868783
0.0046310001 -0.354918 1.385865
0.0072433334 -0.35362765 1.386825
0.013089222 -0.35363334 1.3867713
0.017203221 -0.35191199 1.387799
0.021339498 -0.350234 1.3873396
-0.135919 -0.34932399 1.388347
-0.133068 -0.34665 1.386245
-0.12220767 -0.34664655 1.3874325
-0.11726116 -0.34733105 1.3878576
-0.11272866 -0.3483223 1.3865277
0.017810334 -0.34913334 1.386919
0.022380792 -0.34719729 1.3875202
-0.13155101 -0.34144935 1.3872961
-0.126588 -0.34176022 1.3874204
-0.12228787 -0.34275877 1.3876861
-0.11794688 -0.34288538 1.3865116
-0.110896 -0.3422175 1.3855685
0.023924666 -0.34473899 1.3873466
0.026944637 -0.34236959 1.3875732
-0.1376625 -0.33761901 1.3873219
-0.13193479 -0.33797261 1.388141
-0.12764139 -0.33734086 1.3870522
-0.12138225 -0.33798778 1.3868747
-0.118064 -0.33675799 1.385739
0.028459001 -0.33834499 1.3871925
0.031476934 -0.33694813 1.3875407
-0.141918 -0.33096364 1.3885807
-0.13678922 -0.33181879 1.387318
-0.13292694 -0.33284098 1.3874691
-0.12818399 -0.33270651 1.3866735
0.033399109 -0.33277202 1.3873092
0.035071 -0.331963 1.387699
-0.145107 -0.32883799 1.38969
-0.14190371 -0.3273308 1.3877814
-0.13776994 -0.32806098 1.3875641
-0.134222 -0.32652301 1.385048
0.034429997 -0.32806551 1.386816
0.036524866 -0.32713348 1.3873142
-0.14697537 -0.32220426 1.3874525
-0.14254662 -0.32361522 1.3870435
-0.041531999 -0.39018801 1.3917741
-0.071400203 -0.38533959 1.3937914
-0.066748641 -0.38608274 1.3933152
-0.062580198 -0.38637075 1.3925478
-0.057201292 -0.38682434 1.3925917
-0.052666955 -0.38702977 1.3928379
-0.047602694 -0.38703239 1.3927491
-0.042997789 -0.38747206 1.3927578
-0.037348684 -0.38696596 1.3923479
-0.033088103 -0.38659096 1.3926053
-0.028377457 -0.38571718 1.3931339
-0.0246785 -0.38638449 1.391173
-0.086291596 -0.38104701 1.3925676
-0.082357861 -0.38098589 1.392134
-0.077145629 -0.38159707 1.3926864
-0.072760932 -0.38241139 1.3926852
-0.067718402 -0.38402024 1.3918592
-0.063652664 -0.38415667 1.3928353
-0.055627 -0.38383999 1.394883
-0.053550001 -0.38469398 1.3914825
-0.046897002 -0.38422501 1.394062
-0.031144002 -0.38448438 1.391469
-0.027391076 -0.38413337 1.3923645
-0.022472685 -0.38251773 1.3928801
-0.018165866 -0.38119408 1.3927449
-0.101312 -0.37518099 1.393878
-0.096536085 -0.37685844 1.3928627
-0.092343472 -0.37717164 1.3922396
-0.087542675 -0.3780396 1.3926036
-0.082643442 -0.37858579 1.3929341
-0.077021495 -0.37957501 1.390893
-0.020707499 -0.3799035 1.3919361
-0.017093727 -0.37764999 1.3918395
-0.013000571 -0.37702185 1.3931129
-0.0087409997 -0.37605801 1.394841
-0.1063858 -0.37128478 1.3927306
-0.10219959 -0.37185496 1.392795
-0.097689636 -0.37306091 1.3916149
-0.094453499 -0.37386799 1.3917587
-0.016177 -0.37414199 1.3924069
-0.011622333 -0.37294093 1.3921164
-0.0077902218 -0.37129295 1.3931108
-0.0045190002 -0.37016401 1.394508
-0.11117 -0.36623925 1.3925664
-0.10737938 -0.36810544 1.3931127
-0.10323133 -0.36919269 1.3930116
-0.0064183995 -0.36793217 1.3918833
-0.0029727274 -0.3662 1.3932322
-0.128791 -0.36221001 1.3911639
-0.120095 -0.36088499 1.392396
-0.11661701 -0.36169514 1.3934222
-0.11254916 -0.36264369 1.3920649
-0.10902467 -0.36346635 1.3919777
-0.0017878 -0.36385962 1.3923299
0.0022984443 -0.36195561 1.39294
0.0066821827 -0.36103094 1.3928586
-0.12649401 -0.35772449 1.3923705
-0.1225518 -0.35743684 1.3938529
-0.1170911 -0.35741225 1.3926786
-0.1125285 -0.35802799 1.3919215
-0.0079589998 -0.358174 1.3929
0.002198 -0.3580035 1.3914809
0.0070237336 -0.35874239 1.3918431
0.012190938 -0.35683221 1.392101
0.015686713 -0.35674259 1.3932275
-0.130421 -0.35202801 1.3925281
-0.12810901 -0.35207149 1.3934295
-0.12207476 -0.35238799 1.3924632
-0.116051 -0.35348168 1.3919157
-0.114955 -0.35116401 1.393512
0.0099759996 -0.35410899 1.391315
0.013878999 -0.35404801 1.3932645
0.017597001 -0.35282367 1.3922675
0.020359501 -0.35120428 1.3927891
-0.12770702 -0.34670135 1.3924499
-0.12278958 -0.34803152 1.3928789
-0.1173836 -0.34812739 1.3917974
0.019754 -0.34984499 1.394685
0.022886999 -0.34776631 1.3924962
0.025254333 -0.34622669 1.3921376
-0.13233376 -0.34246615 1.3935583
-0.12791507 -0.34307384 1.3920115
-0.12241771 -0.34268329 1.3910691
-0.1172695 -0.3427645 1.3911254
0.024843 -0.342069 1.391036
0.027303478 -0.34254727 1.3924593
0.029999999 -0.34007999 1.390618
-0.1403625 -0.33528751 1.3925691
-0.13752525 -0.33684349 1.3924944
-0.13227996 -0.33799094 1.3924148
-0.12692079 -0.33777863 1.3919318
-0.119611 -0.33555201 1.391916
0.028885333 -0.33865133 1.3923789
0.031502847 -0.3372958 1.3925283
-0.14058658 -0.33155739 1.3926994
-0.137922 -0.33250821 1.3930734
-0.131745 -0.33377099 1.3929729
-0.129926 -0.33417499 1.392495
-0.124759 -0.33486199 1.392204
0.033262432 -0.33288074 1.3927236
0.035193499 -0.331155 1.39178
-0.14675149 -0.32662186 1.3927861
-0.14242621 -0.32742262 1.3918238
-0.13710725 -0.32880074 1.3915267
0.034921002 -0.32861301 1.39423
-0.14326866 -0.32308832 1.3919289
-0.036205001 -0.39227599 1.3977571
-0.087722003 -0.386143 1.399577
-0.0729445 -0.38549876 1.3985169
-0.068289198 -0.38614863 1.3978534
-0.062768802 -0.38623381 1.3978158
-0.057739455 -0.38663661 1.3974794
-0.052366801 -0.38681346 1.3974113
-0.047594998 -0.38675439 1.3971194
-0.042650849 -0.38701421 1.3976743
-0.037903789 -0.38659304 1.3973114
-0.032304 -0.38654956 1.396984
-0.027659001 -0.3856765 1.3975447
-0.022535 -0.385548 1.3988171
-0.092542998 -0.38039899 1.397225
-0.088222004 -0.38186604 1.3981016
-0.08210624 -0.38102144 1.3971773
-0.077418566 -0.38233483 1.3976951
-0.072661445 -0.38376555 1.3968176
-0.0689632 -0.38440481 1.3981938
-0.0630005 -0.38462651 1.396968
-0.055738501 -0.38488698 1.3974686
-0.052029502 -0.38463551 1.3971136
-0.049242001 -0.384563 1.3993649
-0.038903002 -0.38366601 1.397297
-0.030343 -0.384229 1.3982019
-0.027116001 -0.38393456 1.397814
-0.022851784 -0.38329762 1.3968109
-0.017892068 -0.38131326 1.3976572
-0.096842907 -0.37624928 1.3972602
-0.092200488 -0.37700555 1.3978395
-0.087913312 -0.37827495 1.3979449
-0.082866281 -0.37929189 1.3972751
-0.07768067 -0.37937534 1.3968916
-0.016156999 -0.37898174 1.3972392
-0.0125441 -0.37772363 1.3977753
-0.0087780003 -0.37590599 1.3991729
-0.111264 -0.370552 1.399353
-0.10610244 -0.37147602 1.3974819
-0.10223816 -0.37259027 1.397347
-0.098229639 -0.37415627 1.3975887
-0.090204 -0.37497601 1.396008
-0.011008 -0.37415439 1.3970225
-0.007543223 -0.37316656 1.3972316
-0.003613 -0.37105042 1.3985736
-0.11179382 -0.36637309 1.3978081
-0.10782993 -0.36791542 1.3979214
-0.0059496667 -0.36940899 1.3966306
-0.0028805623 -0.36824423 1.3974762
0.00098133332 -0.36634848 1.3979014
-0.120339 -0.360778 1.398602
-0.11674655 -0.36244854 1.3978454
-0.11349984 -0.36291701 1.3976678
-0.109788 -0.364315 1.395666
-0.001787 -0.36405101 1.396248
0.0029064442 -0.36361948 1.3975362
0.0078846188 -0.36170033 1.397917
0.0108552 -0.3607336 1.3978426
-0.1221309 -0.35716319 1.3976153
-0.11840949 -0.3567535 1.3961915
-0.11372966 -0.35898367 1.396224
0.0089360001 -0.35844359 1.3959382
0.012702045 -0.35755602 1.3974652
0.016397143 -0.3560206 1.3967874
-0.13072799 -0.35205999 1.3982958
-0.12644456 -0.35176116 1.3978978
-0.12241462 -0.35271412 1.3979589
-0.119477 -0.354794 1.396304
0.017857894 -0.35305578 1.3973925
0.021443501 -0.3515949 1.3976967
-0.13652 -0.34862 1.396879
-0.13160026 -0.34625351 1.398592
-0.12783025 -0.34756491 1.3978958
-0.12366772 -0.34792471 1.3970793
0.023159789 -0.34757236 1.3972267
0.025799165 -0.34581801 1.3983477
-0.13718572 -0.34142414 1.3978723
-0.1322585 -0.34196639 1.3975426
-0.12788899 -0.34359184 1.3964046
-0.124761 -0.343474 1.39564
0.027541136 -0.34194306 1.3971175
0.03011 -0.34012499 1.39889
-0.159017 -0.33940199 1.398789
-0.141855 -0.336954 1.399498
-0.13739288 -0.33764043 1.3979445
-0.13313219 -0.33855981 1.3963497
0.028985167 -0.33866501 1.3985149
0.031166468 -0.33722761 1.3969634
-0.15346999 -0.330493 1.3978291
-0.147589 -0.33010599 1.398589
-0.14207748 -0.33193794 1.397697
-0.13901529 -0.33307129 1.397735
-0.13435751 -0.33363849 1.3976171
0.033537585 -0.33241844 1.3976647
0.035450801 -0.33167377 1.3966855
-0.14746229 -0.32670391 1.3984441
-0.14279763 -0.32859328 1.3969443
-0.13917699 -0.329045 1.395068
-0.072681166 -0.38590369 1.4031181
-0.067744531 -0.38567972 1.4022329
-0.062435698 -0.38631916 1.4024506
-0.056828607 -0.38624045 1.4023855
-0.052350059 -0.38619265 1.4020959
-0.047464527 -0.38627192 1.4022639
-0.042468041 -0.38648021 1.4022141
-0.037347473 -0.38621673 1.4025506
-0.03281913 -0.38592485 1.4019799
-0.028098376 -0.38561964 1.4020383
-0.023624249 -0.38533401 1.4014238
-0.085799336 -0.38101435 1.4021024
-0.0826905 -0.38107243 1.4024242
-0.077574879 -0.38242474 1.4020995
-0.072493739 -0.38394237 1.4030453
-0.067179605 -0.38371441 1.4028075
-0.062448997 -0.3843855 1.4033543
-0.057997998 -0.38434148 1.4032899
-0.0537965 -0.38382825 1.4032028
-0.048320178 -0.3845813 1.4033955
-0.042682666 -0.38461599 1.4032811
-0.037401333 -0.38477135 1.4037471
-0.032103714 -0.38410169 1.4026788
-0.027213933 -0.38400203 1.4023272
-0.022439279 -0.38309589 1.4025645
-0.017821614 -0.3815603 1.4020743
-0.014187001 -0.3802605 1.4010475
-0.110823 -0.378142 1.400627
-0.1028295 -0.37740999 1.4012805
-0.09649542 -0.37591612 1.402527
-0.092349142 -0.37702382 1.4029865
-0.087234341 -0.37827647 1.4020095
-0.083646499 -0.37828425 1.4035349
-0.079908997 -0.37919301 1.400956
-0.074075997 -0.379659 1.4038301
-0.016431499 -0.37993351 1.4003561
-0.012401217 -0.37802243 1.4026189
-0.0085694455 -0.37568286 1.4022825
-0.1117105 -0.37116301 1.402827
-0.10724075 -0.37085751 1.4019643
-0.10249779 -0.37220174 1.4024146
-0.098525666 -0.37328029 1.4016832
-0.0929882 -0.37472242 1.4021299
-0.010104 -0.37406901 1.403161
-0.0069782143 -0.37349844 1.4022645
-0.0033605292 -0.37174666 1.4028789
0.00042600001 -0.37010899 1.402948
-0.1229665 -0.36695999 1.4016714
-0.11579433 -0.36600533 1.4037651
-0.11163563 -0.36667454 1.4028275
-0.10767209 -0.36850572 1.4023981
-0.103621 -0.369616 1.4037709
-0.0013908751 -0.36861086 1.4023763
0.0020619524 -0.36725888 1.4023811
0.0059771999 -0.36583197 1.4038093
-0.12047366 -0.36069736 1.402301
-0.11696184 -0.36149701 1.402761
-0.11297964 -0.36367324 1.4029673
0.0028403334 -0.36412466 1.4006017
0.0073426007 -0.36275414 1.4027779
0.011679778 -0.36069945 1.4028497
0.017471001 -0.36256501 1.400816
-0.130005 -0.35734701 1.403839
-0.12600167 -0.35696831 1.4031843
-0.12222327 -0.35753891 1.4024184
-0.11897399 -0.35763159 1.4013612
0.0095096668 -0.35954764 1.4009594
0.013731799 -0.35783529 1.4027265
0.016539998 -0.35636929 1.4024968
-0.134783 -0.35179499 1.400462
-0.12722951 -0.3519547 1.4025394
-0.12308314 -0.35403782 1.4037597
0.014692 -0.35479099 1.40192
0.018253265 -0.35286567 1.4021916
0.020755 -0.35246587 1.4029049
-0.13647801 -0.346228 1.4018199
-0.13104177 -0.3474094 1.4028703
-0.12772524 -0.3484695 1.4028107
0.023057479 -0.34829673 1.4024956
0.025619 -0.34560323 1.4016813
-0.140653 -0.342273 1.401088
-0.13654128 -0.34238699 1.4017347
-0.1325596 -0.34308511 1.4018303
-0.12779 -0.34465399 1.401945
0.023505 -0.34464499 1.4002039
0.027211789 -0.34300107 1.4028209
-0.148203 -0.336144 1.400249
-0.14208451 -0.33538902 1.4014783
-0.13732593 -0.33756274 1.4026698
-0.13356835 -0.339178 1.4027339
0.028921001 -0.33876446 1.4021693
0.03085953 -0.33701974 1.4023942
-0.146468 -0.331204 1.404326
-0.14230819 -0.33217639 1.4028207
-0.13897499 -0.33406627 1.4024905
0.03291288 -0.33254963 1.4025289
-0.15056449 -0.32862401 1.401974
-0.139292 -0.32969001 1.402486
-0.073194504 -0.38527751 1.4090536
-0.066522002 -0.38545251 1.4072652
-0.063887 -0.38561499 1.4066854
-0.057832684 -0.38562244 1.4064889
-0.05246025 -0.38560084 1.4069096
-0.047466334 -0.38580331 1.407317
-0.042614602 -0.38591045 1.4071325
-0.037652083 -0.38601342 1.4067019
-0.032856498 -0.38625732 1.4070927
-0.027029999 -0.38549301 1.4062896
-0.022290999 -0.385039 1.4071161
-0.094123997 -0.381594 1.4077539
-0.086072005 -0.380941 1.4076074
-0.081917599 -0.381944 1.4075472
-0.076887384 -0.38265705 1.4077917
-0.072562456 -0.38377553 1.4079138
-0.068050377 -0.38383165 1.4078698
-0.062838465 -0.38393208 1.4075429
-0.057743214 -0.38432741 1.40777
-0.052619383 -0.38418147 1.4077021
-0.047671001 -0.38429424 1.4084175
-0.042209372 -0.38371387 1.4090011
-0.037475567 -0.38413605 1.4079154
-0.032305527 -0.38389111 1.4073606
-0.027729739 -0.38386878 1.4071801
-0.022498548 -0.38294017 1.4073755
-0.0177765 -0.38137954 1.407277
-0.013259166 -0.38060716 1.4076208
-0.106805 -0.3759 1.405072
-0.0962952 -0.37631816 1.4077058
-0.092430346 -0.37673971 1.4076927
-0.087898612 -0.37824795 1.4073749
-0.083233625 -0.37896547 1.4073182
-0.078179665 -0.37936631 1.4067307
-0.015522713 -0.37930426 1.4070288
-0.012314781 -0.37783772 1.4075352
-0.0083261682 -0.37605116 1.4076207
-0.12023 -0.371548 1.4084001
-0.113071 -0.370951 1.407128
-0.106366 -0.37186474 1.4082242
-0.10242879 -0.37211466 1.407048
-0.097072817 -0.37380528 1.40776
-0.093492001 -0.374219 1.4076695
-0.089552999 -0.374304 1.405941
-0.0069868662 -0.37396777 1.4072431
-0.0031068795 -0.37160224 1.4078546
0.00066800002 -0.370608 1.4065861
-0.11174223 -0.36628884 1.4077753
-0.10770931 -0.36806476 1.4075427
-0.10435399 -0.36906999 1.4084805
-0.00079949998 -0.36933485 1.4072262
0.0027428803 -0.36766857 1.4074006
0.0064607998 -0.36594763 1.4077914
-0.12112 -0.36014199 1.40608
-0.1167095 -0.36185834 1.4075257
-0.11318278 -0.36364821 1.4074378
0.0044855 -0.364371 1.407124
0.0078340005 -0.36318171 1.407481
0.011510666 -0.36150026 1.407879
-0.125008 -0.355156 1.40555
-0.12205308 -0.35771021 1.4071996
-0.118525 -0.35856092 1.4076887
-0.112265 -0.35969001 1.407688
0.0096049998 -0.35965899 1.4090739
0.013268001 -0.35818949 1.4070475
0.016440691 -0.35647535 1.408051
-0.13038699 -0.35008201 1.40553
-0.1268546 -0.35220692 1.4070783
-0.1235171 -0.3529669 1.407953
0.014246 -0.353982 1.409182
0.018288523 -0.35305813 1.4077193
0.02152154 -0.35118008 1.4075452
-0.135291 -0.34793901 1.408469
-0.13186583 -0.34651753 1.4075832
-0.1281894 -0.34780207 1.4078923
0.022816947 -0.34786409 1.4077387
0.025518499 -0.34605119 1.4069146
-0.13664158 -0.34171128 1.4078685
-0.13310184 -0.3425459 1.4066405
-0.12998199 -0.34420049 1.409344
0.024126666 -0.34393501 1.4089984
0.027427906 -0.34228429 1.4076675
-0.14180399 -0.33685502 1.4065946
-0.13757907 -0.33726713 1.4073117
-0.134453 -0.33964151 1.4072115
0.028910996 -0.33863494 1.4077533
0.030871999 -0.33628997 1.4074911
-0.159254 -0.330937 1.405296
-0.146308 -0.33091348 1.4066906
-0.14181553 -0.33270913 1.4075394
-0.13875701 -0.33363554 1.4082731
0.028649 -0.33476001 1.4052629
-0.073232502 -0.38530052 1.411212
-0.058727998 -0.38570899 1.4108239
-0.052226003 -0.385571 1.411862
-0.047146749 -0.38588202 1.4120805
-0.043317128 -0.38559926 1.4124478
-0.037825666 -0.38533601 1.4106966
-0.033199999 -0.38525301 1.414323
-0.028483 -0.38583201 1.412948
-0.090901002 -0.38327301 1.410769
-0.087109402 -0.38072062 1.4115703
-0.082000352 -0.38157892 1.4123453
-0.077536918 -0.38181517 1.4129323
-0.072217457 -0.38235489 1.4125938
-0.067613721 -0.38267407 1.4125335
-0.062325954 -0.38329414 1.4124229
-0.057499964 -0.38368288 1.4124054
-0.052394394 -0.38378459 1.4120915
-0.047634166 -0.38373399 1.4129248
-0.042012587 -0.38377011 1.4123302
-0.037108004 -0.38352069 1.4120992
-0.031996224 -0.38322061 1.4122231
-0.02722632 -0.38304356 1.4123793
-0.022733573 -0.38231581 1.412096
-0.018029066 -0.38146007 1.4119747
-0.112516 -0.37719399 1.413244
-0.095557004 -0.37587899 1.410938
-0.092262417 -0.37655646 1.4129863
-0.087709643 -0.37793908 1.4128262
-0.083074555 -0.37906995 1.4124261
-0.078986198 -0.37938541 1.4131061
-0.071861997 -0.379706 1.413635
-0.0167202 -0.37889999 1.413195
-0.012558884 -0.37798628 1.4124591
-0.0083974544 -0.37599859 1.4124873
-0.10634067 -0.37090468 1.411322
-0.10216752 -0.37157086 1.4117973
-0.097966582 -0.37309715 1.4123579
-0.092937283 -0.37426242 1.4130001
-0.0070069549 -0.3732425 1.4127464
-0.0028130952 -0.37137389 1.4126188
-0.116382 -0.36956099 1.414126
-0.1116797 -0.3665812 1.4112732
-0.10706731 -0.36747408 1.4134009
-0.10376016 -0.36887702 1.4128834
-0.099578001 -0.369591 1.412692
-0.001408125 -0.36897212 1.4133704
0.0023705668 -0.36762887 1.4120599
0.00568625 -0.36615124 1.4132781
-0.122887 -0.36226499 1.4128755
-0.11588988 -0.36167517 1.4128571
-0.11235937 -0.36340311 1.412805
-0.10901833 -0.36460066 1.4119323
0.0046059997 -0.36426768 1.4138333
0.0077670002 -0.36308628 1.4123518
0.011773301 -0.3609795 1.4125804
-0.12594399 -0.35512102 1.4122944
-0.12178557 -0.35741812 1.4118322
-0.11775438 -0.35812855 1.4124027
0.012785948 -0.35833257 1.4123873
0.016401166 -0.35620999 1.4122758
-0.13160449 -0.353944 1.411257
-0.12730126 -0.35211983 1.4131533
-0.12283681 -0.35330519 1.4126847
0.014537999 -0.35439098 1.4142425
0.017714212 -0.35327309 1.412639
0.020856446 -0.3514801 1.4129813
-0.140351 -0.34675199 1.4109139
-0.13518399 -0.346185 1.4123275
-0.130804 -0.34776101 1.41271
-0.12824488 -0.3477127 1.4126117
-0.12435701 -0.34950534 1.4140881
0.019469 -0.34897301 1.4133379
0.023087239 -0.34760016 1.4124552
0.027774001 -0.34620899 1.4102449
-0.13608666 -0.34019136 1.4117864
-0.13253258 -0.34270787 1.4125952
-0.12879767 -0.34289932 1.4125847
0.024073666 -0.34450969 1.4139014
0.026975105 -0.34221548 1.4126561
-0.14240851 -0.33751899 1.4107964
-0.13690951 -0.33745497 1.4119961
-0.13328429 -0.33800259 1.4126307
0.0281513 -0.3387011 1.412873
-0.060479 -0.38618001 1.415241
-0.041570999 -0.385833 1.415759
-0.037121002 -0.38575301 1.416196
-0.030680999 -0.386426 1.418093
-0.086338997 -0.38078049 1.416883
-0.082422428 -0.380615 1.4179394
-0.077195138 -0.38117319 1.4175793
-0.072237372 -0.38159975 1.4174845
-0.067716129 -0.38162634 1.4172953
-0.062242895 -0.38201162 1.4175068
-0.057769194 -0.38269126 1.4175898
-0.052721228 -0.38315073 1.4174643
-0.047730219 -0.38301924 1.4174912
-0.042502765 -0.38275406 1.4176193
-0.037027903 -0.38227642 1.4170744
-0.032277644 -0.38219169 1.4172273
-0.027066926 -0.38195732 1.4173324
-0.022201523 -0.38135135 1.4172838
-0.018216444 -0.38073671 1.416917
-0.102016 -0.37865001 1.4167989
-0.091977715 -0.37661901 1.4173601
-0.086876616 -0.37773404 1.4173876
-0.082749143 -0.37851867 1.4175049
-0.077307783 -0.37853706 1.4176612
-0.072204247 -0.379296 1.4173408
-0.069991998 -0.37996101 1.418841
-0.064332001 -0.37890899 1.4164391
-0.046478 -0.37853599 1.4155231
-0.033369999 -0.37929201 1.4153171
-0.025508501 -0.37892449 1.4186395
-0.021411799 -0.37943602 1.4173859
-0.016757812 -0.37870169 1.4182281
-0.012948138 -0.37716609 1.4175203
-0.0093701426 -0.3759096 1.4174222
-0.110238 -0.37008199 1.415803
-0.10157162 -0.37121037 1.4171462
-0.097299449 -0.37289923 1.4170996
-0.092303663 -0.37383011 1.4186791
-0.088873997 -0.37458101 1.417611
-0.0105765 -0.37473297 1.4166009
-0.00738374 -0.37319139 1.4178312
-0.0035260001 -0.37095043 1.4172665
-0.1104085 -0.36518848 1.41848
-0.10775813 -0.36671934 1.4179618
-0.10280299 -0.36890692 1.4173818
-0.0017239999 -0.36894649 1.4178001
0.0019676895 -0.36729279 1.4176428
0.006697333 -0.365255 1.4161867
0.011642 -0.36526099 1.415643
-0.122867 -0.36280099 1.417308
-0.1171405 -0.3624635 1.4166939
-0.11269713 -0.36228365 1.41698
-0.10893021 -0.36366001 1.4178655
0.00343 -0.36415952 1.416036
0.0075562 -0.36304349 1.4178718
0.011291917 -0.36134711 1.4172449
-0.133551 -0.35912001 1.418308
-0.12088784 -0.35677683 1.4176326
-0.11729256 -0.35750994 1.4176266
-0.11387882 -0.35797417 1.4186031
0.0086815003 -0.35891551 1.4162741
0.0130995 -0.35799882 1.417559
0.015947454 -0.35674381 1.4168781
-0.12641582 -0.35089961 1.4183646
-0.12200269 -0.35271692 1.4168729
-0.11870425 -0.35362402 1.4183003
0.017545477 -0.35286239 1.4176468
0.020403666 -0.35133734 1.4182557
-0.131283 -0.3464005 1.4180305
-0.12660088 -0.34680852 1.4176022
-0.12366242 -0.3483623 1.4181448
0.018704001 -0.34982848 1.4171669
0.022004161 -0.34763026 1.4171489
0.025054 -0.346876 1.415629
-0.1363225 -0.340929 1.4170566
-0.13140634 -0.34203625 1.4171325
-0.12866375 -0.34323713 1.4180632
0.023508856 -0.34408572 1.4180152
0.026300048 -0.34207404 1.4172525
-0.13708551 -0.33629033 1.4159673
-0.13302729 -0.33843374 1.4171571
-0.032699998 -0.391334 1.422648
-0.086094998 -0.38008201 1.424816
-0.082989 -0.38105431 1.421079
-0.078325003 -0.38055724 1.4217401
-0.072232567 -0.38069353 1.4213847
-0.067177005 -0.38115078 1.4214623
-0.06261725 -0.38125539 1.4215037
-0.057438999 -0.38157943 1.4219753
-0.052530933 -0.38184184 1.4227897
-0.047092576 -0.38197517 1.4223777
-0.042596709 -0.38171315 1.4220967
-0.037785191 -0.38113213 1.4222757
-0.032182738 -0.38095221 1.4215698
-0.027770137 -0.3811264 1.422133
-0.022125348 -0.38074583 1.4218881
-0.0179675 -0.38047248 1.4212615
-0.096137002 -0.37569901 1.422377
-0.091304332 -0.37597433 1.4208031
-0.087424532 -0.37674108 1.4217753
-0.08254955 -0.37748128 1.4224999
-0.077515356 -0.37802708 1.4224542
-0.072874047 -0.37883022 1.4227865
-0.06768325 -0.37880409 1.4229902
-0.063174002 -0.37946901 1.4237827
-0.057708666 -0.37921932 1.4239888
-0.051116999 -0.37837201 1.422858
-0.042930376 -0.3793245 1.4237311
-0.0373291 -0.37929359 1.4229918
-0.031844553 -0.37907732 1.42384
-0.026511144 -0.37928629 1.4239248
-0.021880399 -0.37870628 1.4235976
-0.01753474 -0.3781386 1.4225302
-0.012942667 -0.37638116 1.4220173
-0.10503 -0.37115699 1.420557
-0.100247 -0.37374201 1.423941
-0.097199954 -0.37185103 1.4221632
-0.093044728 -0.3728354 1.4226413
-0.087811492 -0.37400398 1.4236072
-0.08275 -0.37390202 1.4230676
-0.078665003 -0.37436199 1.42228
-0.01633 -0.37454301 1.423857
-0.011594728 -0.37434638 1.423198
-0.0078268331 -0.37257531 1.4224325
-0.0037801426 -0.37089571 1.4215831
-0.10720424 -0.36635986 1.421345
-0.10253728 -0.3680169 1.4222839
-0.098202661 -0.36816335 1.423573
-0.091691002 -0.36981249 1.4237305
-0.0056953332 -0.36914167 1.4237517
-0.0021292798 -0.36827487 1.4223257
0.0019710003 -0.36630052 1.422706
0.0079549998 -0.365419 1.420081
0.01112 -0.36567599 1.420387
-0.115793 -0.36227399 1.4217449
-0.11231822 -0.36133519 1.4223956
-0.107568 -0.36323598 1.4232363
-0.104035 -0.36415467 1.4222697
0.0038318939 -0.36356232 1.4226036
0.0075648176 -0.36235425 1.4223332
0.0105545 -0.36102501 1.4235456
-0.11709165 -0.35648164 1.4226451
-0.11259278 -0.35817567 1.422755
0.0088777784 -0.35906973 1.4233844
0.012471787 -0.35759455 1.4223503
0.016662 -0.357106 1.420948
-0.12155033 -0.35220858 1.4215268
-0.11769487 -0.35294288 1.4221971
-0.114339 -0.35302901 1.423795
0.01408 -0.35327885 1.4228374
0.017116521 -0.35232165 1.4221436
0.020063 -0.35061401 1.421788
-0.132109 -0.34703699 1.42171
-0.1260315 -0.3456395 1.4223315
-0.12213024 -0.34714186 1.4233644
-0.11934949 -0.34932649 1.423086
0.019210555 -0.348263 1.4229667
0.022009002 -0.34713158 1.4219247
-0.13020925 -0.34210324 1.4211975
-0.1268698 -0.34170979 1.4222796
-0.123571 -0.34353375 1.4234613
0.023744933 -0.34288982 1.4231436
-0.083958 -0.38254699 1.428275
-0.078125 -0.38118899 1.425261
-0.074665003 -0.38229099 1.426769
-0.061625 -0.38073 1.425038
-0.057198856 -0.38082829 1.4271194
-0.052929364 -0.3807579 1.4272783
-0.047462072 -0.38086441 1.4268261
-0.042816572 -0.38059515 1.4258897
-0.039407 -0.38057399 1.425617
-0.032241497 -0.38163865 1.4272729
-0.0271715 -0.3803165 1.4254687
-0.022244668 -0.38011634 1.4260403
-0.090231501 -0.376555 1.4255371
-0.086282663 -0.37537667 1.4256433
-0.0819754 -0.37696117 1.4266651
-0.077420443 -0.37643334 1.4269302
-0.072437331 -0.37683594 1.4274621
-0.067220084 -0.37729871 1.4275917
-0.062523395 -0.37801892 1.4272673
-0.057818297 -0.37878838 1.4278983
-0.052780151 -0.37914082 1.4281306
-0.047520582 -0.37847462 1.4284812
-0.042435654 -0.37839773 1.4279217
-0.037662391 -0.37810308 1.4277908
-0.032875322 -0.37830511 1.4275843
-0.026990227 -0.37860984 1.4277886
-0.022458149 -0.37795177 1.4277043
-0.017268861 -0.37684315 1.4275658
-0.0139111 -0.37592399 1.4272788
-0.09644267 -0.37030199 1.4266273
-0.092526004 -0.371984 1.4270722
-0.087345175 -0.37258139 1.4275528
-0.083326444 -0.37325525 1.4275482
-0.077416539 -0.37403852 1.4280905
-0.072007753 -0.37424874 1.4281695
-0.069030002 -0.374908 1.4276741
-0.015582 -0.37488699 1.4265341
-0.011604625 -0.37312937 1.4276991
-0.0077883331 -0.37173277 1.4272215
-0.004127 -0.370671 1.426656
-0.10592 -0.36575949 1.428376
-0.101828 -0.3666667 1.4268935
-0.09808483 -0.36795881 1.4276316
-0.092389584 -0.36868343 1.4287286
-0.087933198 -0.36933342 1.4289191
-0.084638998 -0.36927399 1.426798
-0.0067687784 -0.3690429 1.4278529
-0.0025239652 -0.36753815 1.4278071
0.0007415 -0.36638811 1.4266276
-0.10752585 -0.36148387 1.426767
-0.1025045 -0.36333752 1.4282923
-0.099541001 -0.36033401 1.428776
0.0027266797 -0.36313877 1.4277693
0.0069106105 -0.36118829 1.4266602
-0.117389 -0.35574001 1.425405
-0.11248022 -0.35712582 1.4268744
-0.107279 -0.35896584 1.4280709
0.0074843997 -0.35845548 1.4282148
0.011694273 -0.35666114 1.4270059
0.015647501 -0.35859299 1.4267106
-0.11716463 -0.35206616 1.4270884
-0.1125965 -0.35318851 1.4285035
-0.109107 -0.35475901 1.429592
0.013340723 -0.35317048 1.4278288
0.016697001 -0.35174292 1.4269106
-0.1221415 -0.34739101 1.4264332
-0.11746728 -0.34856519 1.4279908
-0.114493 -0.34987301 1.4290839
0.018244209 -0.34832218 1.4276376
0.021791818 -0.34606165 1.4266713
-0.12593 -0.343831 1.425069
-0.12283977 -0.34258282 1.4272239
-0.11925037 -0.34294066 1.4284302
-0.030766999 -0.385571 1.434677
-0.055369999 -0.38038099 1.430568
-0.087659337 -0.37627932 1.430828
-0.080706999 -0.37624499 1.430226
-0.070212498 -0.37537301 1.4310861
-0.067011401 -0.37670606 1.431623
-0.062769711 -0.37666669 1.432205
-0.057363629 -0.37735674 1.4325293
-0.051718824 -0.37754855 1.4324769
-0.046908624 -0.37680805 1.4324449
-0.041939687 -0.37647492 1.4324269
-0.037320409 -0.37656924 1.4323157
-0.032805905 -0.37652513 1.4325055
-0.027479727 -0.37663403 1.4322664
-0.022129901 -0.37652317 1.4320086
-0.017924 -0.37581465 1.4315268
-0.010723 -0.379024 1.4322031
-0.10143 -0.374093 1.432904
-0.091157325 -0.37170634 1.4322987
-0.086240008 -0.37118697 1.4319031
-0.082515135 -0.37139365 1.4316052
-0.077347033 -0.37240255 1.4321618
-0.072266974 -0.37311301 1.4324151
-0.067079939 -0.37399021 1.4331422
-0.063284837 -0.37417921 1.433699
-0.050352 -0.37477699 1.434616
-0.046736997 -0.37461424 1.433257
-0.042805832 -0.37440482 1.4343314
-0.037752427 -0.37418547 1.4334205
-0.032561999 -0.37385979 1.4336952
-0.027806999 -0.37432286 1.4327409
-0.022008002 -0.37408701 1.4335839
-0.017418416 -0.37375429 1.433123
-0.012827097 -0.37226188 1.4322556
-0.008706999 -0.37098083 1.4321648
-0.0036919999 -0.370195 1.43099
-0.10157233 -0.36775899 1.4324299
-0.097177401 -0.3664878 1.4314356
-0.092454575 -0.36718926 1.432072
-0.087926365 -0.36744428 1.4324304
-0.08319395 -0.3677752 1.4337033
-0.078938879 -0.36871725 1.433356
-0.074057996 -0.3692176 1.4346149
-0.010217 -0.36892799 1.43478
-0.0074088913 -0.36840889 1.432308
-0.0034030997 -0.36634117 1.4326041
-0.106745 -0.36189601 1.430932
-0.10321867 -0.36166266 1.4314115
-0.098019533 -0.36313111 1.4320225
-0.09261141 -0.36365792 1.4334289
-0.088391006 -0.36195499 1.43398
-0.0016238947 -0.36353239 1.432861
0.001883 -0.36197251 1.4321483
0.0051693334 -0.36108235 1.4312878
-0.11041249 -0.35764301 1.432945
-0.10721659 -0.35690913 1.4315311
-0.1025429 -0.35801753 1.4330736
-0.099006295 -0.35755715 1.4343605
0.0037668331 -0.35869369 1.4332014
0.0071923458 -0.35746348 1.4322264
0.011511 -0.35558358 1.4313675
-0.11734 -0.35092199 1.431859
-0.11202341 -0.35217643 1.4314307
-0.1069877 -0.35264391 1.432899
-0.102844 -0.35406101 1.434348
-0.099248499 -0.35448802 1.433394
0.0086748572 -0.35418129 1.4337634
0.012413 -0.35248825 1.4326372
0.016393168 -0.35069168 1.4317197
-0.11706 -0.34674048 1.4309494
-0.1122911 -0.34781128 1.4326961
-0.108512 -0.3481124 1.4337208
-0.104682 -0.348984 1.434646
0.0142345 -0.34898299 1.432114
-0.061713997 -0.37548867 1.4358287
-0.05730262 -0.37568164 1.4366903
-0.052659936 -0.37580687 1.4365702
-0.048400167 -0.37552071 1.4360299
-0.0427095 -0.37533599 1.4361761
-0.031902999 -0.37522635 1.4363427
-0.025065999 -0.377009 1.437579
-0.02406225 -0.37578377 1.4355872
-0.102779 -0.370745 1.437241
-0.098618001 -0.37004501 1.435421
-0.090939999 -0.370601 1.435253
-0.086241998 -0.372789 1.4353141
-0.076067336 -0.37160066 1.435454
-0.071724452 -0.37125015 1.4366392
-0.067373596 -0.37196046 1.4374583
-0.062391244 -0.37321407 1.4376348
-0.057575505 -0.37334272 1.4379745
-0.052282602 -0.37361845 1.4382373
-0.047608599 -0.37335038 1.4377953
-0.042388394 -0.37256393 1.4378105
-0.037284035 -0.37244233 1.4375829
-0.032491524 -0.37315676 1.4373528
-0.027588427 -0.37311015 1.4374483
-0.02239415 -0.37285945 1.437624
-0.017225215 -0.37177983 1.4371177
-0.0133138 -0.370583 1.4369962
-0.007679 -0.37140101 1.436702
-0.103407 -0.36847201 1.435691
-0.097090997 -0.36585599 1.435352
-0.090894997 -0.36687669 1.4358701
-0.087101251 -0.36650252 1.4362283
-0.082068764 -0.366806 1.4371371
-0.07776954 -0.36766517 1.4373385
-0.072484337 -0.36857215 1.4379762
-0.06873779 -0.36947781 1.4387858
-0.049123999 -0.36866799 1.439096
-0.021369999 -0.36862499 1.439909
-0.016612856 -0.36900857 1.4393855
-0.011946477 -0.36845803 1.4377683
-0.0076492494 -0.36653391 1.4369015
-0.0048560002 -0.36594099 1.436018
-0.096725002 -0.36231601 1.4362829
-0.091500647 -0.36183485 1.4365473
-0.087376453 -0.36198169 1.4374751
-0.08303415 -0.36340421 1.4379765
-0.078560248 -0.36376661 1.4389871
-0.0069395001 -0.36433184 1.4389104
-0.0028731334 -0.36214346 1.4374839
0.00099516672 -0.36092767 1.4362208
-0.1072325 -0.3576915 1.4381504
-0.103539 -0.35688499 1.4379359
-0.097035006 -0.35803998 1.4368011
-0.092625558 -0.35769945 1.437516
-0.088124432 -0.35797301 1.4383824
-0.081657998 -0.35991499 1.438228
-0.0011096667 -0.35844803 1.4380721
0.0023110334 -0.35755241 1.4379574
0.0063531427 -0.35691229 1.4369904
-0.10713866 -0.35051203 1.4356617
-0.10224725 -0.35195035 1.4367448
-0.098143384 -0.35264969 1.4380052
-0.093654431 -0.35344911 1.4391853
0.0045906664 -0.354619 1.4363066
0.0079226065 -0.35266086 1.4379746
0.0118977 -0.35110408 1.4364622
-0.063277997 -0.37527901 1.441051
-0.066821001 -0.37026599 1.4413394
-0.0621076 -0.37113529 1.441787
-0.057317197 -0.37168616 1.4426321
-0.052765511 -0.37138692 1.4420667
-0.047399793 -0.37093553 1.4416077
-0.042334899 -0.37057453 1.4414638
-0.036907502 -0.37089181 1.4414192
-0.03236578 -0.37109894 1.4416298
-0.027997799 -0.37163725 1.4416174
-0.022610601 -0.37089843 1.441412
-0.0189275 -0.37032825 1.4409387
-0.101807 -0.36792499 1.4408849
-0.083168 -0.36964899 1.440506
-0.075998403 -0.36627561 1.4406697
-0.072759308 -0.36677292 1.4418468
-0.068174452 -0.36755571 1.4427671
-0.062779143 -0.3686569 1.4433485
-0.057731334 -0.36863804 1.4429002
-0.052809753 -0.36802539 1.444208
-0.047896467 -0.36873305 1.4432317
-0.042906426 -0.3682023 1.443216
-0.038321059 -0.36869997 1.4427004
-0.032280531 -0.36861134 1.443126
-0.027301142 -0.36861253 1.4431502
-0.022087092 -0.36827376 1.4431696
-0.017508958 -0.367881 1.4424443
-0.012453307 -0.3663975 1.441805
-0.0095265005 -0.36630648 1.441012
-0.090489998 -0.36001199 1.441098
-0.085740998 -0.360147 1.4403729
-0.082196169 -0.36172268 1.4414663
-0.077798642 -0.36200503 1.4427184
-0.073537886 -0.36354876 1.4431226
-0.015957667 -0.36430001 1.443819
-0.011210779 -0.3631691 1.443675
-0.0074927686 -0.36225033 1.442053
-0.0026926666 -0.3604995 1.4407693
-0.104464 -0.35849199 1.441973
-0.097442999 -0.3567085 1.442265
-0.090650998 -0.35604799 1.4418271
-0.087613106 -0.356754 1.4411799
