# .PCD v0.7 - Point Cloud Data file format
VERSION 0.7
FIELDS x y z
SIZE 4 4 4
TYPE F F F
COUNT 1 1 1
WIDTH 1543
HEIGHT 1
VIEWPOINT 0 0 0 1 0 0 0
POINTS 1543
DATA ascii
-0.006029 -0.93989903 2.1785691
0.020057 -0.936391 2.176667
0.0068899998 -0.92550498 2.176764
0.001563 -0.92481899 2.179266
0.0041899998 -0.96162701 2.18416
0.014415 -0.955706 2.182204
0.0045420001 -0.95059401 2.182261
0.028903 -0.953825 2.183521
0.0078290002 -0.94754899 2.1812561
-0.0040469998 -0.94402498 2.184772
0.025900999 -0.94141501 2.183651
-0.010149 -0.93865502 2.1802411
0.013931 -0.938182 2.181391
0.037443001 -0.92776501 2.1842
-0.0088470001 -0.92336202 2.180227
0.010633 -0.92249799 2.184516
0.037443001 -0.91112298 2.1842
0.00138 -0.97819 2.189322
0.028364001 -0.96649498 2.188623
0.013858 -0.96362603 2.1868911
0.0170065 -0.96145546 2.1883564
0.02263 -0.96386701 2.1862371
0.04016 -0.96420997 2.1885509
-0.001603 -0.95671499 2.187721
0.0037430001 -0.95830798 2.1863301
0.014846 -0.95841599 2.1874831
-0.0130175 -0.95061302 2.187983
0.026912 -0.95267701 2.189537
0.043816 -0.95091897 2.1878641
-0.0054080002 -0.94548798 2.185441
0.013742 -0.94675499 2.1874485
0.019598 -0.94772601 2.188921
0.022239 -0.94856298 2.1870537
0.026644999 -0.94669098 2.1896679
0.00044500001 -0.94262397 2.189455
0.011136999 -0.941935 2.1876349
0.027217999 -0.94462401 2.1891
0.00088599999 -0.93582898 2.18591
-0.0081749996 -0.93049198 2.1886649
0.01127 -0.93053901 2.188539
0.017228 -0.93496901 2.189184
0.022559 -0.92557901 2.1864891
0.014245 -0.91455799 2.1865039
-0.014922 -0.98131901 2.192831
0.0087299999 -0.98136801 2.1935201
-0.0034875001 -0.96685553 2.192472
0.0078729996 -0.96774399 2.1928811
0.012558499 -0.96769154 2.192287
-0.017758001 -0.96467501 2.194499
-0.0097420001 -0.96275002 2.1943941
0.0046219998 -0.961411 2.1916561
0.033808 -0.96340203 2.193305
0.0363 -0.96155 2.1927741
0.013832 -0.95518202 2.1900771
-0.00157 -0.95015502 2.1919069
0.029434999 -0.95361698 2.1924241
-0.0047820001 -0.94981498 2.1930161
0.01012 -0.94953299 2.19225
0.015495 -0.94577599 2.191504
0.026192 -0.949781 2.1905661
0.032067999 -0.948421 2.194617
0.00966 -0.94098198 2.193862
-0.0039860001 -0.93537802 2.1918409
0.0083100004 -0.93745703 2.1919
0.025214 -0.93569899 2.190227
-0.0072289999 -0.93313998 2.194968
0.0084415004 -0.9330985 2.1928415
0.012271 -0.93018901 2.194658
0.016566999 -0.931584 2.1916051
0.023552999 -0.93221051 2.1927459
-0.0028520001 -0.92694098 2.19258
0.0088924998 -0.92750251 2.1924286
0.022242501 -0.928213 2.19104
0.021849001 -0.91635299 2.194453
0.001963 -0.914877 2.193949
0.0065179998 -0.91360098 2.1927471
0.0063379998 -0.908485 2.192488
0.023745 -0.89915901 2.190922
-0.019928999 -0.982876 2.199333
0.026249999 -0.98167801 2.1979749
0.013033 -0.97605401 2.199044
-0.034722999 -0.97221899 2.19941
-0.0038010001 -0.971771 2.1980591
-0.034060001 -0.96780401 2.1980081
-0.018529 -0.96935397 2.1952369
0.001347 -0.96584302 2.19591
0.005506 -0.96578002 2.1966729
0.019145001 -0.96816403 2.1980059
-0.012475 -0.96231002 2.196728
0.022425 -0.96354902 2.195044
0.033140998 -0.960428 2.198204
0.036217999 -0.96170998 2.1957121
0.01206 -0.95879602 2.1998689
-0.045109 -0.95429599 2.199136
-0.016018 -0.95171654 2.1963978
0.0035615 -0.95089698 2.1976955
-0.020594001 -0.94803101 2.1961679
-0.01304 -0.94706702 2.1975191
0.029829999 -0.94901401 2.1988549
0.033055998 -0.94586498 2.1959469
0.037535999 -0.94846499 2.1959319
0.030286999 -0.94367498 2.199883
-0.042261999 -0.93880498 2.197248
0.0079389997 -0.93570501 2.197227
0.025238 -0.93933398 2.1962309
0.041025002 -0.93768603 2.1986871
-0.023429001 -0.93138701 2.1978359
0.020935001 -0.93371201 2.1982
0.0296195 -0.93105 2.197974
0.034485001 -0.93221998 2.198633
0.054432001 -0.93371201 2.1982
0.0054879999 -0.92678201 2.1976471
-0.0080730002 -0.92225403 2.195682
0.0053679999 -0.920183 2.1962781
0.0057669999 -0.91899103 2.1991711
0.020935001 -0.91696298 2.1982
0.026784999 -0.91542 2.199039
0.032726001 -0.91599101 2.1975451
-0.0061499998 -0.91125703 2.1957049
0.007158 -0.91432053 2.1973429
0.016380999 -0.91276401 2.1953321
-0.012161 -0.90912998 2.199522
-0.0094480002 -0.89557397 2.1988299
0.0078539997 -0.99330097 2.202476
-0.0035620001 -0.98609746 2.2023335
0.014414 -0.986534 2.201988
0.017176 -0.98851401 2.204561
0.033810001 -0.985654 2.201962
0.019587001 -0.980331 2.2000549
0.040006999 -0.98262 2.204916
-0.0086970003 -0.97593302 2.2028201
-0.004185 -0.97709 2.200428
0.0082639996 -0.97634298 2.2028461
0.030106001 -0.97539997 2.203403
-0.013467 -0.97281498 2.203599
-0.007706 -0.97019601 2.2049949
0.00358 -0.97140598 2.2036071
0.047122002 -0.97363001 2.20172
-0.023227001 -0.96719301 2.2024579
-0.019553 -0.96921903 2.2041349
-0.0051699998 -0.96711701 2.201108
0.01456 -0.969464 2.202461
0.031076999 -0.96882802 2.202986
-0.022375001 -0.96087003 2.2026379
-0.0031369999 -0.960105 2.2030301
0.042596001 -0.960208 2.2032671
-0.022054 -0.95769501 2.20472
-0.0064723329 -0.95795536 2.2014818
0.0086740004 -0.95938599 2.2032161
0.025635 -0.95979702 2.2032411
-0.028131001 -0.954445 2.2035961
-0.019407 -0.95214802 2.204607
-0.00235 -0.95227098 2.2037699
0.0068970001 -0.95321703 2.2025969
0.014706 -0.952393 2.2029331
0.031762 -0.95251602 2.202096
0.042816252 -0.95341921 2.2022116
-0.016623 -0.94819301 2.200491
0.044977002 -0.94914103 2.201411
0.047364 -0.94619298 2.2030189
-0.012814 -0.94097298 2.201561
-0.0061300001 -0.94257599 2.2020791
0.0090840003 -0.94242901 2.2035861
0.011087 -0.94153899 2.200695
0.026045 -0.94283998 2.2036109
0.043005999 -0.94325101 2.2036369
-0.012947 -0.93933702 2.2048941
-0.0081430003 -0.93834299 2.2019451
0.023912 -0.93652397 2.2029109
0.031908002 -0.93544602 2.202569
0.03836 -0.93843699 2.204762
0.043158002 -0.9373365 2.2025371
-0.02077 -0.93407702 2.2042539
-0.016338 -0.93138301 2.200644
-0.0053369999 -0.93417197 2.201586
-0.00094200001 -0.934605 2.20298
0.027368 -0.93223 2.20082
0.041997999 -0.93264353 2.203279
-0.030154999 -0.92986202 2.204747
-0.0071029998 -0.925318 2.202904
0.001529 -0.925255 2.2016139
0.021042001 -0.92505002 2.200038
0.026944 -0.92640251 2.2027719
0.032327 -0.92692298 2.2028151
0.040025 -0.92815202 2.203896
-0.010315 -0.92162901 2.2038879
-0.0078290002 -0.920582 2.2033999
0.010115 -0.92428201 2.20152
0.036803 -0.92331803 2.202517
0.041995 -0.92235798 2.2038031
-0.0086789997 -0.91833597 2.204423
0.01122 -0.91866201 2.204639
0.024488501 -0.917557 2.2029376
0.03951 -0.91548902 2.2034581
0.040426999 -0.91839999 2.203922
0.011304 -0.91114497 2.2007959
0.016845001 -0.91076702 2.203846
0.023697499 -0.91212153 2.2030065
0.026567999 -0.91449398 2.2022929
0.001258 -0.90698701 2.200139
0.0091420002 -0.90702403 2.2023449
0.014819 -0.90481502 2.2007489
-0.016248999 -0.89600497 2.2033629
0.0058229999 -0.89901298 2.200964
0.010686 -0.89154601 2.204632
0.008196 -0.98646599 2.2065411
-0.00070799998 -0.98428702 2.20632
0.016254 -0.98451197 2.206017
0.050177999 -0.984963 2.20541
-0.021640999 -0.97549701 2.2061689
0.027336 -0.97781199 2.209363
-0.011985 -0.974648 2.2092071
-0.0077030002 -0.972902 2.2080791
-0.0021919999 -0.974549 2.2081831
0.0095480001 -0.97256798 2.206754
-0.031307001 -0.96592402 2.208379
-0.023347 -0.96790498 2.2057359
-0.000478 -0.96732402 2.206567
0.016484 -0.96754903 2.206264
0.033445999 -0.96777499 2.20596
0.043832 -0.96949601 2.207063
0.011382 -0.96007901 2.205781
0.043244001 -0.96342301 2.2099171
-0.024673 -0.959355 2.208853
-0.017555 -0.95969099 2.2074399
-0.0079739997 -0.95561898 2.2088981
-0.0049259998 -0.95772302 2.2092061
0.0092759999 -0.95528501 2.207572
0.0517455 -0.95797896 2.2067676
-0.027010001 -0.952649 2.207541
-0.015943 -0.95430398 2.206296
-0.0093210004 -0.95350701 2.2050231
0.016713999 -0.95058602 2.2065101
0.026526 -0.95495099 2.2062471
0.033675998 -0.95081198 2.206207
0.048493002 -0.95110703 2.209007
-0.006815 -0.94524997 2.206701
-0.024225 -0.94098097 2.2066629
-0.0073429998 -0.944758 2.2081599
-0.029823 -0.935826 2.208708
-0.019285001 -0.93846798 2.2091341
-0.013471 -0.939897 2.2089369
-0.0082459999 -0.93833601 2.2097161
-0.001703 -0.93840498 2.2080281
0.0090039996 -0.93800199 2.208391
-0.0054469998 -0.93241 2.206707
0.016943 -0.93362403 2.2067571
0.033904999 -0.93384898 2.206454
0.043979 -0.93015403 2.205893
-0.016902 -0.92784798 2.2054019
-0.009052 -0.92766702 2.208854
0.0079640001 -0.925897 2.20717
-0.026396999 -0.92426699 2.208606
0.0074864998 -0.92096496 2.2089319
0.017991999 -0.92434198 2.2050509
0.024979999 -0.924128 2.205487
0.034637 -0.92339998 2.208478
-0.0041649998 -0.91901702 2.2061329
0.016581999 -0.91987598 2.2080221
0.022875 -0.91834998 2.2060561
-0.020989999 -0.91472399 2.2092421
0.028987 -0.91104001 2.2059801
0.035803001 -0.914307 2.2078781
0.040594 -0.91411602 2.2087669
0.0062549999 -0.90880698 2.207865
0.014292 -0.90939701 2.208744
0.023271 -0.90703702 2.206181
0.032582 -0.90894997 2.206346
-0.0073890002 -0.90342897 2.209286
0.002359 -0.904814 2.2087741
0.0073609999 -0.90185297 2.2078996
0.020142 -0.90152401 2.2070799
0.012649 -0.89648402 2.207653
0.019453 -0.89813799 2.205626
0.023324 -0.89880902 2.205466
0.02008 -0.88312399 2.208638
0.015247 -0.999457 2.213016
-0.005841 -0.990789 2.214138
0.020637 -0.99070102 2.2135079
0.02588 -0.98697102 2.2125609
0.032815002 -0.98261499 2.2130651
0.038036 -0.98250198 2.210937
-0.027549 -0.97789001 2.214807
-0.0039679999 -0.97641301 2.2132909
0.043212 -0.97636998 2.21187
0.047621001 -0.97953397 2.2126999
-0.020918 -0.974612 2.2133169
0.034565002 -0.97090399 2.211257
0.049557999 -0.9726975 2.2136478
0.054582 -0.96693599 2.2137799
0.030621 -0.963669 2.213284
0.047952998 -0.96262598 2.2118909
-0.040011 -0.95595199 2.2136469
-0.035347 -0.95627302 2.2140081
-0.025225 -0.955953 2.210223
-0.019090999 -0.9584375 2.2129655
0.050918002 -0.95017099 2.2108569
-0.021643 -0.946567 2.2112811
0.029642001 -0.94629699 2.2141149
0.039882999 -0.947438 2.2131021
0.048060499 -0.94555002 2.2118812
-0.044465002 -0.94334197 2.2149999
-0.027704 -0.943214 2.2115381
-0.017268 -0.94164699 2.2136281
0.0047820001 -0.94002199 2.212007
-0.038934998 -0.935426 2.2144139
-0.031642001 -0.93967199 2.2132621
-0.014154 -0.93902099 2.211302
-0.010493 -0.93039602 2.210372
0.046015002 -0.93421102 2.210984
-0.030735999 -0.927073 2.214222
-0.017622 -0.926287 2.212852
0.028663 -0.92892498 2.214946
0.045995001 -0.92788202 2.213552
-0.022627 -0.92263299 2.211972
-0.017378001 -0.92343301 2.2144549
-0.0081059998 -0.92113304 2.2108605
-0.004344 -0.92190403 2.2102389
0.001731 -0.923778 2.214709
0.054783002 -0.92288703 2.2124
-0.0082390001 -0.91646802 2.210305
0.005845 -0.91642803 2.2129591
0.043536 -0.91731602 2.2129619
-0.0069860001 -0.90540397 2.21245
0.02107 -0.90603 2.2124
0.030915 -0.908364 2.212194
0.037927002 -0.90603 2.2124
-0.025078001 -0.90159899 2.213083
-0.010157 -0.90442801 2.213151
0.0069385003 -0.90294898 2.2116256
0.013531 -0.90363199 2.2107229
0.016891999 -0.90265501 2.2103231
0.022054 -0.90423203 2.2106271
0.031580999 -0.90046197 2.2118609
-0.011093 -0.89971501 2.2119839
0.00176 -0.89720201 2.2144589
-0.001815 -0.89112699 2.2127111
0.02836 -0.89458102 2.210176
-0.010613 -0.88784099 2.21244
-0.0096279997 -0.88890302 2.2146599
0.0081890002 -0.886154 2.2108469
0.012694 -0.88888901 2.214283
0.019867999 -0.88740802 2.2125831
0.0036800001 -0.88476002 2.2109151
0.0084520001 -0.88220102 2.2114601
0.0078750001 -1.005707 2.216356
0.042072002 -1.000538 2.2169919
0.019167 -0.99623299 2.2199881
0.028124001 -0.99570101 2.219404
0.0088 -0.992939 2.2154729
0.017007999 -0.993698 2.217804
-0.023502 -0.985241 2.216876
0.001377 -0.98806697 2.2178199
0.048521999 -0.98684502 2.215625
0.00063099997 -0.98488402 2.2159581
0.014495 -0.98300302 2.219851
0.016271001 -0.98350698 2.2185309
0.025412001 -0.98305601 2.2173381
0.042484 -0.98347002 2.2173641
0.059556998 -0.98388302 2.2173901
-0.010156 -0.976179 2.2166171
-0.00202 -0.97547501 2.217926
0.0068089999 -0.97634202 2.216754
0.032318 -0.97572201 2.2162399
0.038217001 -0.97828501 2.2185171
0.045216002 -0.97796702 2.218894
0.057703 -0.97682899 2.217164
-0.0092040002 -0.97485298 2.2169931
-0.026382999 -0.965285 2.21716
0.059969001 -0.96681499 2.217762
0.060176998 -0.96755701 2.2176449
0.077041999 -0.967228 2.217788
-0.035367999 -0.96054697 2.215657
-0.030191001 -0.96139002 2.2170179
-0.025392 -0.96474802 2.217633
0.074828997 -0.96002698 2.2174799
-0.0099950004 -0.95921499 2.2167971
0.049633998 -0.95866197 2.215874
0.057863999 -0.95986497 2.2173431
-0.018835999 -0.95039099 2.2154591
0.059078 -0.95394099 2.2170539
-0.0228095 -0.94751501 2.2183425
-0.0079070004 -0.948093 2.2180309
0.057962 -0.94754797 2.21838
0.060382001 -0.94974601 2.2181339
-0.032832999 -0.94488901 2.219229
-0.027365999 -0.94343698 2.219624
-0.018896 -0.94098598 2.2197199
-0.001727 -0.94111001 2.2188771
0.007131 -0.94241297 2.217113
0.015442 -0.94123298 2.218035
0.041060001 -0.942738 2.217387
0.04978 -0.94147903 2.2163489
0.06244 -0.94325 2.2161641
-0.038617998 -0.93639302 2.2156761
0.055987 -0.93748498 2.21979
-0.023334 -0.93205601 2.219126
0.0095779998 -0.93143803 2.2184291
0.043722 -0.93226498 2.2184811
0.052129 -0.93469203 2.216784
-0.0361825 -0.92624199 2.2182722
-0.019909 -0.92514598 2.2158389
0.0072920001 -0.92544901 2.217294
0.041221 -0.92577398 2.217566
0.06072 -0.926045 2.2168629
-0.042273 -0.921628 2.2193251
-0.029818 -0.92031801 2.218962
-0.020555001 -0.92383897 2.219553
-0.015837001 -0.92008603 2.217026
0.015589 -0.92404997 2.2185099
0.033689 -0.92230952 2.216444
0.056625001 -0.92106301 2.2195079
0.044135001 -0.91519701 2.218853
0.048843998 -0.91880798 2.2199969
-0.021771999 -0.912678 2.2167671
-0.0072349999 -0.91209602 2.2184215
0.002197 -0.91456997 2.217556
0.0099900002 -0.91437 2.218801
0.0273735 -0.91316801 2.2173018
0.041871 -0.910622 2.2192571
-0.022551 -0.90864599 2.21805
-0.00132 -0.90753299 2.2174101
0.0066595003 -0.90768552 2.216424
0.024417 -0.908647 2.2176099
0.041382 -0.90880901 2.217746
0.001649 -0.90214503 2.2167661
0.02465 -0.90332401 2.2191679
0.026838999 -0.90337199 2.2153261
0.031548999 -0.90409702 2.2179389
0.038552001 -0.90369397 2.219022
0.0093719997 -0.89522499 2.2180009
0.011991 -0.899656 2.2173109
0.027474999 -0.89771497 2.2191999
0.0036810001 -0.89006299 2.2173309
0.027704 -0.89340901 2.2161405
0.040151 -0.89341801 2.2199559
-0.01584 -0.88621801 2.2176361
0.002053 -0.88652498 2.216078
0.0067850002 -0.887568 2.2170119
-0.0023729999 -0.88393301 2.2183421
0.0020695 -0.99732149 2.2231255
0.027183 -0.99475598 2.2240729
0.033530999 -0.99104398 2.2202179
0.019118 -0.98846197 2.22317
0.022806 -0.98709899 2.220794
0.061898001 -0.98795402 2.2246981
-0.017809 -0.98227203 2.2237849
-0.002634 -0.98478502 2.2215459
0.0092989998 -0.98412102 2.223927
-0.023241 -0.979177 2.2245891
-0.01049 -0.97677499 2.2215419
0.027851 -0.97830403 2.220228
-0.017457001 -0.97329003 2.2213831
0.052109499 -0.97367698 2.2208614
0.063353002 -0.971241 2.223623
-0.021483 -0.96936202 2.2239399
-0.010892 -0.96974897 2.2241001
-0.0043540001 -0.96758002 2.222245
0.053838 -0.96772897 2.2236691
-0.028906001 -0.964917 2.2239261
-0.030858001 -0.95553201 2.2242179
-0.017225999 -0.95621598 2.221632
-0.000153 -0.95644301 2.2213261
0.051066998 -0.95712298 2.2204089
-0.030471001 -0.95216101 2.221
-0.023203 -0.95215702 2.2246389
0.069349997 -0.951056 2.2227759
0.070208997 -0.952021 2.2223661
-0.006176 -0.94620699 2.224808
0.027303999 -0.94350803 2.2218759
0.044668999 -0.94317198 2.220542
0.051298 -0.94004899 2.2206581
-0.016995 -0.93914199 2.22188
7.8999998e-05 -0.93936902 2.221575
0.054579001 -0.93146098 2.221585
-0.013121 -0.927679 2.221395
0.02703 -0.92611003 2.2227001
0.044395 -0.92577398 2.2213659
0.056201 -0.92672598 2.224365
-0.016763 -0.922068 2.2221291
-0.0051549999 -0.92208999 2.2220731
0.00031 -0.92229497 2.221823
0.017383 -0.922521 2.221518
0.034456 -0.92274803 2.2212119
0.048016001 -0.92131901 2.2216849
0.052896 -0.92102897 2.222527
-0.0095149996 -0.91596699 2.2243421
0.051197 -0.91537398 2.224791
-0.024727 -0.909639 2.2233369
-0.010321 -0.90954202 2.220124
-0.0086200004 -0.90678501 2.220819
0.00054099999 -0.90522099 2.2220719
0.0050639999 -0.90945297 2.2242529
0.017614 -0.90544701 2.221766
0.026756 -0.90871298 2.2235241
0.034687001 -0.90567398 2.2214601
0.040755998 -0.906214 2.2202721
0.052398998 -0.907493 2.223479
-0.019156 -0.90430301 2.22017
0.0071530002 -0.90135401 2.222945
0.045559 -0.902924 2.2232111
-0.011664 -0.89686501 2.2222159
-0.001503 -0.899625 2.2212501
0.0058929999 -0.896981 2.223346
0.015023 -0.89853102 2.2247751
0.023022 -0.895199 2.2216511
0.0298 -0.89948499 2.222657
0.0085140001 -0.89002699 2.2231879
-0.0025480001 -0.88786203 2.2205729
0.026369 -1.008063 2.227421
0.037976 -0.99884099 2.229763
0.054203 -0.99404103 2.2285731
0.032977 -0.98718601 2.227541
0.050425999 -0.98613501 2.2261391
0.025974 -0.98351997 2.227437
0.067635998 -0.983495 2.2295949
0.058989 -0.976466 2.229337
0.064258002 -0.97921699 2.2262709
-0.036722001 -0.96797103 2.2293661
0.066326 -0.96801853 2.2272072
-0.026604 -0.96324003 2.2274449
0.068591997 -0.96172303 2.22946
0.060045999 -0.95525497 2.2268569
0.065517999 -0.95704299 2.228014
0.050946001 -0.95075297 2.2253709
0.065903001 -0.95010602 2.226408
-0.019614 -0.94582099 2.2278969
-0.012725 -0.94586003 2.2268
0.0042420002 -0.94586003 2.2268
0.072105996 -0.94586003 2.2268
-0.024792001 -0.94451702 2.225878
0.062748 -0.93999302 2.2290511
0.065958001 -0.93837398 2.2263601
-0.024924001 -0.93495297 2.225338
0.048053999 -0.93377697 2.227072
0.064937994 -0.93315101 2.2275991
0.065922 -0.934811 2.225688
-0.038647 -0.92591202 2.228682
-0.025064999 -0.92711902 2.226702
-0.022093 -0.92892498 2.2298751
-0.008928 -0.92926902 2.2258389
0.0042420002 -0.92889398 2.2268
-0.023008 -0.924559 2.228364
-0.0098980004 -0.91974199 2.226368
0.045822501 -0.91648996 2.2291291
-0.042695999 -0.91485202 2.2296219
-0.022657 -0.91110802 2.228415
0.0042420002 -0.911928 2.2268
0.052432001 -0.91150397 2.228127
-0.025339 -0.90972102 2.2275259
-0.0086630005 -0.9085955 2.2260361
0.043403 -0.905128 2.2295251
0.040956002 -0.902372 2.2253489
-0.011235 -0.89876199 2.2250409
-0.024716999 -0.89184302 2.2274089
-0.012096 -0.892878 2.229645
0.0042420002 -0.89496201 2.2268
0.021207999 -0.89496201 2.2268
0.040118001 -1.013989 2.2301691
0.017639 -1.006194 2.23401
0.025186 -1.006626 2.2316279
0.059556 -1.007458 2.2316799
0.034882002 -1.004401 2.2323041
0.046682 -1.00167 2.2331491
0.032880999 -0.99923801 2.230576
0.045809999 -0.99659997 2.2327931
0.012844 -0.99290299 2.2304089
0.032093 -0.99441302 2.232939
0.046147 -0.99269497 2.233773
0.060350001 -0.99094898 2.234592
0.071367003 -0.99214399 2.2337289
0.077156998 -0.99069297 2.2320809
-0.00287 -0.98932499 2.2327931
0.055245999 -0.98921901 2.2339411
-0.020338001 -0.982512 2.2310481
-0.015621 -0.98464298 2.2315171
0.059987999 -0.98234099 2.234705
0.068455003 -0.98070699 2.2345569
0.075185001 -0.98335302 2.2318389
0.092261001 -0.98351699 2.231976
0.072439 -0.97540599 2.2319069
0.076815002 -0.97211301 2.233839
0.063612998 -0.96630198 2.233465
0.065903999 -0.96617597 2.230299
0.072748996 -0.96981102 2.2347591
-0.034083001 -0.963494 2.230104
0.068686999 -0.96351999 2.234807
0.056295 -0.95963901 2.231591
0.069927 -0.95828599 2.233911
0.078168005 -0.95587051 2.23224
-0.025122 -0.95383501 2.2326751
-0.037138499 -0.94900846 2.2330074
-0.029967001 -0.94730401 2.2303009
-0.0098710004 -0.94838399 2.231514
0.058433 -0.94903803 2.2320631
0.064068004 -0.94759649 2.2337699
0.075508997 -0.949202 2.2322011
-0.036651999 -0.94459301 2.230227
0.053601999 -0.94281101 2.2338459
-0.023011999 -0.93571401 2.2333529
-0.018293001 -0.93985897 2.231487
-0.007522 -0.93707001 2.2330749
0.061218001 -0.93873399 2.2331791
0.075020999 -0.93932098 2.2349041
-0.038500998 -0.93182802 2.234103
-0.0097089997 -0.93130797 2.231694
0.058595002 -0.93196303 2.232244
-0.039524999 -0.92772901 2.2319181
-0.0010939999 -0.92980099 2.2341881
0.059978001 -0.922943 2.230088
-0.035663001 -0.91526699 2.232398
-0.031022999 -0.91533601 2.230783
-0.024292 -0.91947299 2.2334239
-0.0071069999 -0.91988897 2.2334499
0.060662001 -0.91959703 2.2320049
-0.029484 -0.91066498 2.23332
-0.024572 -0.91202998 2.231853
-0.016559999 -0.91214001 2.230587
-0.0095469998 -0.91423303 2.2318759
0.016337 -0.912628 2.233819
0.03362 -0.91275197 2.23297
0.058757 -0.91488701 2.232425
0.060709 -0.91421998 2.23241
-0.025881 -0.907695 2.2300539
0.057208002 -0.90589398 2.2311261
-0.013598 -0.90479702 2.230062
-0.00685 -0.901842 2.234529
0.010494 -0.90312397 2.233851
0.025642 -0.90301698 2.2340541
0.044863999 -0.903956 2.2339029
-0.034074001 -0.89909101 2.233485
-0.0265355 -0.89515352 2.2325511
-0.022817999 -0.89655399 2.2344611
-0.019804001 -0.89645499 2.2337611
-0.001416 -0.89560002 2.234118
0.0076910001 -0.89732099 2.2321939
-0.039866 -0.89116299 2.2340479
0.038428001 -0.99981201 2.239377
0.041698001 -0.99840802 2.238472
0.058922999 -0.99011302 2.2366481
0.072833002 -0.98600602 2.2370491
-0.029276 -0.98118198 2.2373171
0.0713 -0.98158002 2.236722
0.077951998 -0.97820199 2.238153
0.069071002 -0.96441901 2.2387171
-0.028686 -0.95513803 2.2389221
0.069836996 -0.95272201 2.2364731
0.074386001 -0.95172298 2.2353599
0.08083 -0.95240498 2.237571
0.072021998 -0.94834203 2.2368259
0.067414999 -0.94116497 2.2359149
0.066926003 -0.93563402 2.2381859
-0.033167001 -0.93303299 2.235647
-0.02661 -0.93226898 2.2357891
0.063061997 -0.93127197 2.2351241
-0.025637999 -0.92903501 2.2386451
-0.018377 -0.92967701 2.2350359
0.051966999 -0.92891902 2.235615
-0.040762 -0.92143202 2.2364991
-0.027186001 -0.92202699 2.2372899
-0.022653 -0.92264748 2.2351379
0.064902999 -0.92404503 2.2379191
0.071693003 -0.92323297 2.238158
-0.036260001 -0.91592848 2.2369418
-0.029854 -0.91658401 2.238961
-0.024421001 -0.91690499 2.239393
-0.013293 -0.91587597 2.2381289
0.064014003 -0.91854501 2.2398989
-0.016542999 -0.91081899 2.2370951
0.045304 -0.91409498 2.2372971
0.052200001 -0.91173202 2.2358651
-0.025692999 -0.90996897 2.238873
0.048214 -0.90915698 2.2383549
0.053160001 -0.90903598 2.2395141
-0.033594001 -0.89746797 2.2371819
-0.024549 -0.89918399 2.238801
-0.010327 -0.89729702 2.2365811
0.050845001 -1.02315 2.2441499
0.058896001 -1.016904 2.2423289
0.046023998 -1.005441 2.24104
0.050994001 -1.005738 2.244632
0.062325001 -1.00416 2.24384
0.064685002 -0.998469 2.241632
0.073074996 -0.996822 2.2407229
0.077555999 -0.99791503 2.244781
-0.015989 -0.98858601 2.2401421
0.068540998 -0.988451 2.2442601
0.069086999 -0.98025399 2.242867
0.070286997 -0.97965902 2.2417669
0.086516999 -0.97635198 2.2418909
-0.018758999 -0.97153598 2.2411799
0.068689004 -0.971039 2.2447419
0.085003003 -0.97363597 2.240417
0.083950996 -0.96999502 2.242914
0.075240001 -0.96126199 2.240422
-0.039283 -0.95961797 2.24124
0.084466003 -0.95957798 2.24016
0.091930002 -0.95606798 2.2431109
-0.021529 -0.95448703 2.2422171
0.083296999 -0.95277101 2.244417
0.089656003 -0.952061 2.2414
0.066840999 -0.94725901 2.2407119
0.072529003 -0.944323 2.242692
0.081676997 -0.942415 2.241205
-0.024298999 -0.937437 2.2432539
-0.012808 -0.93498403 2.2414
0.064612001 -0.930098 2.242707
0.067698002 -0.93362403 2.2407489
0.072578996 -0.93498403 2.2414
0.069816999 -0.92738402 2.244961
0.078888997 -0.92525202 2.242249
-0.026286501 -0.92178702 2.2426162
0.065999001 -0.92196202 2.2429986
-0.0115105 -0.91769803 2.241529
0.055500999 -0.917907 2.2414
0.063373998 -0.91890699 2.2446721
-0.028977999 -0.91315299 2.2418089
0.062383 -0.912938 2.2447031
-0.027236 -0.90586799 2.2416451
-0.017021 -0.906201 2.2429631
-0.012895999 -0.90063405 2.2420475
-0.032318 -0.89727002 2.2449739
-0.028007001 -0.897497 2.2419639
-0.016364001 -0.899526 2.2408481
0.073357001 -1.0143729 2.249954
0.05381 -1.008689 2.245728
0.056975 -1.000932 2.246958
0.060818002 -1.0008759 2.249094
0.065213002 -0.99008298 2.2479069
0.078008004 -0.99239397 2.2479949
0.082198001 -0.99338698 2.2458296
0.051143002 -0.98832601 2.2451141
-0.02726 -0.97162497 2.245929
0.082535997 -0.97210801 2.24739
0.088891 -0.97361398 2.248322
0.093061 -0.97277802 2.246897
0.090997003 -0.96560103 2.2459321
0.094417997 -0.96287501 2.249274
-0.027097 -0.95443702 2.2461109
0.069157496 -0.95305002 2.247592
0.082258001 -0.95447499 2.248225
0.078946002 -0.94529098 2.248076
-0.024848999 -0.94277799 2.2479191
-0.026934 -0.93724799 2.2462931
0.051589001 -0.93608898 2.2465601
0.068986997 -0.93621403 2.245707
0.076199003 -0.938236 2.247123
0.062065002 -0.92757702 2.2484269
0.076361999 -0.92104799 2.2473049
-0.040865 -0.91578299 2.2483671
-0.037788 -0.91514099 2.247685
-0.00045699999 -0.918302 2.249604
0.051738001 -0.91867697 2.2470419
-0.0067139999 -0.90860599 2.2486999
-0.042916 -0.90264302 2.2461419
-0.035549 -0.904845 2.247915
-0.0094189998 -0.903036 2.2467959
0.035440002 -1.022064 2.2508609
0.040509999 -1.018123 2.2513621
0.049074002 -1.015141 2.2529669
0.057938501 -1.0073285 2.2536054
0.075769 -1.002068 2.254642
0.083792999 -1.000329 2.2504921
0.094797 -0.997572 2.25228
0.078235999 -0.994663 2.2534881
0.082286 -0.98647797 2.2512441
0.089405999 -0.98239899 2.2541821
0.087846003 -0.978791 2.2548871
0.099647 -0.97744101 2.254472
0.084808998 -0.964468 2.2533159
-0.028434001 -0.94527298 2.254164
0.081992999 -0.940808 2.254859
0.069711 -0.93517298 2.250212
-0.039179001 -0.91973501 2.250807
-0.033944 -0.91982597 2.253768
-0.017855 -0.91817701 2.250458
0.064103 -0.91954798 2.2512479
-0.026924999 -0.91197097 2.2525229
-0.023291999 -0.90854502 2.2512729
-0.036494002 -0.90405202 2.2536354
0.054352999 -1.024081 2.2597821
0.063575998 -1.0228831 2.25876
0.036782999 -1.017441 2.257457
0.05886 -1.018838 2.2577989
0.067581996 -1.015712 2.2586529
0.026593 -1.0135601 2.258013
0.072993003 -1.013032 2.259325
0.08399 -1.007398 2.258889
0.071157999 -0.99758399 2.255461
0.097061001 -0.99510503 2.259223
0.100083 -0.99571103 2.2587681
0.087020002 -0.99496299 2.2585981
0.097351998 -0.99470299 2.2594869
0.099978998 -0.985901 2.2551129
0.087064996 -0.97677004 2.259053
0.086709 -0.97169697 2.2573249
0.091954999 -0.96568799 2.259572
0.086846001 -0.96106303 2.255734
0.100777 -0.96182799 2.2565989
0.08732 -0.95990402 2.2595689
0.081657 -0.94768399 2.256108
0.085846998 -0.94333601 2.256582
0.090248004 -0.941158 2.2562001
0.078504004 -0.93089998 2.258899
0.073058002 -0.92396802 2.2562001
-0.029100001 -0.90518701 2.2553821
0.057271998 -1.032403 2.2603409
0.077809997 -1.021113 2.261528
0.039655998 -1.0158269 2.2626209
0.065743998 -1.018898 2.2630091
0.086336002 -1.016293 2.2644219
0.043694001 -1.0131381 2.261817
0.084274001 -0.996086 2.262013
0.086980999 -0.99371803 2.2641439
0.098970003 -0.99272501 2.2623141
0.093648002 -0.989443 2.2617879
0.096065998 -0.98671401 2.2623129
0.100428 -0.98508 2.2618649
0.087217003 -0.97630203 2.2643981
0.094401002 -0.977382 2.261224
0.091389 -0.97205001 2.2638099
0.096487001 -0.96930403 2.2626929
0.106916 -0.96521401 2.264014
0.0926615 -0.96097952 2.2624893
0.087452002 -0.95888603 2.2646511
0.100551 -0.95782501 2.2605951
0.092249997 -0.95468497 2.2628269
0.096908003 -0.95189399 2.263073
0.089409001 -0.94833499 2.2616031
0.096427999 -0.94786298 2.260685
0.083443001 -0.94191146 2.2624919
0.087885328 -0.94219536 2.2632186
0.092653997 -0.94430798 2.2604091
0.096151002 -0.94339901 2.264745
0.079914004 -0.934062 2.2634261
0.092078 -0.93389797 2.2647719
-0.02692 -0.92613202 2.261411
0.092229001 -0.92909902 2.2610409
-0.024150001 -0.91412199 2.263648
-0.028493 -0.90843397 2.260241
0.066358998 -1.040626 2.2692571
0.048232 -1.026914 2.2656691
0.064695999 -1.029719 2.2675631
0.073538996 -1.026159 2.268918
0.04941 -1.0217921 2.268703
0.077349 -1.014833 2.266309
0.094412997 -1.0055259 2.2683859
0.090639003 -1.00288 2.269685
0.107468 -0.99910003 2.2659869
0.091617003 -0.98628801 2.2651429
0.111537 -0.97769248 2.2683749
0.105958 -0.96777701 2.2678161
0.089129001 -0.954656 2.2658329
0.094931997 -0.95074701 2.2664649
0.103523 -0.94880903 2.2673321
0.087627999 -0.93817002 2.2672701
0.076609001 -1.036932 2.2741179
0.080040999 -1.02588 2.270014
0.051617999 -1.022409 2.274313
0.056243002 -1.023828 2.2724633
0.089286 -1.0237221 2.271574
0.096298002 -1.0203021 2.2709479
0.070331 -1.018954 2.274364
0.106518 -1.007584 2.2746191
0.10575 -1.001559 2.2731221
0.090669997 -0.99975502 2.273813
0.097271003 -0.98843002 2.272789
0.115447 -0.98664701 2.274704
0.1062 -0.98208153 2.2732005
0.113986 -0.97960001 2.272872
0.106051 -0.966263 2.2741001
0.10865 -0.96351552 2.27143
0.085128002 -1.041503 2.2759099
0.050632998 -1.038952 2.2787149
0.039374001 -1.025004 2.275521
0.068465002 -1.029374 2.2774429
0.092982002 -1.028262 2.2781689
0.095888004 -1.028311 2.2768121
0.113419 -1.028736 2.2768381
0.130951 -1.02916 2.276865
0.067612007 -1.020788 2.2772295
0.085767999 -1.021034 2.276727
0.108281 -1.024351 2.276839
0.069897003 -1.017558 2.2794981
0.082047999 -1.015106 2.2799399
0.087429002 -1.017791 2.2791841
0.1027385 -1.0189974 2.2776856
0.096311003 -1.010784 2.277194
0.113843 -1.0112081 2.27722
0.131375 -1.011632 2.277247
0.098539002 -1.0084341 2.2772219
0.105199 -1.00049 2.2791259
0.111612 -1.003249 2.27683
0.101788 -0.995655 2.2783959
0.120454 -0.99532199 2.2763519
0.114267 -0.99368101 2.2776029
0.131798 -0.99410498 2.2776289
0.111778 -0.98583198 2.277015
0.103315 -0.98428899 2.277143
0.105436 -0.98295701 2.279381
0.116249 -0.98404503 2.2754149
0.114691 -0.97615302 2.2779851
0.107701 -0.97033 2.275878
0.103034 -0.96641302 2.2779901
0.105674 -0.965424 2.2796359
0.111943 -0.96841401 2.277199
0.104541 -0.95951003 2.276813
0.094690003 -0.95082998 2.2772441
0.104506 -0.95332003 2.278707
0.112108 -0.95099598 2.277384
0.106787 -0.9486655 2.2788482
0.075382002 -1.02837 2.2803321
0.099486001 -1.028964 2.2827699
0.068687998 -1.024313 2.2804029
0.110182 -1.022185 2.284704
0.083659999 -1.017342 2.2829571
0.098398 -1.017646 2.280211
0.113955 -1.008472 2.281131
0.111109 -0.99095798 2.282197
0.1180345 -0.99255252 2.2826262
0.117701 -0.96645701 2.2840559
0.105418 -0.95592898 2.284328
0.122636 -0.95377302 2.2849021
0.10011 -0.94442701 2.280833
0.071167998 -1.043395 2.2894621
0.088156 -1.032091 2.2885151
0.075548001 -1.028414 2.286207
0.089074001 -1.025754 2.289083
0.091067001 -1.0259579 2.2869029
0.106828 -1.025882 2.2882111
0.094429001 -1.0237221 2.2887909
0.105425 -1.023561 2.2885449
0.101569 -1.016937 2.2870281
0.11168 -1.015433 2.2870629
0.102657 -1.011479 2.286171
0.117993 -1.009639 2.285255
0.124092 -1.008366 2.2855389
0.110366 -1.0040849 2.28776
0.119631 -1.002702 2.2866049
0.116601 -0.997504 2.287493
0.109386 -0.990309 2.285043
0.114777 -0.99251401 2.2881031
0.123532 -0.99216902 2.2862909
0.11438 -0.9794665 2.2875066
0.124716 -0.97920501 2.2896531
0.108373 -0.97233599 2.285902
0.114578 -0.97327602 2.285887
0.120746 -0.97476798 2.2886219
0.12629101 -0.97113299 2.2862999
0.106808 -0.96849501 2.289207
0.111998 -0.95568502 2.2879469
0.10708666 -0.95292598 2.2876637
0.074022003 -1.047721 2.2941871
0.087251 -1.038334 2.2933481
0.092689998 -1.0382169 2.292443
0.087545 -1.027055 2.292762
0.105511 -1.0267071 2.2913809
0.119827 -1.026355 2.2924089
0.120005 -1.020563 2.294549
0.101926 -1.0179189 2.290421
0.119718 -1.016533 2.2911699
0.12992799 -1.010129 2.2923081
0.133763 -1.011452 2.294035
0.105228 -1.008707 2.2922339
0.123664 -1.007351 2.294302
0.126059 -1.005976 2.2941201
0.132109 -1.006806 2.294718
0.12291 -0.99035901 2.2917061
0.13009401 -0.992594 2.2924941
0.123903 -0.98969901 2.294559
0.12758 -0.98796803 2.29041
0.133141 -0.983091 2.2934749
0.130261 -0.97505897 2.29268
0.1233845 -0.97220349 2.2936869
0.113648 -0.96758598 2.2901249
0.115917 -0.96501797 2.293833
0.112019 -0.96223998 2.291594
0.130427 -0.957524 2.292866
0.104378 -0.95470798 2.2947919
0.107435 -0.954808 2.290179
0.089896999 -1.03499 2.296505
0.119194 -1.032084 2.295686
0.132818 -1.03034 2.2964239
0.129857 -1.01502 2.2993579
0.122735 -1.014119 2.297456
0.13414299 -1.000115 2.2993381
0.1326845 -0.993716 2.2956805
0.128032 -0.976183 2.29618
0.13123301 -0.97637302 2.2991209
0.090043001 -1.050402 2.304368
0.107919 -1.050531 2.3034899
0.098251 -1.048051 2.3040531
0.12794 -1.048781 2.3044031
0.079896003 -1.0436881 2.301764
0.109422 -1.0363801 2.304713
0.116136 -1.035983 2.3029571
0.095325999 -1.03398 2.300797
0.125948 -1.032769 2.303108
0.114298 -1.028278 2.303015
0.125367 -1.0261509 2.3006029
0.122094 -1.020798 2.301122
0.112362 -1.0147949 2.300211
0.126101 -1.014878 2.3036039
0.135745 -1.010133 2.3023901
0.130346 -1.008504 2.3019781
0.145715 -1.0065041 2.300276
0.12625401 -0.996988 2.3040991
0.128554 -0.99058598 2.302706
0.133724 -0.987598 2.301434
0.142149 -0.98954499 2.3036549
0.13749 -0.98210698 2.301589
0.126407 -0.97909802 2.304595
0.138625 -0.97627598 2.3043489
0.144678 -0.97767401 2.3017001
0.126763 -0.97266799 2.3034339
0.071258001 -1.0522389 2.3093319
0.109947 -1.0415241 2.3056159
0.13918699 -1.035278 2.308856
0.124367 -1.031836 2.309731
0.1347 -1.028266 2.3056159
0.15098301 -1.0256521 2.3083889
0.14289451 -1.022406 2.30914
0.142445 -1.0165025 2.3087659
0.124959 -1.014939 2.30688
0.15385699 -1.014502 2.307194
0.145521 -0.997334 2.3087771
0.128563 -0.97610199 2.3084879
0.134501 -0.97192198 2.309525
0.138584 -0.97258699 2.307034
0.126213 -0.968086 2.3072529
0.132974 -0.96673602 2.305686
0.107438 -1.057814 2.312083
0.067102 -1.049159 2.311085
0.12921099 -1.037783 2.3130169
0.132714 -1.031691 2.3130269
0.14401799 -1.0325969 2.3145211
0.145566 -1.028731 2.312706
0.142533 -1.010929 2.314491
0.140195 -1.005795 2.3139291
0.149033 -0.99497801 2.31216
0.14203601 -0.980488 2.3121841
0.139185 -0.97265601 2.311625
0.080049999 -1.060066 2.317713
0.127186 -1.05767 2.3186741
0.109103 -1.054831 2.3196759
0.118268 -1.052758 2.3183579
0.098183997 -1.047577 2.315361
0.110437 -1.0471931 2.319864
0.111044 -1.040714 2.315614
0.115389 -1.039652 2.31566
0.14534 -1.039784 2.31829
0.158049 -1.036522 2.3166201
0.134427 -1.032847 2.3173139
0.132544 -1.0203331 2.3150699
0.140466 -1.023806 2.3163991
0.145494 -1.02177 2.3187881
0.15011001 -1.0092241 2.3192
0.13151699 -1.002108 2.3159411
0.145648 -1.003755 2.3192871
0.13949899 -0.99312598 2.3162761
0.137872 -0.98791802 2.3160069
0.14580099 -0.98574102 2.3197861
0.13049001 -0.98388302 2.316813
0.090897001 -1.058848 2.3242691
0.096289001 -1.0565749 2.3221791
0.092772998 -1.05373 2.3209319
0.151609 -1.050467 2.323854
0.121598 -1.0485801 2.3241849
0.13309801 -1.045406 2.3221459
0.148893 -1.040491 2.3227119
0.12704501 -1.039891 2.322335
0.149533 -1.0239871 2.323725
0.15384901 -1.022669 2.3248
0.167308 -1.024158 2.323868
0.154541 -1.019562 2.32005
0.152474 -1.014691 2.324635
0.149702 -1.0062129 2.3239141
0.153629 -1.002708 2.324261
0.14962199 -0.991961 2.3200109
0.15979201 -0.99316102 2.3241711
0.14986999 -0.98843902 2.3241019
0.136764 -1.063743 2.3298199
0.107186 -1.0564131 2.325676
0.117454 -1.059024 2.3277841
0.126926 -1.0561705 2.325696
0.14297301 -1.056888 2.325036
0.140251 -1.04839 2.328686
0.131451 -1.043576 2.3272071
0.139937 -1.043923 2.328449
0.15086401 -1.044275 2.325541
0.143215 -1.038994 2.3252959
0.154331 -1.0346889 2.3266361
0.15987501 -1.0344959 2.327054
0.145919 -1.029453 2.327878
0.160666 -1.027069 2.3258319
0.143457 -1.021099 2.325556
0.161351 -1.021337 2.3252361
0.160161 -1.011487 2.32844
0.1436615 -1.0038869 2.3263669
0.151006 -1.004905 2.3271799
0.16159301 -1.003443 2.325496
0.152906 -0.99680197 2.3250251
0.142465 -0.98596001 2.3275485
0.14816201 -0.98714101 2.32956
0.15072399 -0.984828 2.3253491
0.12842999 -1.082862 2.334331
0.100143 -1.065948 2.3327651
0.120614 -1.06511 2.3329949
0.118454 -1.064845 2.3312931
0.14670999 -1.064853 2.3339441
0.116437 -1.059412 2.3345859
0.14889 -1.0560045 2.332813
0.130936 -1.050297 2.3308661
0.13573 -1.04539 2.330698
0.171379 -1.045146 2.3326061
0.166317 -1.0230581 2.3329289
0.15302999 -1.019339 2.332619
0.16568799 -1.018434 2.3324001
0.1653 -1.010565 2.3345611
0.17050099 -1.01104 2.330935
0.16428301 -1.009877 2.3316929
0.15121301 -1.001171 2.333358
0.164428 -0.99101198 2.3331001
0.170265 -1.076097 2.339638
0.188282 -1.076534 2.3396659
0.109267 -1.068668 2.3381269
0.11081 -1.065536 2.3393819
0.12915599 -1.065181 2.3379719
0.147212 -1.046445 2.3374341
0.16052601 -1.046222 2.338434
0.15353 -1.0448869 2.3372469
0.162185 -1.04479 2.3383501
0.166806 -1.032442 2.33898
0.186381 -1.031306 2.3399501
0.14692301 -1.028065 2.338304
0.167051 -1.0252711 2.33652
0.181315 -1.029115 2.3377409
0.17705999 -1.023723 2.3366649
0.159661 -1.0118001 2.3373511
0.16865399 -1.013239 2.3399949
0.146634 -1.009685 2.339175
0.164397 -1.007184 2.3386371
0.174135 -1.005718 2.33776
0.160239 -0.99354398 2.3357289
0.104633 -1.069308 2.3401899
0.12951 -1.068917 2.3428171
0.137228 -1.06766 2.3413391
0.13927799 -1.061659 2.34394
0.157254 -1.061103 2.342442
0.162085 -1.064303 2.3408921
0.180103 -1.0645421 2.340569
0.15454599 -1.058881 2.343328
0.1707 -1.058085 2.3400309
0.14767601 -1.054229 2.340693
0.164565 -1.052774 2.3431699
0.162329 -1.046284 2.3411541
0.180347 -1.046523 2.340832
0.17113601 -1.040072 2.3404241
0.169153 -1.037434 2.3413329
0.176425 -1.0377181 2.3404689
0.174197 -1.031525 2.3418441
0.180591 -1.028505 2.341094
0.16522101 -1.021654 2.3403871
0.171572 -1.02206 2.340817
0.166077 -1.01938 2.343143
0.16445 -1.014312 2.3410881
0.18083499 -1.010486 2.341356
0.18655001 -1.01341 2.3401389
0.1622785 -1.0028055 2.3442259
0.17200699 -1.004047 2.3412099
0.122257 -1.0837229 2.349129
0.119663 -1.070767 2.345865
0.129641 -1.0711401 2.3481801
0.138265 -1.06884 2.3462451
0.120243 -1.06195 2.34867
0.13686401 -1.062276 2.3471341
0.140947 -1.064307 2.3494811
0.177543 -1.062134 2.3498399
0.156368 -1.0512331 2.3460081
0.17405 -1.046387 2.3459749
0.18139701 -1.04854 2.348525
0.157333 -1.044116 2.3484221
0.17555 -1.042221 2.3466189
0.15532599 -1.0327491 2.3468921
0.170333 -1.032469 2.346781
0.154285 -1.014266 2.3477759
0.171891 -1.005627 2.3481059
0.104874 -1.081462 2.3533781
0.12456 -1.084498 2.3505399
0.102099 -1.073874 2.3503921
0.149488 -1.071986 2.353348
0.136841 -1.060541 2.351151
0.17443299 -1.063272 2.3545921
0.16717151 -1.053509 2.3514047
0.173134 -1.049417 2.3508761
0.18289 -1.048105 2.35201
0.173853 -1.044645 2.3529739
0.16682599 -1.035634 2.350508
0.177031 -1.036062 2.3500941
0.167382 -1.034606 2.353682
0.17851301 -1.030526 2.350939
0.185858 -1.034248 2.352263
0.18209 -1.023474 2.352576
0.167091 -1.016095 2.3545589
0.167392 -1.010937 2.3518701
0.175629 -1.012511 2.3533521
0.207752 -1.084329 2.3559401
0.144969 -1.072626 2.357619
0.149985 -1.072403 2.3565071
0.178771 -1.070781 2.358315
0.19004899 -1.065753 2.356308
0.20818999 -1.066192 2.3563349
0.17636901 -1.06268 2.357873
0.155237 -1.059515 2.3584819
0.187986 -1.056273 2.358958
0.190487 -1.0476151 2.356704
0.208629 -1.048054 2.3567309
0.18628401 -1.031253 2.356076
0.191497 -1.030046 2.35776
0.20589501 -1.0205671 2.356523
0.182703 -1.01394 2.3595779
0.136186 -1.095188 2.36204
0.14287999 -1.086803 2.361927
0.16354901 -1.087694 2.363759
0.161707 -1.069267 2.364507
0.180053 -1.067359 2.3626921
0.193711 -1.0621279 2.361393
0.170885 -1.059226 2.3619831
0.191423 -1.046664 2.364877
0.176246 -1.0385261 2.3623819
0.19503 -1.036346 2.3643651
0.209041 -1.035605 2.3618491
0.176368 -1.0305049 2.3641889
0.190705 -1.02798 2.3637209
0.17519701 -1.01991 2.3632729
0.14520299 -1.0896029 2.3655739
0.143163 -1.082762 2.368562
0.16409799 -1.075686 2.367558
0.16821299 -1.079438 2.3661361
0.17010701 -1.078869 2.3688991
0.135399 -1.072705 2.3672199
0.165564 -1.07432 2.366518
0.188813 -1.0728559 2.36763
0.17649201 -1.062766 2.369976
0.20531701 -1.056398 2.3684199
0.195811 -1.054309 2.3679211
0.18690699 -1.042779 2.3662529
0.191797 -1.0414751 2.3669231
0.200738 -1.039349 2.3660209
0.191727 -1.034048 2.3650961
0.1882365 -1.023735 2.3679113
0.19033501 -1.020368 2.368624
0.204418 -1.0214731 2.366708
0.135021 -1.093858 2.371716
0.16379 -1.089909 2.3748629
0.15414201 -1.0797499 2.3748591
0.17076001 -1.075961 2.37045
0.20110001 -1.079362 2.3730869
0.20134801 -1.0610909 2.373353
0.187419 -1.058658 2.370302
0.199526 -1.0537651 2.371191
0.193422 -1.046399 2.370815
0.20717999 -1.045742 2.3726699
0.20159499 -1.04282 2.3736191
0.192288 -1.036587 2.373651
0.190302 -1.0280859 2.3726511
0.18783499 -1.022578 2.3701191
0.19602799 -1.023903 2.3704641
0.173471 -1.09905 2.3794811
0.162174 -1.0841579 2.379359
0.17058 -1.084487 2.3758609
0.192506 -1.078756 2.3791671
0.205497 -1.077713 2.379997
0.17982499 -1.064281 2.378752
0.19807599 -1.058607 2.3798671
0.206818 -1.056893 2.3754139
0.19951349 -1.0525761 2.3776565
0.197475 -1.044405 2.378144
0.20389199 -1.03862 2.377862
0.153528 -1.0966851 2.3849571
0.142442 -1.092132 2.383683
0.189395 -1.092852 2.382885
0.188453 -1.08697 2.382163
0.182842 -1.08026 2.382329
0.188612 -1.068444 2.3826759
0.198064 -1.066082 2.3816819
0.207123 -1.0685771 2.381767
0.19654199 -1.064772 2.381671
0.207019 -1.058033 2.382827
0.22716799 -1.058885 2.3812661
0.20728099 -1.05005 2.3822801
0.212154 -1.050473 2.38044
0.20403101 -1.039641 2.383945
0.20744801 -1.035364 2.3848619
0.134794 -1.092965 2.387172
0.159538 -1.090921 2.386519
0.187117 -1.087358 2.387418
0.16489699 -1.083434 2.3869531
0.17527001 -1.082346 2.3853691
0.214075 -1.081381 2.3898311
0.24797 -1.0819041 2.3896821
0.19993401 -1.071166 2.3859949
0.190733 -1.067094 2.385612
0.221269 -1.068651 2.3897929
0.21263701 -1.062907 2.388355
0.218564 -1.064918 2.3887041
0.174196 -1.097859 2.391973
0.154037 -1.093067 2.3922131
0.19110399 -1.082155 2.3922219
0.20450599 -1.0835021 2.394798
0.20674101 -1.0762269 2.3935399
0.201226 -1.070367 2.394691
0.21900401 -1.050346 2.394079
0.212064 -1.044227 2.390429
0.2182205 -1.0432351 2.3939991
0.1823 -1.107018 2.399858
0.16026799 -1.101259 2.39569
0.187378 -1.100014 2.3962491
0.19677299 -1.097785 2.3952019
0.173538 -1.093165 2.397311
0.183447 -1.0903879 2.395303
0.208979 -1.0945899 2.3983729
0.213202 -1.083213 2.3988969
0.204119 -1.079385 2.3951671
0.221561 -1.0742 2.399287
0.22794101 -1.057407 2.3984909
0.21751399 -1.050769 2.395673
0.200381 -1.041999 2.3966861
0.193666 -1.112233 2.401274
0.17958499 -1.108037 2.403492
0.18104 -1.102631 2.4037161
0.20653 -1.096272 2.40134
0.173722 -1.092809 2.400687
0.186459 -1.093971 2.4018669
0.193368 -1.093318 2.4021699
0.137439 -1.088859 2.403589
0.212494 -1.083977 2.401623
0.23023599 -1.0847059 2.40029
0.23036399 -1.075689 2.4024611
0.21194901 -1.074038 2.4016149
0.23297501 -1.065487 2.4030781
0.211652 -1.055124 2.4025109
0.21839499 -1.055622 2.401149
0.22431999 -1.059348 2.404304
0.169076 -1.125339 2.40903
0.142957 -1.114336 2.409214
0.164939 -1.110635 2.4061041
0.16850799 -1.096915 2.4071331
0.188333 -1.099764 2.405256
0.22401799 -1.095582 2.409991
0.200819 -1.093683 2.405936
0.212423 -1.0922325 2.4083114
0.21873 -1.092437 2.408958
0.222699 -1.094629 2.4065881
0.241229 -1.094875 2.406256
0.23123001 -1.089049 2.406697
0.21414401 -1.081135 2.406461
0.24147999 -1.076345 2.4065261
0.26000899 -1.076591 2.406194
0.23167799 -1.0705251 2.4071009
0.223744 -1.068056 2.409682
0.22932 -1.067058 2.405951
0.238575 -1.067301 2.406976
0.22856399 -1.0605741 2.406291
0.24696501 -1.060751 2.40644
0.22320101 -1.057568 2.4071269
0.241731 -1.057814 2.406796
0.21871001 -1.053472 2.406137
0.182574 -1.110973 2.413604
0.19283 -1.111995 2.414676
0.16443101 -1.1076519 2.414289
0.20393699 -1.109848 2.4106939
0.150557 -1.099859 2.4123991
0.20672649 -1.0971406 2.4127378
0.22837 -1.099526 2.4148779
0.23221049 -1.0918385 2.4130421
0.234529 -1.0863554 2.4122529
0.235605 -1.082381 2.4146819
0.223501 -1.0761775 2.4108696
0.22390001 -1.065713 2.4115651
0.231289 -1.0678415 2.4143481
0.174622 -1.115216 2.419369
0.192775 -1.119315 2.417079
0.215064 -1.119574 2.417546
0.20101801 -1.11191 2.4180269
0.206504 -1.112754 2.417758
0.180911 -1.106452 2.4163561
0.219465 -1.108737 2.4151461
0.214764 -1.100521 2.4184489
0.198925 -1.097544 2.419265
0.239446 -1.091048 2.4185381
0.24052601 -1.090389 2.4178901
0.229967 -1.0835479 2.415386
0.2338585 -1.0822875 2.417624
0.229422 -1.076331 2.417244
0.23248151 -1.063154 2.4183605
0.189381 -1.128372 2.421242
0.19490001 -1.125277 2.420891
0.165902 -1.115352 2.4211099
0.232457 -1.1153851 2.4235301
0.251118 -1.115837 2.423559
0.204042 -1.112996 2.4231739
0.22589999 -1.1127321 2.421726
0.2229875 -1.1060331 2.4215589
0.214542 -1.104036 2.4206491
0.25736001 -1.083626 2.4229679
0.25202 -1.078523 2.424372
0.20890801 -1.123485 2.428622
0.214901 -1.115545 2.427635
0.211899 -1.1126831 2.4296639
0.241354 -1.112659 2.429909
0.243792 -1.0965919 2.426224
0.22888599 -1.0917521 2.428566
0.230472 -1.093412 2.4251189
0.24499001 -1.082852 2.4273801
0.24587201 -1.070822 2.4274681
0.195373 -1.133369 2.4340999
0.212938 -1.128839 2.432873
0.216822 -1.128782 2.4347041
0.189787 -1.1246361 2.4301591
0.20424899 -1.110559 2.431982
0.256028 -1.114032 2.4332449
0.23648 -1.107844 2.434998
0.257278 -1.095028 2.432241
0.251091 -1.091251 2.432065
0.25533599 -1.088279 2.4344361
0.26170099 -1.084638 2.431721
0.25740799 -1.079244 2.433979
0.181894 -1.133414 2.4365489
0.196316 -1.128374 2.4390759
0.160584 -1.119332 2.438735
0.238562 -1.108122 2.4364221
0.25606501 -1.106889 2.438709
0.25297099 -1.096823 2.43818
0.26710501 -1.0974211 2.4393129
0.26149601 -1.094056 2.4382679
0.215717 -1.141875 2.4431989
0.21683601 -1.134984 2.4425271
0.207495 -1.126968 2.4404969
0.216662 -1.128724 2.4446499
0.225693 -1.125931 2.4438
0.25765699 -1.12874 2.4446459
0.234428 -1.120518 2.440994
0.234954 -1.107893 2.4440551
0.249176 -1.109677 2.4446571
0.269481 -1.100823 2.4438579
0.25106299 -1.097103 2.4447429
0.26804799 -1.09855 2.441946
0.26252699 -1.090924 2.441848
0.250828 -1.085811 2.4408889
0.26978701 -1.087184 2.4444511
0.216821 -1.136427 2.4456289
0.234097 -1.136946 2.4498401
0.231001 -1.130144 2.445282
0.23905499 -1.13231 2.4486489
0.219081 -1.129975 2.447221
0.25639099 -1.121896 2.447979
0.253313 -1.118014 2.4494331
0.25062501 -1.1144381 2.447618
0.254421 -1.1097471 2.4465499
0.26049599 -1.097715 2.4460731
0.27252901 -1.0990829 2.4490261
0.251185 -1.090755 2.4484539
0.238625 -1.136636 2.4511139
0.239512 -1.134953 2.4522879
0.23728099 -1.129066 2.450269
0.230915 -1.121649 2.4505141
0.25292599 -1.12235 2.450702
0.23425999 -1.117878 2.4503679
0.258508 -1.115244 2.451721
0.27038601 -1.1192859 2.4528379
0.27315 -1.114779 2.4543481
0.26804399 -1.105886 2.450032
0.18237799 -1.135995 2.457988
0.241769 -1.133902 2.459902
0.241391 -1.126047 2.458807
0.25821701 -1.1294349 2.456023
0.27869099 -1.1233079 2.455101
0.27294901 -1.115822 2.455478
0.25776201 -1.111655 2.456712
0.274205 -1.113355 2.4592681
0.28492999 -1.0998009 2.4584241
0.312989 -1.1648099 2.4637311
0.246144 -1.158631 2.4649379
0.26488501 -1.1550339 2.4609039
0.229316 -1.150395 2.4637229
0.25149 -1.146233 2.4648161
0.25342801 -1.136911 2.4622121
0.260959 -1.139509 2.4612911
0.243512 -1.13086 2.4643469
0.25113899 -1.130555 2.4616699
0.23715401 -1.125739 2.4640989
0.253218 -1.123796 2.460567
0.25631699 -1.123746 2.4622021
0.26724899 -1.123915 2.4630301
0.256836 -1.119804 2.463176
0.27173799 -1.116291 2.4615819
0.27710599 -1.113167 2.4607079
0.27268699 -1.1062911 2.464817
0.27355599 -1.102504 2.4610879
0.25557199 -1.145187 2.4670889
0.261731 -1.14262 2.469285
0.28199202 -1.1433611 2.4676304
0.26351699 -1.130218 2.468987
0.269997 -1.129517 2.4651711
0.28086799 -1.122763 2.468714
0.28091601 -1.115478 2.469573
0.288589 -1.116677 2.469372
0.28024101 -1.1071351 2.469779
0.22240999 -1.151593 2.472904
0.2460465 -1.143083 2.4710565
0.26431799 -1.1297669 2.4723511
0.29431701 -1.127777 2.4739561
0.28782201 -1.158826 2.4752901
0.26165399 -1.150795 2.4799421
0.266736 -1.1450731 2.4775541
0.28096101 -1.148787 2.4780321
0.30026701 -1.1467789 2.4761209
0.275985 -1.142123 2.478148
0.295748 -1.142609 2.477838
0.23061 -1.137499 2.4750359
0.284538 -1.139547 2.4772229
0.267795 -1.126507 2.476537
0.27902201 -1.129395 2.4788189
0.28686699 -1.12676 2.4761961
0.29832801 -1.127386 2.4769089
0.30593899 -1.127013 2.4758551
0.29464301 -1.12301 2.478775
0.29530799 -1.121856 2.4773309
0.26569501 -1.155266 2.484483
0.22304 -1.154811 2.483763
0.2435845 -1.1533949 2.4825358
0.29045099 -1.153008 2.483829
0.28076199 -1.132249 2.480531
0.296592 -1.1343 2.4837389
0.29884899 -1.128206 2.4811809
0.30197001 -1.122932 2.4809821
0.26500401 -1.170414 2.4871271
0.272138 -1.146153 2.4882841
0.28938001 -1.14683 2.486573
0.29027501 -1.1479549 2.4869621
0.27752101 -1.134165 2.485055
0.28759599 -1.133546 2.4861081
