# .PCD v0.7 - Point Cloud Data file format
VERSION 0.7
FIELDS x y z
SIZE 4 4 4
TYPE F F F
COUNT 1 1 1
WIDTH 134
HEIGHT 1
VIEWPOINT 0 0 0 1 0 0 0
POINTS 134
DATA ascii
-1.708068 0.38557801 0.29458001
-1.7170565 0.40876698 0.29166752
-1.722006 0.40887299 0.29786
-1.7211519 0.39786899 0.303902
-1.694291 0.378858 0.30824101
-1.698215 0.383026 0.308835
-1.733525 0.400942 0.30575699
-1.693635 0.37700599 0.314044
-1.6944031 0.38479 0.311441
-1.712479 0.39409399 0.31459299
-1.709534 0.39922601 0.31117699
-1.704633 0.39944401 0.31327999
-1.709641 0.37333101 0.31812701
-1.6918451 0.37920299 0.317729
-1.671515 0.37530601 0.31854299
-1.715888 0.41263899 0.31698501
-1.738848 0.371445 0.320999
-1.703288 0.371382 0.32088301
-1.7192225 0.39403552 0.32103649
-1.696908 0.39251199 0.32284099
-1.706818 0.40391701 0.32075799
-1.686342 0.36924201 0.32992801
-1.695369 0.370976 0.32926899
-1.689582 0.388118 0.328484
-1.6899641 0.396175 0.32573
-1.753999 0.365089 0.33393601
-1.706826 0.37181801 0.33059201
-1.693983 0.371997 0.33402801
-1.683015 0.37421501 0.33307901
-1.661265 0.37187999 0.330345
-1.705814 0.38308299 0.33455801
-1.70472 0.38507199 0.33233401
-1.6663769 0.388439 0.33222899
-1.672927 0.39781201 0.33495
-1.701975 0.37497401 0.33566499
-1.699253 0.37075099 0.33834901
-1.710804 0.37608501 0.339706
-1.709157 0.37917 0.33810601
-1.69978 0.37961099 0.33936599
-1.67958 0.37506801 0.33570099
-1.669708 0.37606999 0.33968899
-1.685629 0.38437799 0.33631799
-1.713882 0.398285 0.339001
-1.708416 0.39681199 0.336813
-1.676174 0.36579999 0.341095
-1.695672 0.37144101 0.34199399
-1.6909159 0.37223801 0.34307301
-1.7159005 0.37849098 0.3441565
-1.690962 0.38227999 0.34345499
-1.681204 0.382375 0.34361401
-1.656366 0.38443601 0.34424201
-1.703114 0.38765201 0.344006
-1.689129 0.39416 0.341286
-1.6855299 0.39923099 0.342924
-1.66828 0.39622301 0.34163001
-1.7070169 0.369261 0.34659201
-1.691304 0.37402001 0.345429
-1.749283 0.38063899 0.34709999
-1.68058 0.384197 0.34714401
-1.686861 0.387124 0.345961
-1.700691 0.39023101 0.34871301
-1.684485 0.39322701 0.345171
-1.699798 0.39681399 0.34654
-1.680068 0.396065 0.34549499
-1.7032831 0.35733348 0.35277349
-1.691082 0.35971901 0.351845
-1.73922 0.363307 0.35363001
-1.725855 0.36888799 0.352595
-1.7231179 0.36628401 0.35011101
-1.724166 0.37319401 0.351385
-1.688063 0.37092599 0.35243401
-1.696817 0.380734 0.35241401
-1.7168961 0.387234 0.352254
-1.706987 0.391967 0.35303199
-1.695924 0.39078799 0.353811
-1.7044851 0.39525601 0.35062599
-1.681842 0.39513701 0.350595
-1.6907279 0.35692301 0.35685501
-1.700078 0.36111301 0.357218
-1.6898431 0.36244601 0.35982299
-1.7016909 0.366402 0.3568745
-1.730846 0.371876 0.357068
-1.7330306 0.38396201 0.35720348
-1.7034305 0.381199 0.3583065
-1.692512 0.381717 0.35599801
-1.6872801 0.38505399 0.35976699
-1.7116699 0.39424151 0.3572385
-1.697782 0.39055899 0.35827199
-1.686555 0.393583 0.35764101
-1.686357 0.35075301 0.364824
-1.692963 0.36009699 0.36215699
-1.7200691 0.365437 0.36090899
-1.703891 0.36638001 0.360057
-1.691985 0.368606 0.36090401
-1.679907 0.36779401 0.364034
-1.640166 0.37636799 0.36300901
-1.71178 0.38551101 0.36212799
-1.716911 0.39150801 0.36091599
-1.71506 0.35578001 0.369268
-1.7197191 0.361835 0.36768001
-1.700965 0.368628 0.36596301
-1.6995 0.371663 0.366864
-1.722037 0.38477001 0.36592099
-1.699945 0.38258001 0.36519799
-1.7021379 0.38846999 0.36655599
-1.690892 0.38944501 0.36868399
-1.7318031 0.39366201 0.36971101
-1.694382 0.39071599 0.36647999
-1.702234 0.34717399 0.37103301
-1.702553 0.35174501 0.372825
-1.7086149 0.35506201 0.370424
-1.69584 0.36943501 0.37051901
-1.726987 0.378768 0.37283099
-1.7001311 0.37706399 0.374235
-1.694934 0.37554401 0.37
-1.7276371 0.38023299 0.370444
-1.701292 0.38045999 0.37364399
-1.7263941 0.387218 0.37009001
-1.710619 0.38725299 0.37175
-1.748008 0.39066601 0.37325299
-1.734553 0.39355001 0.37439299
-1.7049789 0.35662499 0.37938699
-1.692956 0.355104 0.37812799
-1.694622 0.36177599 0.37533399
-1.718807 0.37491301 0.37641799
-1.6889679 0.37105301 0.37639299
-1.7155761 0.355829 0.38340601
-1.699116 0.35731301 0.38485
-1.715959 0.37251899 0.38185799
-1.705718 0.38338199 0.380068
-1.750755 0.38989699 0.38072899
-1.714676 0.37510401 0.38517001
-1.714993 0.35373399 0.39105901
-1.688611 0.366247 0.39211401
