# .PCD v0.7 - Point Cloud Data file format
VERSION 0.7
FIELDS x y z
SIZE 4 4 4
TYPE F F F
COUNT 1 1 1
WIDTH 547
HEIGHT 1
VIEWPOINT 0 0 0 1 0 0 0
POINTS 547
DATA ascii
-1.946309 0.51699901 -0.38496301
-1.952232 0.48793599 -0.37801901
-1.851311 0.60065103 -0.37992001
-1.943646 0.44804901 -0.37297601
-1.957996 0.46259701 -0.37326601
-1.93036 0.48046499 -0.37274799
-1.944297 0.50539798 -0.37180299
-1.839849 0.63094199 -0.37394401
-1.924466 0.46542999 -0.36973
-1.94549 0.47421899 -0.36679301
-1.934193 0.482465 -0.36586601
-1.938729 0.490527 -0.36884999
-1.960083 0.49934599 -0.36626399
-1.8713109 0.60260898 -0.36617401
-1.940194 0.455706 -0.362977
-1.954222 0.478526 -0.36166599
-1.934599 0.48819301 -0.361141
-1.9491349 0.50775802 -0.364957
-1.884452 0.62636298 -0.364786
-1.9238811 0.426898 -0.35775501
-1.933323 0.44311401 -0.35681599
-1.940675 0.46022999 -0.35581401
-1.964306 0.468045 -0.35602799
-1.9476 0.46800601 -0.356628
-1.9533401 0.47609299 -0.35582301
-1.829852 0.61826098 -0.355158
-1.9797699 0.44838899 -0.35432801
-1.95419 0.47193199 -0.35405201
-1.933836 0.50394499 -0.35141301
-1.939667 0.51855397 -0.35434401
-1.924576 0.51777399 -0.35122201
-1.875474 0.579184 -0.350097
-1.946279 0.42034999 -0.34861201
-1.968423 0.437264 -0.34593901
-1.95146 0.436584 -0.345135
-1.9176379 0.439197 -0.34838301
-1.95744 0.44495201 -0.34681901
-1.931254 0.46337599 -0.347269
-1.9450949 0.48796099 -0.346129
-1.9326791 0.49381301 -0.34889799
-1.837348 0.561041 -0.34772
-1.8642009 0.56511998 -0.34925899
-1.91633 0.40866399 -0.34112799
-1.923093 0.41000801 -0.34040299
-1.965651 0.41598299 -0.34103599
-1.950189 0.41525301 -0.340296
-1.910663 0.423628 -0.34465501
-1.944418 0.44101101 -0.34309301
-1.92453 0.44791999 -0.343546
-1.9658951 0.461418 -0.344845
-1.958396 0.46355501 -0.34166199
-1.93862 0.47262001 -0.34240401
-1.972569 0.48643801 -0.34018001
-1.930631 0.488947 -0.34461501
-1.952624 0.490125 -0.34453899
-1.931604 0.50047398 -0.34383801
-1.944433 0.51329798 -0.34345701
-1.8065 0.60802102 -0.34481299
-1.916678 0.399106 -0.336081
-1.936641 0.43373999 -0.33923101
-1.923103 0.43708801 -0.33932799
-1.978184 0.459896 -0.33733699
-1.950417 0.45787299 -0.33803901
-1.99624 0.472027 -0.33847401
-1.937703 0.47240999 -0.33865201
-1.958984 0.48169401 -0.338898
-1.950323 0.48450699 -0.336914
-1.948684 0.48958901 -0.33838099
-1.9350359 0.53171098 -0.33688501
-1.857205 0.55656397 -0.339955
-1.930158 0.59576702 -0.33559299
-1.852119 0.59600198 -0.33909601
-1.826524 0.60350698 -0.33698201
-1.926911 0.612737 -0.33880901
-1.941938 0.40459701 -0.33132699
-1.934671 0.40264601 -0.33063599
-1.923659 0.409872 -0.331916
-1.985023 0.41161701 -0.33346099
-1.9293489 0.41761699 -0.334786
-1.93004 0.42174101 -0.334784
-1.955644 0.42828399 -0.33007899
-1.892802 0.42798501 -0.33492401
-1.969597 0.430053 -0.33345401
-1.942475 0.43272099 -0.33175299
-1.9435135 0.44331151 -0.33354652
-1.957626 0.466506 -0.33236599
-1.934846 0.501517 -0.332533
-1.93108 0.50541198 -0.331772
-1.924881 0.50945699 -0.33098099
-1.928943 0.51736403 -0.333976
-1.943337 0.54311299 -0.33274901
-1.877063 0.55208802 -0.33219001
-1.863085 0.55535102 -0.330479
-1.936399 0.56618702 -0.33032301
-1.862916 0.57615602 -0.33250099
-1.875754 0.59930497 -0.33083701
-1.892287 0.37623599 -0.326112
-1.921525 0.38314 -0.32670301
-1.9340791 0.38781601 -0.32616699
-1.915648 0.40827101 -0.32937801
-1.9695801 0.45236999 -0.32881001
-1.963147 0.45079601 -0.32895699
-1.952824 0.45833099 -0.32952699
-1.933769 0.48592299 -0.32511699
-1.951025 0.50172502 -0.32741299
-1.940504 0.50100499 -0.32881799
-1.954528 0.52611399 -0.32749799
-1.940534 0.52597898 -0.326175
-1.942537 0.53709799 -0.325142
-1.815655 0.587641 -0.32946801
-1.89729 0.383194 -0.32038799
-1.960784 0.399185 -0.32225099
-1.954308 0.40112299 -0.32092801
-1.948034 0.41160601 -0.32491699
-1.974646 0.42282701 -0.32092699
-1.9111429 0.421967 -0.324431
-1.962219 0.43579701 -0.32363999
-1.976598 0.47140399 -0.320346
-1.945865 0.470808 -0.32087401
-1.934732 0.48459101 -0.32148999
-1.970971 0.49803701 -0.32305399
-1.91573 0.55502701 -0.32230401
-1.8533061 0.56924498 -0.32267401
-1.910555 0.57266301 -0.32308701
-1.9736381 0.397549 -0.31670401
-1.9812191 0.423987 -0.31660199
-1.968109 0.42298001 -0.31931099
-1.963782 0.44392601 -0.31666899
-1.997139 0.45973101 -0.31936201
-1.9407049 0.45684701 -0.316477
-1.9963861 0.46774501 -0.316021
-1.978325 0.46882501 -0.316131
-1.952775 0.47981 -0.315079
-1.946456 0.49708301 -0.319776
-1.929525 0.51516598 -0.31540301
-1.8281569 0.54704899 -0.319314
-1.9384021 0.55664802 -0.31516001
-1.855935 0.57904798 -0.31639501
-1.931465 0.596201 -0.31836101
-1.919804 0.38451001 -0.31448001
-1.979629 0.39377299 -0.31317499
-1.986637 0.39659801 -0.310408
-1.933117 0.40687001 -0.31305301
-1.938671 0.44509199 -0.31489399
-1.960356 0.45265499 -0.31009901
-1.952289 0.46866801 -0.31349
-1.954164 0.489407 -0.31098101
-1.911948 0.50099701 -0.31075799
-1.949427 0.51332402 -0.31028599
-1.929482 0.517012 -0.31464499
-1.920224 0.52295297 -0.313539
-1.868048 0.53967398 -0.31059599
-1.943979 0.540649 -0.314426
-1.957788 0.564358 -0.31116799
-1.849427 0.56233901 -0.31411499
-1.816699 0.561445 -0.31456801
-1.861473 0.56704301 -0.31321499
-1.9333529 0.57867301 -0.312731
-1.886598 0.58996499 -0.31349
-1.829549 0.586402 -0.31315801
-1.925783 0.36945799 -0.30771801
-1.9234329 0.39312601 -0.306503
-1.952456 0.40274501 -0.30677599
-1.967436 0.41296199 -0.30559
-1.944434 0.417532 -0.308714
-1.937783 0.41681501 -0.30512601
-1.971781 0.47369599 -0.30504099
-1.9339401 0.48398 -0.30566299
-1.928918 0.49922699 -0.30783001
-1.969373 0.50963598 -0.30592701
-1.94322 0.524616 -0.30641401
-1.936635 0.53865999 -0.30889401
-1.919631 0.56064498 -0.30800599
-1.881578 0.563326 -0.30882201
-1.876075 0.57475197 -0.30985901
-1.9141279 0.57640499 -0.30778399
-1.849407 0.58192599 -0.30539301
-1.906623 0.58545101 -0.30566001
-1.933818 0.386392 -0.30447999
-2.005852 0.39226699 -0.302894
-1.9720891 0.40879101 -0.30010599
-1.947824 0.40993199 -0.30344599
-2.0126519 0.41191301 -0.302623
-2.0199621 0.415254 -0.301451
-1.994588 0.415108 -0.30112299
-2.041008 0.43427899 -0.30478099
-1.966547 0.43430901 -0.30258399
-1.970132 0.435653 -0.30390501
-1.991295 0.48299599 -0.300239
-1.975013 0.482912 -0.303354
-1.941312 0.48374301 -0.303709
-1.924608 0.491409 -0.30489799
-1.93176 0.49677101 -0.30432799
-1.948341 0.50899202 -0.304638
-1.942589 0.50965899 -0.30263799
-1.939371 0.51657999 -0.30349699
-1.911996 0.53264499 -0.30350301
-1.939844 0.58387703 -0.30044699
-2.0250671 0.387936 -0.29538
-1.947879 0.39482599 -0.29952601
-1.975152 0.40649399 -0.296294
-2.024008 0.41046 -0.298412
-1.930216 0.41876 -0.29629999
-1.985597 0.42124999 -0.29891801
-2.0342481 0.43858501 -0.299936
-1.99966 0.44427001 -0.297344
-1.976254 0.44292599 -0.29654601
-2.000169 0.45295599 -0.296505
-1.946615 0.45393699 -0.29603499
-1.938333 0.453354 -0.296132
-1.991351 0.45986301 -0.29821399
-1.92897 0.46043301 -0.29644701
-1.937757 0.46892899 -0.29945499
-1.9948 0.47925299 -0.29903001
-1.972459 0.48281899 -0.299198
-1.947924 0.49311301 -0.29779199
-1.962391 0.51845002 -0.296289
-1.927884 0.528611 -0.297519
-1.856084 0.55256701 -0.29916599
-1.933466 0.57018399 -0.297571
-1.926648 0.58093703 -0.297829
-2.0107491 0.40164301 -0.291657
-1.985418 0.40648699 -0.29401001
-1.982864 0.408869 -0.293686
-1.949555 0.414635 -0.29002401
-1.940661 0.42980301 -0.29199201
-2.000056 0.43086499 -0.29330701
-1.97119 0.43463799 -0.29384899
-1.99518 0.452086 -0.290629
-2.0145881 0.47559401 -0.294705
-1.952595 0.47785899 -0.29499099
-1.943591 0.485091 -0.29494199
-1.947829 0.52492303 -0.29315999
-1.872902 0.52421999 -0.290995
-1.932735 0.551341 -0.29161301
-1.960446 0.380808 -0.28709
-1.955299 0.38812 -0.28540599
-2.042145 0.40393001 -0.286731
-1.942637 0.42323601 -0.28674999
-1.961671 0.426716 -0.288948
-1.933244 0.42997 -0.28812501
-1.976104 0.451269 -0.28820199
-1.977061 0.46054399 -0.286699
-1.96693 0.48699999 -0.287754
-1.9734271 0.49441901 -0.28636301
-1.9367599 0.49667799 -0.286544
-1.928789 0.50895202 -0.287166
-1.943019 0.522641 -0.28750801
-1.938722 0.52223498 -0.285501
-1.8926899 0.52056098 -0.28667
-1.934714 0.53007603 -0.286055
-1.938327 0.53803498 -0.288977
-1.907405 0.54569 -0.286192
-1.886395 0.54758602 -0.28911
-1.946672 0.57642299 -0.28999799
-1.96233 0.37348899 -0.283052
-1.923211 0.37665901 -0.28151101
-1.975997 0.394811 -0.28118399
-1.94315 0.407796 -0.282673
-2.018193 0.42433399 -0.28162599
-1.9310631 0.469834 -0.28117701
-1.93481 0.48100999 -0.28243199
-1.993215 0.49076101 -0.28203899
-1.985974 0.496645 -0.28310901
-1.950647 0.52154499 -0.284888
-1.8963929 0.52448702 -0.280269
-1.9188811 0.54246402 -0.28114301
-1.90634 0.54389799 -0.284751
-1.9496599 0.55578399 -0.28444999
-1.920177 0.56758398 -0.28277001
-1.984938 0.38290501 -0.279953
-1.946862 0.393617 -0.277518
-1.99377 0.39818099 -0.27576199
-2.0212941 0.400206 -0.278658
-1.937439 0.40001199 -0.279937
-1.988234 0.40638399 -0.27747101
-1.989869 0.41645801 -0.27928299
-1.970675 0.41921401 -0.27941301
-2.003947 0.43843499 -0.27734199
-1.994241 0.444738 -0.276521
-1.984621 0.443023 -0.27773201
-1.936888 0.44207299 -0.27526999
-1.940762 0.45353699 -0.27779901
-1.971444 0.45611599 -0.27940601
-2.018229 0.46074399 -0.27535599
-2.0090499 0.46964401 -0.27563301
-1.9421 0.466764 -0.27901399
-1.985935 0.48088601 -0.27771601
-2.0130019 0.487102 -0.27771401
-1.955923 0.491175 -0.27731499
-1.947319 0.491391 -0.27800801
-1.938974 0.49847099 -0.27765
-1.969973 0.51599598 -0.275581
-1.961836 0.51646799 -0.27674299
-1.913044 0.51511598 -0.27860799
-1.953861 0.52370399 -0.27601299
-1.906005 0.52535802 -0.276434
-1.957497 0.53186798 -0.27885199
-1.946231 0.53652197 -0.27603301
-1.92673 0.54013997 -0.276885
-1.910911 0.54994398 -0.27865499
-1.976776 0.55326998 -0.27717599
-1.940282 0.56386697 -0.27837601
-1.933243 0.56818497 -0.27986801
-1.913335 0.57854098 -0.27934
-1.947727 0.37832299 -0.27455699
-2.0075729 0.40225801 -0.27119401
-1.947353 0.43734601 -0.27160901
-1.928705 0.443124 -0.27112401
-2.0163641 0.45216 -0.27394301
-1.989904 0.46561801 -0.273646
-1.950435 0.46546701 -0.27360201
-2.0308211 0.47563899 -0.27217799
-2.0327899 0.48344401 -0.27339
-1.962079 0.50030297 -0.27046701
-1.952053 0.50958598 -0.27369601
-1.925817 0.52113199 -0.270004
-1.937698 0.53628999 -0.27037799
-1.984249 0.541233 -0.27380499
-1.933434 0.55145401 -0.27153999
-1.960387 0.56014901 -0.273983
-1.965049 0.38765001 -0.267113
-1.955278 0.409513 -0.26890501
-2.0123539 0.439996 -0.26773399
-1.9854341 0.441641 -0.26683199
-2.036015 0.44796801 -0.26756501
-1.97975 0.44521999 -0.265145
-1.969807 0.46110001 -0.26602599
-1.961103 0.46130699 -0.269862
-2.0005369 0.46613801 -0.26507401
-1.9432141 0.467435 -0.26943001
-1.974113 0.472626 -0.269676
-1.975086 0.485672 -0.26808599
-1.957956 0.492154 -0.267694
-1.988225 0.496272 -0.267876
-1.991629 0.50226802 -0.26504701
-1.971841 0.50592703 -0.26937199
-1.980652 0.51029402 -0.26597899
-1.976668 0.525702 -0.268727
-1.946056 0.53459001 -0.26757699
-1.934855 0.53481102 -0.268363
-1.948693 0.55954498 -0.26656699
-1.952224 0.56195801 -0.26900899
-1.959918 0.36444199 -0.26225901
-1.980209 0.39587501 -0.26309901
-1.941718 0.40680999 -0.26096001
-2.01752 0.41247699 -0.26193601
-1.994553 0.41973299 -0.261318
-1.985333 0.418273 -0.260719
-2.012378 0.438207 -0.26484099
-1.947368 0.43691301 -0.261336
-1.980106 0.45585001 -0.26071
-1.993765 0.46843401 -0.263298
-1.937838 0.46552199 -0.260912
-1.927259 0.482205 -0.26431799
-2.0159571 0.49109101 -0.26332799
-1.981084 0.49419001 -0.26042801
-2.0114169 0.49860999 -0.26072299
-1.940784 0.50608498 -0.26249799
-1.945629 0.51690602 -0.263574
-1.954548 0.53037101 -0.26066199
-1.9526041 0.54528701 -0.261415
-1.983236 0.38168201 -0.256708
-2.031096 0.385759 -0.256185
-1.943037 0.391186 -0.25784299
-1.9892319 0.411336 -0.25876001
-1.9569499 0.41480601 -0.25603199
-2.0091331 0.443993 -0.2595
-1.989179 0.45673299 -0.25845101
-1.9620349 0.461171 -0.25955799
-2.023947 0.46865901 -0.25763899
-1.984628 0.47914901 -0.25666299
-1.946631 0.47783801 -0.25674301
-1.976939 0.485836 -0.25773799
-1.951514 0.48890001 -0.259031
-2.031204 0.49495101 -0.25639799
-1.999468 0.50411999 -0.25521401
-1.992154 0.51095903 -0.25592801
-1.9504679 0.52109301 -0.25670499
-1.956514 0.53011602 -0.25961301
-1.949204 0.53719997 -0.258571
-1.979619 0.554389 -0.25634599
-1.922139 0.55318499 -0.259574
-1.96855 0.55506903 -0.258802
-1.992959 0.381533 -0.25081801
-1.9987381 0.38991499 -0.253313
-2.013238 0.41372299 -0.25144899
-1.985043 0.426523 -0.253456
-1.9183871 0.42596999 -0.25480801
-1.999109 0.45039299 -0.25155801
-2.0330679 0.46004999 -0.25054201
-1.985478 0.463245 -0.25231299
-2.035104 0.48471799 -0.253286
-1.915421 0.48166499 -0.25035301
-1.970534 0.49860701 -0.25092101
-1.9533401 0.50553399 -0.25040099
-1.970255 0.51743501 -0.252381
-1.922846 0.53331202 -0.25284201
-1.9717751 0.53912097 -0.25128999
-1.964578 0.54443401 -0.25454801
-1.941465 0.54763502 -0.25026599
-1.9285409 0.56487203 -0.25410399
-1.988591 0.44856501 -0.247549
-2.0065629 0.45208099 -0.248055
-1.9660029 0.47347099 -0.249167
-2.0214789 0.47705099 -0.24691799
-1.990817 0.48051599 -0.24627499
-2.011301 0.50458598 -0.245886
-2.0188529 0.37693101 -0.24379601
-2.00508 0.37514901 -0.24163599
-1.953228 0.39248201 -0.240582
-1.9846931 0.42449099 -0.241759
-2.0279219 0.44800001 -0.24330001
-1.985374 0.46910399 -0.241592
-1.975592 0.46867701 -0.243688
-1.997318 0.49763301 -0.241769
-2.005065 0.50422603 -0.244284
-1.976233 0.50749302 -0.243141
-2.009831 0.51011699 -0.24373201
-1.886665 0.52564001 -0.244119
-1.951192 0.54376501 -0.242483
-1.900062 0.54971898 -0.24211
-1.9430341 0.55972099 -0.24178
-1.940815 0.39065599 -0.235599
-1.987916 0.40352601 -0.239712
-1.95222 0.42777601 -0.239178
-1.990759 0.44135001 -0.23600601
-1.999678 0.448643 -0.239815
-2.0219381 0.46690801 -0.235319
-2.010469 0.47632399 -0.239897
-1.980669 0.47643599 -0.235172
-1.968218 0.49678999 -0.23563001
-2.024878 0.5 -0.237854
-1.956479 0.51415497 -0.237864
-1.987497 0.52445501 -0.23848601
-1.96867 0.52894199 -0.23538899
-1.970374 0.538508 -0.23582301
-2.0029039 0.55011398 -0.236467
-1.962979 0.55603302 -0.23742101
-1.988458 0.39457801 -0.233959
-1.996087 0.41405901 -0.230534
-1.954762 0.41403499 -0.233998
-2.003356 0.41827899 -0.231971
-2.0084691 0.42680201 -0.23445299
-2.004746 0.46473801 -0.234017
-1.9945951 0.46322 -0.23453601
-1.9833601 0.46198201 -0.23071
-2.0088601 0.48760101 -0.232462
-1.962199 0.48584199 -0.232309
-1.995239 0.50137901 -0.23310301
-1.974244 0.50225598 -0.233364
-2.02336 0.51239198 -0.23034699
-1.965981 0.51154202 -0.23375501
-1.955422 0.51233399 -0.23337001
-1.948723 0.51891398 -0.233109
-2.0101149 0.52678698 -0.23104
-1.988458 0.52528399 -0.23106501
-1.980117 0.53653598 -0.23165099
-1.970009 0.53759199 -0.231719
-1.963694 0.54432303 -0.231086
-1.982924 0.55234599 -0.233062
-1.966882 0.55253899 -0.233853
-1.958851 0.384738 -0.22528
-2.013597 0.45776299 -0.225384
-1.999513 0.47037399 -0.225219
-1.925568 0.47888499 -0.225104
-1.971077 0.48150399 -0.226666
-2.015614 0.491045 -0.229986
-1.971382 0.52079701 -0.22585399
-1.9396859 0.54126698 -0.22925
-2.025218 0.55261803 -0.22891501
-2.004086 0.43480101 -0.220924
-1.987285 0.43179101 -0.22187801
-2.028023 0.48209801 -0.223233
-1.98157 0.481475 -0.224733
-2.010287 0.48658001 -0.220533
-1.985144 0.50603902 -0.224526
-1.974077 0.50621301 -0.222698
-1.988825 0.53141803 -0.220954
-1.9033689 0.53353 -0.220718
-1.967362 0.399672 -0.215048
-2.0188861 0.45942399 -0.219588
-2.0128901 0.46087301 -0.21871901
-2.0339091 0.48445699 -0.21820401
-2.0166619 0.48043999 -0.218336
-1.958395 0.49821299 -0.21545
-1.965271 0.50887102 -0.21860699
-1.966507 0.55108398 -0.218685
-2.005625 0.42577299 -0.211386
-1.998817 0.43143401 -0.21496999
-2.006201 0.44928899 -0.21177
-2.013921 0.45564499 -0.212798
-1.978129 0.47539899 -0.213871
-1.915714 0.47820899 -0.212539
-1.992731 0.50009203 -0.212025
-1.986688 0.50627798 -0.21319699
-1.972175 0.52222502 -0.213229
-2.007642 0.525244 -0.210189
-2.0019879 0.531578 -0.21100201
-1.955673 0.37687701 -0.208664
-1.969659 0.400372 -0.20723601
-1.9947031 0.48356399 -0.208079
-1.980592 0.51897401 -0.207361
-1.966531 0.5341 -0.20856699
-1.9948519 0.54403102 -0.205033
-1.944103 0.34628499 -0.20229501
-1.966103 0.39371499 -0.20242
-1.98455 0.42882499 -0.202751
-1.9835041 0.54506701 -0.203824
-1.962958 0.41218501 -0.198442
-2.0093441 0.46891201 -0.19565301
-2.0135469 0.477503 -0.198126
-1.953925 0.337816 -0.19191401
-1.967883 0.38390401 -0.191843
-1.934875 0.387748 -0.19437601
-2.000438 0.43907699 -0.19468901
-1.960225 0.48249301 -0.193354
-2.0023201 0.53889298 -0.193059
-1.939724 0.53722697 -0.19093899
-2.00418 0.409325 -0.18622699
-1.97982 0.44179499 -0.18589699
-1.9657969 0.45487201 -0.188224
-1.95373 0.360809 -0.18278199
-2.0093031 0.453861 -0.184662
-1.984858 0.45057601 -0.18076999
-1.9507869 0.522955 -0.181733
-1.943169 0.33099601 -0.17799801
-1.948318 0.35218599 -0.176009
-1.963514 0.39631599 -0.175372
-1.9952511 0.45238101 -0.177992
-1.956452 0.494764 -0.176631
-1.920593 0.349536 -0.17204399
-1.977093 0.419375 -0.17290799
-1.993462 0.427553 -0.173675
-1.931765 0.34813899 -0.166942
-1.9695899 0.44831401 -0.168851
-1.892074 0.33986899 -0.15904699
-1.915615 0.36230201 -0.156023
-1.972051 0.41587299 -0.157544
-1.918838 0.34518 -0.15423
-1.929056 0.36440799 -0.15247899
-1.956342 0.41079301 -0.1487
-1.912976 0.36162499 -0.13966499
-1.923528 0.377597 -0.136521
-1.911196 0.370482 -0.123366
-1.924403 0.39317101 -0.120528
-1.92326 0.38205901 -0.113911
