# .PCD v0.7 - Point Cloud Data file format
VERSION 0.7
FIELDS x y z
SIZE 4 4 4
TYPE F F F
COUNT 1 1 1
WIDTH 351
HEIGHT 1
VIEWPOINT 0 0 0 1 0 0 0
POINTS 351
DATA ascii
-1.9062949 0.610524 0.010683
-1.898079 0.61740798 0.019966001
-1.895793 0.60595697 0.024766
-1.899807 0.61636698 0.023417
-1.913525 0.67405599 0.020517001
-1.927629 0.70096201 0.023995001
-1.935167 0.71361399 0.020011
-1.915846 0.66448599 0.0277
-1.9076281 0.665106 0.032481998
-1.879575 0.59729999 0.038688
-1.8846411 0.60321301 0.038183998
-1.90689 0.62501198 0.039852999
-1.930575 0.726659 0.037322
-1.902997 0.59594703 0.044217002
-1.878359 0.60520798 0.041714001
-1.969947 0.61381698 0.043862
-1.880536 0.612997 0.040282
-1.890649 0.61914998 0.041322999
-1.893437 0.62249702 0.042938001
-1.8950779 0.62933803 0.040270999
-1.894786 0.64001697 0.043325
-1.908704 0.65516299 0.044608999
-1.914647 0.70931101 0.041726999
-1.87929 0.59020501 0.047527999
-1.939509 0.60235 0.048191
-1.8778009 0.61737198 0.048847999
-1.907534 0.64811897 0.047258999
-1.931826 0.74148703 0.047949001
-1.869249 0.58824497 0.054949
-1.897894 0.60591799 0.052797999
-1.878973 0.61673599 0.054545
-1.901895 0.70180303 0.054088
-1.93214 0.73401499 0.050629001
-1.882079 0.58586001 0.058005001
-1.918429 0.59211802 0.055415999
-1.9515181 0.61668998 0.058915
-1.873955 0.61772197 0.058320001
-1.885506 0.63234198 0.057881001
-1.905353 0.63616699 0.056325
-1.8924201 0.642465 0.058228001
-1.89935 0.66325003 0.056605
-1.883275 0.58511901 0.062219001
-1.8796 0.58777499 0.062839001
-1.890169 0.60123599 0.064179003
-1.927024 0.60721499 0.062132999
-1.895363 0.610892 0.062424
-1.9337929 0.61598802 0.064691998
-1.965045 0.64128798 0.063298002
-1.899104 0.657956 0.061967999
-1.902995 0.661273 0.064259999
-1.888644 0.66431803 0.061772
-1.903934 0.66824299 0.061604999
-1.893464 0.604128 0.065033004
-1.896652 0.61036998 0.065931
-1.892493 0.61239803 0.067248002
-1.89219 0.62053698 0.068977997
-1.929804 0.62573397 0.068575002
-1.903693 0.62637502 0.068285003
-1.874088 0.629448 0.065304004
-1.908878 0.636347 0.066912003
-1.947809 0.64192098 0.068503
-1.95734 0.65252799 0.069278002
-1.88685 0.653925 0.069729999
-1.90178 0.68907601 0.066255003
-1.907752 0.72593302 0.067281999
-1.897988 0.58249497 0.071695
-1.915562 0.59420502 0.072007999
-1.876685 0.59926897 0.073041998
-1.866416 0.59985799 0.071310997
-1.9200031 0.60371 0.071624003
-1.913739 0.60498101 0.072130002
-1.8695509 0.63023502 0.074924998
-1.906541 0.64762199 0.072270997
-1.886703 0.656102 0.074727997
-1.897801 0.674492 0.073202997
-1.8937269 0.70851803 0.071148001
-1.882303 0.58608598 0.079524003
-1.885304 0.595828 0.077440999
-1.92188 0.620408 0.07869
-1.879076 0.62353498 0.075756997
-1.927407 0.63038701 0.076697998
-1.882413 0.65537 0.079507999
-1.899165 0.68132198 0.078601003
-1.9030401 0.73013198 0.076683998
-1.864028 0.58926499 0.080208004
-1.895155 0.60868597 0.084101997
-1.8981121 0.61947399 0.081935003
-1.889001 0.617064 0.081753001
-1.8909841 0.62389302 0.082291998
-1.8880889 0.62491101 0.083853997
-1.898549 0.63956797 0.084843002
-1.889172 0.635153 0.084583998
-1.92405 0.640481 0.084895998
-1.94032 0.64885098 0.083837003
-1.904148 0.64931703 0.083765998
-1.8984571 0.67442799 0.081261002
-1.895503 0.68093401 0.084155999
-1.898857 0.70106101 0.083140999
-1.876569 0.70260799 0.083686002
-1.9082071 0.73373699 0.080773003
-1.882641 0.585069 0.087485999
-1.89362 0.59490699 0.088165998
-1.914048 0.60519302 0.088230997
-1.9029419 0.64242703 0.086361997
-1.917851 0.67531198 0.088469997
-1.90882 0.70692998 0.088877
-1.889922 0.72088897 0.088007003
-1.907354 0.61095601 0.091379002
-1.9066271 0.61958802 0.092781998
-1.8762209 0.63523799 0.092247002
-1.875218 0.658728 0.090994999
-1.880987 0.66974002 0.091228001
-1.88928 0.72705698 0.090493999
-1.875495 0.57431799 0.098653004
-1.860373 0.60115099 0.096405998
-1.916736 0.6336 0.095247
-1.895257 0.63117701 0.098425001
-1.885316 0.63741499 0.098653004
-1.922361 0.64326298 0.097691998
-1.919794 0.64463598 0.097511001
-1.866662 0.65359902 0.098217003
-1.930599 0.65922397 0.099650003
-1.8891129 0.65942299 0.096853003
-1.893918 0.68758202 0.098263003
-1.8943959 0.69440198 0.095596999
-1.885303 0.725214 0.096745998
-1.903591 0.74711698 0.098064996
-1.878986 0.59695601 0.103685
-1.893641 0.61967301 0.100325
-1.872887 0.62506402 0.100962
-1.883685 0.63742501 0.100459
-1.887646 0.64622301 0.10093
-1.893405 0.65276003 0.1014
-1.908299 0.65533 0.10308
-1.898441 0.65547103 0.103221
-1.898816 0.66332 0.102711
-1.9362791 0.66943002 0.101786
-1.933194 0.67010999 0.102309
-1.881559 0.67317998 0.101546
-1.908131 0.71397001 0.103096
-1.895933 0.71304601 0.100027
-1.870804 0.71636301 0.100328
-1.908125 0.72099501 0.100447
-1.886119 0.73325998 0.104865
-1.88445 0.743424 0.104445
-1.898647 0.75180298 0.101612
-1.891647 0.62083501 0.108298
-1.8792191 0.656726 0.107555
-1.870074 0.67192 0.107552
-1.907071 0.67854601 0.105854
-1.913081 0.68839097 0.105466
-1.946826 0.69601601 0.107181
-1.9043061 0.71975702 0.105898
-1.88447 0.74024701 0.107635
-1.916948 0.64931202 0.112928
-1.90448 0.64507401 0.113006
-1.862949 0.66567498 0.114673
-1.886235 0.67121899 0.113473
-1.933363 0.68982702 0.114848
-1.909871 0.68824297 0.110113
-1.86084 0.68788201 0.113825
-1.883543 0.69786698 0.112058
-1.898217 0.76744998 0.112639
-1.892127 0.63066 0.116547
-1.869203 0.63704401 0.117288
-1.879281 0.64993799 0.117065
-1.886121 0.65729398 0.117276
-1.917485 0.66967601 0.117813
-1.905421 0.667126 0.1197
-1.9254121 0.67252803 0.116347
-1.856302 0.67082602 0.11999
-1.9312429 0.67515999 0.117839
-1.8931 0.67695802 0.119211
-1.9311404 0.68278253 0.116882
-1.880022 0.68433499 0.118017
-1.875621 0.69044101 0.119494
-1.899281 0.69586098 0.118306
-1.9033149 0.73418599 0.117588
-1.8989739 0.76049697 0.115358
-1.8940949 0.76473802 0.118777
-1.905157 0.65377402 0.121437
-1.893941 0.66851598 0.12008
-1.899204 0.68078899 0.122209
-1.901884 0.69185001 0.122551
-1.869555 0.69701499 0.124229
-1.908312 0.70147097 0.122462
-1.942312 0.70884299 0.124202
-1.8885339 0.71563601 0.124367
-1.903554 0.72723699 0.120241
-1.899792 0.732584 0.12292
-1.882315 0.74563098 0.121724
-1.878635 0.75729698 0.121231
-1.917223 0.76133603 0.122678
-1.913514 0.78799897 0.120398
-1.90762 0.79188299 0.123877
-1.905394 0.70096302 0.126994
-1.8776984 0.71152401 0.128768
-1.91573 0.71818101 0.12722699
-1.883021 0.72364199 0.12854999
-1.913258 0.75923502 0.12800699
-1.89547 0.77167398 0.12671299
-1.887213 0.77072698 0.12763201
-1.865519 0.64902401 0.133615
-1.913743 0.68184799 0.13440099
-1.937959 0.68760997 0.130859
-1.926998 0.69546002 0.132331
-1.878485 0.69549102 0.134488
-1.859303 0.69903702 0.13029601
-1.931814 0.70106798 0.131446
-1.8415999 0.70427299 0.130262
-1.922375 0.72097301 0.13011301
-1.918795 0.72712702 0.132072
-1.854828 0.73049301 0.13496
-1.8910434 0.73734105 0.13364249
-1.929798 0.74495399 0.13199399
-1.901209 0.79822302 0.13241
-1.927067 0.86318898 0.13474099
-1.878145 0.67348802 0.138524
-1.902544 0.678922 0.13631999
-1.8894399 0.68156099 0.136939
-1.8976671 0.691944 0.13868
-1.8873841 0.69059497 0.135711
-1.924749 0.69693899 0.135069
-1.8963799 0.70775098 0.135058
-1.934226 0.71211302 0.13780899
-1.903543 0.71455002 0.139458
-1.891605 0.71945697 0.139595
-1.872275 0.72303098 0.135371
-1.898977 0.74050301 0.13738699
-1.905867 0.764606 0.138304
-1.912372 0.77464002 0.139965
-1.87282 0.77117097 0.138017
-1.9088579 0.80149502 0.13784
-1.907361 0.80858099 0.135134
-1.901305 0.67317802 0.14491899
-1.932803 0.67755097 0.141855
-1.884761 0.727907 0.14108901
-1.917349 0.74131399 0.14468101
-1.885439 0.74738902 0.140533
-1.867668 0.75315899 0.14435899
-1.91334 0.76755899 0.14260601
-1.8916349 0.78414601 0.14371
-1.903028 0.804928 0.141188
-1.923579 0.82957 0.143141
-1.921567 0.836869 0.140452
-1.907946 0.67540097 0.14664599
-1.9302649 0.712309 0.14804401
-1.917798 0.73423898 0.147258
-1.9142801 0.73995399 0.149094
-1.877256 0.73739702 0.145192
-1.897882 0.75363499 0.14615799
-1.890958 0.76463997 0.149698
-1.908705 0.77217001 0.145172
-1.928005 0.79512203 0.147882
-1.926531 0.802414 0.14525899
-1.895887 0.81187201 0.14954001
-1.874432 0.68556303 0.15498
-1.899666 0.690718 0.15294001
-1.881668 0.70423299 0.15221199
-1.887161 0.74900001 0.150686
-1.932322 0.76124197 0.15256201
-1.8670059 0.78504401 0.15480299
-1.910048 0.83994299 0.154571
-1.900004 0.85617 0.15321299
-1.919493 0.667211 0.155324
-1.89613 0.70310003 0.15515099
-1.890056 0.730699 0.156194
-1.900591 0.77813798 0.155287
-1.9471509 0.78874999 0.157924
-1.877588 0.78716201 0.158354
-1.898437 0.81797302 0.158499
-1.916631 0.85040498 0.158041
-1.8933409 0.681301 0.162374
-1.903445 0.68844599 0.163505
-1.899497 0.69781297 0.16369399
-1.877602 0.70660698 0.163333
-1.905268 0.74501503 0.160905
-1.91254 0.75450498 0.16182099
-1.894078 0.76600599 0.163017
-1.8647439 0.76514399 0.161246
-1.904153 0.78510499 0.16233701
-1.8878 0.796619 0.160707
-1.914704 0.80569798 0.160304
-1.891037 0.81244397 0.163752
-1.962206 0.81671399 0.16340099
-1.921638 0.81583297 0.162696
-1.918882 0.84318298 0.16073599
-1.875952 0.71787101 0.16871201
-1.869177 0.74551398 0.168567
-1.884238 0.76098502 0.16757201
-1.885143 0.77851301 0.166483
-1.877828 0.79094499 0.16654199
-1.9233479 0.80861801 0.165324
-1.901125 0.82331198 0.16605
-1.870718 0.69763899 0.171436
-1.894592 0.71425498 0.17162199
-1.8889894 0.74330801 0.173103
-1.9037319 0.756827 0.17389899
-1.8823169 0.77004701 0.173987
-1.923316 0.77960199 0.17156599
-1.89748 0.786753 0.17292
-1.9408081 0.80966598 0.172821
-1.980424 0.84130102 0.170789
-1.874724 0.71840203 0.179952
-1.883453 0.72266102 0.17671099
-1.891963 0.73912501 0.177636
-1.90773 0.76769602 0.17896201
-1.90328 0.77198303 0.17816401
-1.890274 0.778377 0.179875
-1.917132 0.782561 0.179298
-1.8996 0.79803997 0.179502
-1.9504009 0.80146801 0.176725
-1.937089 0.80687398 0.17711399
-1.909382 0.81934702 0.177434
-1.893846 0.83101797 0.17580999
-1.9553061 0.837964 0.178468
-1.880982 0.68969297 0.18087199
-1.89643 0.74811703 0.18204699
-1.879328 0.79238701 0.18326899
-1.874881 0.80302697 0.18356501
-1.918692 0.82211399 0.18276601
-1.889451 0.82395101 0.18074299
-1.9167449 0.829252 0.180132
-1.951084 0.83460099 0.18276601
-1.897258 0.83588803 0.18318699
-1.9924721 0.85173202 0.18305901
-1.893055 0.72540998 0.18809301
-1.881135 0.74506497 0.189338
-1.886958 0.75318199 0.18939
-1.894532 0.79883498 0.189942
-1.928198 0.813173 0.188199
-1.893134 0.820324 0.18816701
-1.888182 0.82937199 0.18906599
-1.906288 0.74960798 0.19361401
-1.894805 0.77184898 0.194582
-1.900236 0.77777398 0.194971
-1.880756 0.781376 0.190714
-1.897465 0.78585601 0.19495
-1.892656 0.760387 0.198769
-1.914184 0.79464298 0.19632
-1.88647 0.790748 0.196734
-1.894074 0.80636698 0.19636101
-1.911429 0.81373698 0.19994999
-1.895048 0.81097502 0.196667
-1.936644 0.82700998 0.198589
-1.9058419 0.78638101 0.204309
-1.9137059 0.802737 0.200651
-1.891585 0.81091702 0.206965
-1.882666 0.803119 0.21359301
-1.911237 0.80672401 0.21334299
-1.912133 0.81415498 0.217509
