# .PCD v0.7 - Point Cloud Data file format
VERSION 0.7
FIELDS x y z
SIZE 4 4 4
TYPE F F F
COUNT 1 1 1
WIDTH 973
HEIGHT 1
VIEWPOINT 0 0 0 1 0 0 0
POINTS 973
DATA ascii
1.410652 0.147258 1.595723
1.427109 0.130132 1.603766
1.436359 0.143047 1.607432
1.402029 0.13053399 1.617383
1.433183 0.131532 1.624203
1.42659 0.121951 1.630634
1.419125 0.12552001 1.634445
1.386106 0.12132 1.635681
1.418815 0.113165 1.643851
1.440376 0.104524 1.654
1.415912 0.109042 1.653821
1.454051 0.11295 1.65073
1.428952 0.117739 1.651934
1.417982 0.110534 1.663522
1.523841 0.114122 1.660759
1.425532 0.100754 1.671508
1.4402471 0.101803 1.674111
1.47552 0.093828 1.678025
1.514263 0.096588999 1.679691
1.4313 0.091739997 1.680647
1.425263 0.096794002 1.683549
1.4504859 0.097512998 1.682066
1.577639 0.104885 1.680215
1.461054 0.087641001 1.688565
1.498773 0.098237999 1.688357
1.5560009 0.100996 1.686599
1.474152 0.088482 1.692472
1.435287 0.092505999 1.691154
1.5485671 0.080960996 1.69907
1.974218 -0.35712299 1.70455
1.458954 0.083402 1.702045
1.541576 0.085219003 1.7045881
1.486239 0.090296 1.702155
1.447129 0.073958002 1.7082289
1.497667 0.074147001 1.7061549
1.487783 0.081161998 1.70525
1.508443 0.088170998 1.706975
1.53115 0.072405003 1.713196
1.468537 0.079044998 1.710384
1.462411 0.083713003 1.7101279
2.006094 -0.34578201 1.7161289
1.528844 0.077151999 1.718605
1.545967 0.079225004 1.716846
1.494374 0.080931 1.718631
1.999699 -0.32481301 1.7221611
1.482751 0.042748 1.724941
1.53529 0.060238 1.7242121
1.524978 0.076931998 1.722874
1.479007 0.060484 1.728119
1.499279 0.070055999 1.728143
1.981656 -0.366119 1.730112
1.991007 -0.354572 1.730692
1.502749 0.065191999 1.73017
1.516113 0.069084004 1.732621
1.480306 0.073691003 1.730287
1.509446 0.071741 1.732658
1.547314 0.070733003 1.73338
1.943319 -0.356709 1.737114
1.975605 -0.345523 1.7356009
1.984612 -0.33360299 1.7367229
1.48449 0.063731 1.7389179
1.970623 -0.37835801 1.7449321
1.965794 -0.374282 1.743253
1.93827 -0.33631501 1.742154
1.9695539 -0.32492799 1.741091
1.493914 0.066549003 1.7424411
1.975919 -0.36336201 1.745254
1.959743 -0.353686 1.7487431
1.963503 -0.30433199 1.746581
1.477371 0.046661001 1.745181
1.549783 0.056784999 1.747604
1.520189 0.060240999 1.748124
1.5337631 0.062838003 1.74646
1.592275 0.066325001 1.747088
1.911691 -0.38092101 1.754503
1.969525 -0.34239301 1.751285
1.953692 -0.33309099 1.754233
1.9574521 -0.283737 1.75207
1.618214 0.049575999 1.753107
1.4889899 0.052524999 1.75302
1.502556 0.062086001 1.751532
1.953981 -0.38547501 1.757057
1.899069 -0.38453999 1.758864
1.9499331 -0.38244501 1.756395
1.522228 0.049564 1.7576261
1.505905 0.052889999 1.759959
1.5202121 0.054942999 1.759539
1.5402941 0.058063 1.75972
1.554351 0.058134001 1.75849
1.943882 -0.36184901 1.761885
1.948889 -0.36491001 1.762139
1.633165 0.047228001 1.76105
1.529878 0.052209999 1.7625
1.579235 0.058061998 1.761444
1.64884 0.059422001 1.76082
1.9340709 -0.39060801 1.769536
1.937338 -0.39259201 1.769182
1.890622 -0.34436601 1.7668689
1.937831 -0.341254 1.767374
1.9437979 -0.34434599 1.767221
1.899125 -0.32016701 1.766793
1.545603 0.032368001 1.769684
1.510746 0.043696001 1.769349
1.6691999 0.053916 1.767893
1.895903 -0.39287499 1.771046
1.945744 -0.38094199 1.774379
1.893805 -0.37788299 1.7731889
1.891749 -0.37319401 1.774572
1.932246 -0.37202701 1.774264
1.928537 -0.36181799 1.771827
1.948043 -0.33021399 1.771879
1.977851 -0.31742001 1.773381
1.970894 -0.31295201 1.772711
1.882174 -0.30419201 1.774873
1.974686 -0.26317599 1.7705311
1.550186 0.035509001 1.770848
1.582908 0.042784002 1.7730711
1.514115 0.046941001 1.772428
1.5380419 0.047672998 1.772375
1.915454 -0.388019 1.778597
1.92802 -0.370013 1.775026
1.915207 -0.36562601 1.7763211
1.927155 -0.35146299 1.7793469
1.924314 -0.34140101 1.775957
1.941648 -0.309246 1.7779109
1.972716 -0.296682 1.778506
1.964792 -0.29218 1.778248
1.521155 0.034704 1.7776
1.594057 0.043554999 1.777946
1.6251251 0.043848999 1.779548
1.878567 -0.39821401 1.780427
1.918209 -0.39877099 1.782678
1.9206949 -0.39970899 1.781307
1.902054 -0.39161101 1.782698
1.874414 -0.37853301 1.783954
1.911232 -0.36760199 1.782727
1.93935 -0.35997301 1.7804101
1.9219691 -0.349417 1.780516
1.922063 -0.33089799 1.784429
1.5967259 0.022717999 1.782589
1.534305 0.030200999 1.780851
1.590809 0.038169999 1.784126
1.686007 0.037696999 1.783409
1.522053 0.042406 1.781936
1.655097 0.045699 1.7815059
1.861232 -0.40355399 1.789808
1.898149 -0.393803 1.789497
1.912158 -0.378176 1.788168
1.897796 -0.371362 1.786732
1.855016 -0.35382 1.787627
1.907009 -0.34718499 1.786857
1.932955 -0.33900401 1.786442
1.954897 -0.32118499 1.785965
1.961068 -0.324597 1.785609
1.879288 -0.31415099 1.785152
1.9922841 -0.242259 1.789346
1.578698 0.036986999 1.7891361
1.7162139 0.039466001 1.786857
1.637424 0.042022999 1.7854379
1.904052 -0.40682599 1.793433
1.879643 -0.392923 1.794373
1.857079 -0.38387299 1.793335
1.841273 -0.37728199 1.792268
1.893926 -0.373386 1.793627
1.924262 -0.368763 1.794973
1.910512 -0.35857999 1.791472
1.893538 -0.35111201 1.790767
1.906854 -0.354505 1.791586
1.88928 -0.330863 1.794802
1.902786 -0.32676801 1.790987
1.955933 -0.303859 1.7907341
1.986128 -0.22130699 1.7949311
1.62134 0.027643001 1.794216
1.574579 0.032823 1.793831
1.697144 0.03506 1.79264
1.902348 -0.40693399 1.79582
1.8989609 -0.38626099 1.798515
1.83772 -0.35836399 1.795414
1.889704 -0.35296899 1.797757
1.905421 -0.33801499 1.796554
1.9389 -0.329418 1.799219
1.885022 -0.31061399 1.7988369
1.898563 -0.30635199 1.795117
1.937078 -0.30122799 1.797721
1.950799 -0.28312099 1.795859
1.99037 -0.27635899 1.79714
1.982303 -0.27151501 1.79713
1.672531 0.029158 1.798245
1.6225719 0.034379002 1.797743
1.8622169 -0.39750099 1.802219
1.880844 -0.39958701 1.800397
1.896297 -0.38633901 1.801309
1.876621 -0.37917 1.804527
1.893869 -0.365697 1.803597
1.876127 -0.356848 1.8011791
1.889382 -0.35988599 1.801041
1.917868 -0.347794 1.8010041
1.885196 -0.34005001 1.8045959
1.885481 -0.332553 1.801887
1.900329 -0.31744999 1.801636
1.93915 -0.31103599 1.802961
1.9723229 -0.300771 1.804915
1.93282 -0.280644 1.801885
1.945664 -0.26238301 1.800984
1.586637 0.0085810004 1.8010271
1.6327389 0.007669 1.804774
1.596187 0.019516001 1.804158
1.605094 0.022213001 1.804448
1.558349 0.027477 1.8035361
1.5617645 0.0308035 1.801945
1.701877 0.031113001 1.800696
1.905122 -0.39879999 1.8069431
1.862974 -0.382833 1.807555
1.872399 -0.35875401 1.8086571
1.929005 -0.35842299 1.806937
1.888778 -0.34513199 1.808679
1.881009 -0.32021299 1.8081501
1.928563 -0.26006001 1.806049
1.969992 -0.22961099 1.8083
1.67744 0.017542001 1.805608
1.693085 0.019778 1.8071491
1.619359 0.021841999 1.809342
1.6291804 0.022202499 1.806531
1.76485 0.024534 1.806484
1.682052 0.027293 1.805144
1.627335 0.031707998 1.808812
1.86281 -0.41032299 1.812844
1.84479 -0.402078 1.810065
1.882318 -0.39337799 1.81064
1.84121 -0.383017 1.813235
1.900829 -0.37838501 1.811011
1.87191 -0.36526799 1.810497
1.8836859 -0.32456699 1.813761
1.8768229 -0.300376 1.811705
1.915373 -0.28647599 1.812875
1.966167 -0.27981901 1.810499
1.963836 -0.20866001 1.813884
1.579753 0.014454 1.8130521
1.5888489 0.016783001 1.8146811
1.541846 0.023615999 1.812312
1.566826 0.022241 1.811417
1.543878 0.026164999 1.812393
1.5911421 0.026991 1.811569
1.653542 0.030533999 1.810666
1.887568 -0.40458199 1.81744
1.858624 -0.390486 1.816398
1.859316 -0.38495401 1.8154269
1.854437 -0.37064999 1.819953
1.892244 -0.337556 1.819147
1.902184 -0.31289199 1.819701
1.956187 -0.309075 1.818284
1.901211 -0.29094401 1.8167861
1.911116 -0.26589099 1.817039
1.86845 -0.260703 1.818814
1.960011 -0.258867 1.816084
2.0000801 -0.25048801 1.8163199
1.963088 -0.241769 1.819809
1.95768 -0.18770801 1.819469
1.550391 0.017922999 1.818817
1.612258 0.017522 1.815963
1.757291 0.025208 1.815271
1.845338 -0.415705 1.822299
1.887951 -0.317141 1.8232141
1.917233 -0.29747501 1.820314
1.897926 -0.29230699 1.8238651
1.9565181 -0.29083499 1.821803
1.950031 -0.28812301 1.823868
1.906859 -0.245307 1.821203
1.9579099 -0.220855 1.824978
1.563319 0.0093919998 1.821945
1.572603 0.011353 1.824914
1.750271 0.016039999 1.820556
1.6127861 0.021049 1.8223439
1.870015 -0.41036499 1.8279361
1.8843189 -0.406892 1.825024
1.836965 -0.37603199 1.829408
1.89907 -0.37404299 1.829394
1.855104 -0.36502099 1.829814
1.878983 -0.36375299 1.825575
1.886943 -0.346365 1.827908
1.869056 -0.341203 1.825102
1.888994 -0.33930799 1.826526
1.946207 -0.33833101 1.826068
1.865449 -0.32199699 1.8282959
1.8836581 -0.29672599 1.827282
1.9120981 -0.276737 1.825439
1.893669 -0.271723 1.828029
1.943875 -0.26717201 1.829453
1.95134 -0.269921 1.826972
1.951524 -0.166756 1.825053
1.632493 0.004309 1.826858
1.667819 0.0072550001 1.828757
1.815119 0.0090859998 1.826763
1.5876859 0.01281 1.82836
1.5957789 0.012093 1.825816
1.679155 0.013843 1.829115
1.680102 0.023117 1.8257509
1.764343 0.022290999 1.825825
1.827865 -0.421087 1.831755
1.8447599 -0.40804601 1.831331
1.841153 -0.38883999 1.834525
1.8657219 -0.38995001 1.832004
1.8758039 -0.365724 1.833352
1.936226 -0.367587 1.8338521
1.893935 -0.35330501 1.834519
1.882724 -0.32637101 1.831491
1.900802 -0.32511199 1.831264
1.8847359 -0.31872299 1.83069
1.861842 -0.302791 1.83149
1.90045 -0.30465201 1.832541
1.880479 -0.29813901 1.834854
1.9176019 -0.27094799 1.834986
1.9069639 -0.255999 1.830564
1.9415441 -0.19601201 1.8328381
1.952732 -0.19994099 1.830146
1.57116 0.0093679996 1.834306
1.588159 0.0085000005 1.832072
1.5995229 0.0075539998 1.833773
1.696384 0.014922 1.831706
1.622095 0.017086999 1.833577
1.827201 -0.41265801 1.839237
1.866872 -0.41272399 1.836013
1.86016 -0.397203 1.8398041
1.861429 -0.369535 1.836072
1.869332 -0.35179001 1.8374389
1.871547 -0.345139 1.837516
1.930071 -0.34663501 1.839437
1.8285919 -0.33635801 1.836517
1.850401 -0.338801 1.838012
1.888801 -0.33256701 1.839644
1.84789 -0.32660899 1.836202
1.878504 -0.30637601 1.8350739
1.866105 -0.30250901 1.837779
1.933895 -0.29642799 1.837237
1.874284 -0.28638199 1.8386559
1.8953151 -0.283914 1.837666
1.9377199 -0.24621999 1.835037
1.977594 -0.23773099 1.835438
1.615811 -0.00082999998 1.835886
1.634719 -0.0047249999 1.836082
1.651085 0.001742 1.838764
1.579301 0.0066650002 1.83567
1.662528 0.008285 1.839588
1.572106 0.010253 1.837919
1.748876 0.014331 1.83864
1.810393 -0.42646801 1.84121
1.862614 -0.39214 1.8401771
1.895191 -0.34435499 1.843848
1.8651119 -0.33179501 1.841022
1.8672889 -0.32455501 1.84168
1.845309 -0.31823701 1.843094
1.860893 -0.31180099 1.844604
1.883667 -0.311829 1.844769
1.911423 -0.28138 1.8431849
1.927739 -0.27547601 1.842822
1.870064 -0.26638699 1.842239
1.971385 -0.21659601 1.841072
1.935806 -0.207179 1.842477
1.969033 -0.144816 1.844486
1.68687 -0.006145 1.8411061
1.572559 0.001829 1.843438
1.58285 0.003175 1.841279
1.737558 0.0032860001 1.8413661
1.651333 0.0073009999 1.843134
1.756937 0.005752 1.841656
1.842549 -0.402628 1.849335
1.81638 -0.35504001 1.848819
1.851721 -0.357214 1.84697
1.86921 -0.34674901 1.846646
1.8908629 -0.323773 1.847949
1.9636689 -0.31788701 1.84551
1.863032 -0.30397099 1.845844
1.856673 -0.29180601 1.848187
1.8785321 -0.291091 1.849894
1.899905 -0.27677801 1.8455679
1.921584 -0.25452399 1.848406
1.865845 -0.246393 1.845822
1.968944 -0.24919499 1.8461699
1.924059 -0.235331 1.84964
1.611448 -0.0045150002 1.847175
1.584579 0.0046160002 1.84957
1.7572581 0.009962 1.847864
1.813031 0.0066129998 1.847066
1.87278 -0.41776201 1.8527091
1.830615 -0.40151501 1.8529969
1.838329 -0.382633 1.852918
1.855152 -0.37075001 1.8513941
1.851517 -0.35139701 1.854612
1.877494 -0.35018501 1.85443
1.843281 -0.31722501 1.854135
1.861941 -0.308043 1.853083
1.9177589 -0.30473199 1.850606
1.897298 -0.27803099 1.853101
1.852453 -0.27181199 1.85177
1.934283 -0.250622 1.8535
1.902916 -0.241071 1.850408
1.8912489 -0.235614 1.853771
1.963722 -0.228102 1.851383
1.955108 -0.22497299 1.854557
1.9188811 -0.214417 1.854809
1.958966 -0.174327 1.852338
1.962824 -0.123681 1.850119
1.7081929 -0.023809999 1.8512729
1.669933 -0.011362 1.8502721
1.708149 -0.0089349998 1.8521301
1.618059 -0.001785 1.850895
1.720667 -0.00236 1.852006
1.740701 -0.001191 1.853485
1.645901 0.0027280001 1.8500611
1.795049 0.00064500002 1.850916
1.822832 0.002847 1.854623
1.733409 0.0063709999 1.851454
1.824937 -0.408052 1.858866
1.868452 -0.39717999 1.85681
1.837459 -0.37539801 1.85936
1.8341089 -0.36263901 1.856501
1.847883 -0.33204401 1.857831
1.873166 -0.32960299 1.858531
1.882207 -0.282608 1.856151
1.911603 -0.28378001 1.85619
1.854671 -0.269337 1.85952
1.912311 -0.26348299 1.8568031
1.893005 -0.257276 1.857299
1.886921 -0.215031 1.857872
1.913703 -0.19350199 1.859977
1.897718 -0.18913101 1.858814
1.584339 -0.017959001 1.858765
1.652995 -0.016579 1.8594379
1.59495 -0.01003 1.857567
1.601302 -0.0052749999 1.8569241
1.617615 -0.0092839999 1.858778
1.633154 -0.0075639999 1.856763
1.6154391 -0.00428 1.858379
1.827035 -0.41875201 1.860889
1.8234 -0.39939901 1.864108
1.8207181 -0.38805801 1.862449
1.8641239 -0.37659699 1.860912
1.874992 -0.35205501 1.862666
1.82989 -0.34264401 1.860083
1.82567 -0.32264999 1.8636661
1.8442481 -0.312691 1.8610491
1.868838 -0.309021 1.862632
1.840613 -0.293338 1.8642679
1.879706 -0.28391099 1.864181
1.9164391 -0.25650099 1.86417
1.932145 -0.25165799 1.860485
1.851037 -0.249984 1.862738
1.873551 -0.24144401 1.8643529
1.927817 -0.23073 1.864719
1.880911 -0.226384 1.863627
1.948898 -0.20383801 1.860191
1.882593 -0.19444899 1.861973
1.953277 -0.18591601 1.8618079
1.946547 -0.13205799 1.863605
1.6470079 -0.021446001 1.863063
1.613843 -0.014108 1.864882
1.616238 -0.012008 1.864379
1.69115 -0.014535 1.862295
1.802918 -0.010787 1.863909
1.703775 -0.008006 1.862646
1.652002 -0.002084 1.862453
1.797303 -0.001482 1.8600971
1.812977 -0.44275299 1.8656369
1.809342 -0.42340001 1.868855
1.819766 -0.38004601 1.867326
1.816498 -0.368063 1.8660311
1.859796 -0.356015 1.865013
1.812278 -0.34806901 1.869614
1.817737 -0.340271 1.8652
1.830189 -0.33669201 1.865797
1.855468 -0.33543301 1.869114
1.8707 -0.331301 1.866865
1.8645101 -0.28843799 1.866734
1.8566149 -0.27753001 1.867246
1.836978 -0.273985 1.867486
1.895386 -0.27072099 1.8691339
1.8754129 -0.263156 1.86838
1.867412 -0.25200701 1.8696229
1.847402 -0.23063099 1.865957
1.938831 -0.233349 1.8680429
1.901955 -0.221655 1.8671401
1.876657 -0.20623 1.867238
1.923488 -0.209801 1.868952
1.9426889 -0.182704 1.865824
1.948054 -0.164822 1.867021
1.9403369 -0.110924 1.869238
1.909916 -0.102608 1.86832
1.674057 -0.034325 1.869746
1.636058 -0.021795999 1.868605
1.600881 -0.014797 1.868785
1.598631 -0.0094569996 1.867476
1.648459 -0.0055720001 1.866623
1.724465 -0.008134 1.8653131
1.780985 -0.0082670003 1.8664
1.807875 -0.0058670002 1.86906
1.863353 -0.0096070003 1.869015
1.805707 -0.40404701 1.872074
1.816131 -0.36069301 1.870545
1.8124959 -0.34134001 1.873763
1.85114 -0.31485099 1.873215
1.866407 -0.31054601 1.871063
1.82292 -0.297986 1.872234
1.858166 -0.297784 1.872007
1.8762029 -0.28919101 1.8702199
1.860182 -0.267856 1.8708349
1.898595 -0.26237899 1.87484
1.833344 -0.254632 1.870705
1.8902071 -0.249807 1.874303
1.863158 -0.23185199 1.873234
1.932622 -0.21221501 1.8736759
1.93648 -0.161569 1.871457
1.873937 -0.153285 1.870175
1.942832 -0.143729 1.872234
1.869609 -0.13270199 1.874276
1.601253 -0.025210001 1.873348
1.635093 -0.029083 1.874671
1.708513 -0.027520999 1.874395
1.649269 -0.016795 1.874048
1.684974 -0.018619999 1.872726
1.686883 -0.013652 1.873286
1.802073 -0.38469401 1.8752919
1.798438 -0.36534101 1.878511
1.842099 -0.36184499 1.875595
1.808861 -0.321987 1.876981
1.883638 -0.29887301 1.876297
1.846812 -0.29426801 1.877316
1.862114 -0.28979099 1.875262
1.819285 -0.278633 1.875452
1.8539129 -0.27763 1.875618
1.857821 -0.269036 1.87946
1.928764 -0.26286101 1.875895
1.92958 -0.24270201 1.876256
1.910078 -0.23665901 1.875892
1.858905 -0.211698 1.876845
1.926412 -0.19108 1.8793091
1.930984 -0.172122 1.879458
1.914831 -0.167944 1.877419
1.93027 -0.140435 1.87709
1.832145 -0.051750001 1.8760951
1.7497309 -0.025648 1.876222
1.763449 -0.019094 1.875587
1.702474 -0.0095490003 1.877084
1.7278529 -0.0071700001 1.876246
1.792658 -0.43904799 1.8836811
1.794803 -0.34598801 1.881729
1.833443 -0.32068101 1.883798
1.844206 -0.31806001 1.883032
1.848815 -0.31642601 1.882144
1.840414 -0.30325201 1.881614
1.842484 -0.27368599 1.881417
1.922554 -0.241726 1.881528
1.8898669 -0.220873 1.883111
1.905749 -0.21573 1.880126
1.901421 -0.194802 1.884359
1.9257621 -0.15102901 1.884671
1.910503 -0.147016 1.881653
1.9240609 -0.1193 1.882724
1.8929909 -0.109846 1.880651
1.618052 -0.03356 1.882344
1.667807 -0.02313 1.880456
1.669991 -0.019298 1.883926
1.792917 -0.014581 1.883497
1.789669 -0.42037401 1.886183
1.81767 -0.374652 1.889994
1.826915 -0.32887501 1.887609
1.829115 -0.300098 1.887899
1.844522 -0.29567099 1.886343
1.8361599 -0.28309801 1.8852251
1.873282 -0.257045 1.886634
1.838156 -0.253104 1.885518
1.876387 -0.247504 1.8896461
1.892339 -0.242588 1.8870651
1.847385 -0.235367 1.887977
1.916345 -0.22059201 1.887161
1.8855031 -0.20012 1.887246
1.919136 -0.200516 1.886682
1.887686 -0.165418 1.889032
1.920539 -0.12993599 1.889884
1.917851 -0.098165996 1.888357
1.814592 -0.057532001 1.886592
1.7657959 -0.038809001 1.889835
1.825133 -0.030541999 1.888986
1.746285 -0.024831001 1.886398
1.69243 -0.018549001 1.886571
1.822662 -0.30871999 1.891221
1.822714 -0.303242 1.894303
1.824787 -0.27951601 1.892
1.84023 -0.27491599 1.890541
1.833218 -0.25955299 1.8927619
1.869046 -0.25771299 1.893839
1.907287 -0.228909 1.893906
1.840059 -0.196363 1.894464
1.910136 -0.199457 1.892795
1.913913 -0.17942201 1.8918951
1.674112 -0.038118001 1.893012
1.810299 -0.037117001 1.89066
1.6401531 -0.031335 1.892789
1.635831 -0.025460999 1.891692
1.915499 -0.026386 1.891771
1.6530989 -0.024944 1.8945661
1.6466759 -0.018949 1.893276
1.71315 -0.015736001 1.890437
1.766075 -0.38669601 1.897525
1.809163 -0.33434299 1.897217
1.808547 -0.32742801 1.899087
1.819051 -0.283739 1.8975461
1.874601 -0.24851701 1.8982379
1.829555 -0.240051 1.896005
1.864758 -0.237395 1.89748
1.902065 -0.207816 1.899119
1.903926 -0.178323 1.898428
1.905432 -0.055897001 1.899623
1.877457 -0.047102999 1.896157
1.632467 -0.040656999 1.8970031
1.748324 -0.044190001 1.89929
1.807686 -0.036373999 1.899976
1.6814049 -0.032230999 1.897893
1.7209131 -0.034589 1.897002
1.750119 -0.025765 1.8991899
1.6752959 -0.024193 1.896817
1.777961 -0.023295 1.897933
1.870006 -0.01575 1.896468
1.802762 -0.403081 1.902355
1.79975 -0.384269 1.904876
1.7943799 -0.351614 1.9038711
1.800656 -0.294034 1.90444
1.85115 -0.26322499 1.903524
1.900068 -0.22896799 1.900647
1.8604701 -0.217077 1.9011199
1.856182 -0.19676 1.904761
1.918709 -0.173484 1.903337
1.865502 -0.150612 1.902357
1.927868 -0.125296 1.9006079
1.7927459 -0.0429 1.9011559
1.664169 -0.035820998 1.9040951
1.703486 -0.039166 1.904848
1.751508 -0.029817 1.901005
1.872279 -0.026188999 1.9013259
1.790671 -0.023213999 1.902119
1.796738 -0.365457 1.907396
1.793727 -0.34664601 1.909917
1.790717 -0.332111 1.907115
1.8375421 -0.28905499 1.909568
1.8568619 -0.254446 1.909412
1.8902169 -0.23620901 1.906343
1.892872 -0.226813 1.908778
1.909551 -0.221673 1.9060659
1.861632 -0.215804 1.905509
1.893855 -0.190947 1.909959
1.902065 -0.179033 1.906358
1.914344 -0.15237901 1.907606
1.891507 -0.13605399 1.909694
1.898246 -0.116143 1.907533
1.741107 -0.052356999 1.907829
1.652692 -0.049635001 1.906557
1.730852 -0.049571998 1.908746
1.711955 -0.036306001 1.908022
1.636207 -0.03059 1.905205
1.899223 -0.034761999 1.905257
1.85387 -0.024055 1.9098361
1.778993 -0.36915401 1.913781
1.7870539 -0.31260899 1.910358
1.783391 -0.293107 1.913601
1.840699 -0.25926101 1.9109859
1.852533 -0.23351701 1.913645
1.843663 -0.220524 1.913599
1.9051861 -0.20056801 1.9103349
1.854249 -0.176496 1.912046
1.900821 -0.179463 1.9146039
1.889532 -0.170463 1.9136291
1.931408 -0.15773401 1.91186
1.886398 -0.144536 1.914757
1.909979 -0.131275 1.911875
1.779303 -0.065748997 1.9108551
1.635396 -0.054177999 1.914345
1.775192 -0.048682 1.911652
1.871121 -0.048303001 1.913994
1.68606 -0.043744002 1.912694
1.790239 -0.042204998 1.910966
1.816919 -0.042234998 1.911394
1.734097 -0.035551999 1.9114161
1.763003 -0.032009002 1.912369
1.7740279 -0.030331001 1.914245
1.855353 -0.033427 1.9136569
1.748697 -0.029021 1.911569
1.775982 -0.35034201 1.916301
1.823934 -0.31488401 1.915612
1.822492 -0.308579 1.916705
1.818801 -0.28892499 1.919973
1.827219 -0.28589201 1.917522
1.833078 -0.26455101 1.915152
1.8293869 -0.24489699 1.91842
1.874879 -0.23274 1.919538
1.891663 -0.227652 1.917333
1.839972 -0.20087001 1.916867
1.919457 -0.186373 1.919147
1.8840719 -0.18495999 1.917117
1.850558 -0.15684199 1.915314
1.896456 -0.15835901 1.918874
1.926141 -0.13645799 1.917118
1.887802 -0.073955998 1.917959
1.735615 -0.055222001 1.918339
1.71338 -0.054954 1.918201
1.67415 -0.041971002 1.916628
1.69479 -0.042043 1.918834
1.882946 -0.043138999 1.9187419
1.641027 -0.035482001 1.917309
1.758237 -0.354038 1.922686
1.81511 -0.26927099 1.923242
1.8664171 -0.243028 1.922146
1.825695 -0.225244 1.921689
1.870479 -0.211814 1.923707
1.822004 -0.20558999 1.924957
1.887298 -0.20654701 1.921603
1.8362809 -0.181216 1.920136
1.87149 -0.17602 1.923393
1.9141901 -0.165098 1.924405
1.829711 -0.16163699 1.9217269
1.800253 -0.084031999 1.9219511
1.927556 -0.065266997 1.920347
1.6645941 -0.056549001 1.921353
1.7576391 -0.054465 1.9221489
1.714471 -0.048115999 1.9224271
1.772792 -0.048037 1.921955
1.716686 -0.041288 1.921827
1.837734 -0.032359 1.923205
1.7552249 -0.335226 1.9252059
1.806882 -0.32867101 1.92633
1.803848 -0.30972001 1.928869
1.852698 -0.26906899 1.928239
1.862094 -0.222545 1.9258161
1.830466 -0.218518 1.929052
1.907506 -0.215013 1.926433
1.909636 -0.205772 1.928233
1.857771 -0.202061 1.929487
1.8172081 -0.18670151 1.9279985
1.882933 -0.185442 1.925872
1.867167 -0.15553699 1.927063
1.918906 -0.15759 1.9257931
1.875953 -0.102349 1.9251831
1.9156049 -0.093906999 1.927634
1.647233 -0.060164999 1.9276
1.695907 -0.060336001 1.927657
1.6969841 -0.051757999 1.928719
1.757386 -0.037448 1.92637
1.789006 -0.33239499 1.932762
1.800815 -0.29076901 1.931408
1.797141 -0.27399099 1.931332
1.848375 -0.248585 1.93191
1.856886 -0.23866799 1.930297
1.852486 -0.217741 1.934467
1.86941 -0.21252599 1.93287
1.902239 -0.193737 1.9316911
1.853448 -0.181577 1.933157
1.811815 -0.16714901 1.931412
1.862844 -0.13505299 1.930734
1.9036551 -0.122546 1.934921
1.927479 -0.109236 1.9312429
1.745834 -0.065130003 1.933413
1.77876 -0.069214001 1.9332221
1.867918 -0.068044998 1.931981
1.740086 -0.060247999 1.932645
1.7402821 -0.055691998 1.930006
1.8666691 -0.051516 1.932227
1.699275 -0.047024 1.9322391
1.932313 -0.039354 1.932796
1.834656 -0.27462599 1.9380029
1.843293 -0.26552099 1.936887
1.788886 -0.239126 1.93986
1.844052 -0.228102 1.93558
1.839729 -0.207618 1.93925
1.865045 -0.191421 1.937139
1.8218091 -0.176661 1.937519
1.896971 -0.172461 1.936949
1.850535 -0.161075 1.938041
1.900761 -0.16356701 1.936643
1.913841 -0.13654999 1.9383
1.949849 -0.108472 1.93885
1.923077 -0.087952003 1.9355479
1.678435 -0.065716997 1.937112
1.9186749 -0.066667996 1.939854
1.7225879 -0.060339998 1.9379719
1.783353 -0.056589 1.935849
1.9050699 -0.051355001 1.93815
1.821502 -0.047903001 1.93832
1.740743 -0.044566002 1.938495
1.8215981 -0.040663 1.936574
1.768095 -0.31716701 1.941733
1.830333 -0.254143 1.941674
1.829198 -0.249819 1.941172
1.8388931 -0.24459501 1.941056
1.887054 -0.19064701 1.943288
1.891704 -0.15118501 1.942207
1.844802 -0.14060999 1.940498
1.909439 -0.115266 1.942606
1.848477 -0.107183 1.944556
1.799857 -0.087667003 1.944568
1.849876 -0.073602997 1.941745
1.901157 -0.073178999 1.9426121
1.737897 -0.059700001 1.943934
1.8576699 -0.059402999 1.942136
1.681864 -0.052758999 1.94265
1.874631 -0.052834999 1.94022
1.674248 -0.045880999 1.940667
1.802242 -0.314181 1.949484
1.814139 -0.27224299 1.94812
1.758994 -0.260313 1.94935
1.82601 -0.233659 1.945344
1.834492 -0.22366901 1.945226
1.821687 -0.213176 1.9490139
1.847157 -0.1974 1.9484071
1.882617 -0.169544 1.947493
1.900203 -0.163864 1.945358
1.936025 -0.135782 1.945552
1.878271 -0.113638 1.949685
1.93155 -0.1145 1.949792
1.887449 -0.100259 1.949257
1.905037 -0.093982004 1.946911
1.893119 -0.079994 1.945436
1.790375 -0.065560997 1.949615
1.704895 -0.064986996 1.9459389
1.748554 -0.064466 1.947723
1.845553 -0.053119 1.945415
1.799185 -0.29508799 1.952042
1.7964145 -0.27756798 1.954392
1.812291 -0.2597 1.951437
1.868909 -0.196624 1.954138
1.8177005 -0.1915445 1.9518695
1.814317 -0.170589 1.954348
1.891399 -0.121296 1.953969
1.927075 -0.093217999 1.954033
1.831834 -0.079159997 1.951509
1.8830121 -0.079157002 1.953462
1.900635 -0.072697997 1.9512171
1.687202 -0.069634996 1.953905
1.839677 -0.065329999 1.952895
1.887852 -0.058718 1.950694
1.781175 -0.298839 1.958522
1.793026 -0.2581175 1.9573181
1.843569 -0.23006099 1.959435
1.803645 -0.218733 1.958778
1.813041 -0.172208 1.956355
1.882163 -0.16989399 1.9567209
1.8384269 -0.155191 1.9569449
1.8105969 -0.150782 1.957642
1.865075 -0.140615 1.95628
1.917726 -0.14181 1.956494
1.873742 -0.12733901 1.9559031
1.860081 -0.11924 1.959529
1.916706 -0.10704 1.955307
1.886997 -0.100012 1.958274
1.875901 -0.087357 1.957981
1.7724791 -0.071073003 1.9593
1.7781971 -0.072733 1.955927
1.800166 -0.072020002 1.9586869
1.741784 -0.064770997 1.9582779
1.827511 -0.058676001 1.955179
1.778118 -0.279746 1.96108
1.829067 -0.25481999 1.9643331
1.83982 -0.210097 1.962756
1.850764 -0.202602 1.964988
1.850572 -0.165374 1.9611779
1.74079 -0.146604 1.9645849
1.913251 -0.120529 1.960734
1.855722 -0.098589003 1.96323
1.864867 -0.085134 1.964312
1.718363 -0.083269 1.96338
1.813791 -0.084716998 1.961273
1.760229 -0.077453002 1.964017
1.882594 -0.078727998 1.96258
1.713064 -0.071859002 1.960492
1.821684 -0.071258001 1.963655
1.870633 -0.066081002 1.963239
1.838855 -0.064792998 1.962755
1.8276761 -0.25343901 1.965094
1.772005 -0.24156 1.9661959
1.824596 -0.234202 1.967671
1.825317 -0.23485599 1.967653
1.768949 -0.22246701 1.9687541
1.7818201 -0.199911 1.96736
1.8463269 -0.181499 1.969193
1.846249 -0.145495 1.965673
1.8994271 -0.14783899 1.967436
1.843073 -0.12544499 1.967818
1.873358 -0.127326 1.965332
1.868956 -0.106042 1.969638
1.799437 -0.091358997 1.9675241
1.825332 -0.091876999 1.969753
1.6953191 -0.075554997 1.966877
1.754583 -0.076586001 1.968985
1.782428 -0.077949002 1.969861
1.746531 -0.067074999 1.968309
1.8781919 -0.057443999 1.966886
1.80645 -0.237982 1.9742
1.8215425 -0.214928 1.9706111
1.765892 -0.203374 1.971313
1.817818 -0.19492701 1.974293
1.762836 -0.18428101 1.973871
1.841889 -0.16039699 1.973398
1.722914 -0.150328 1.971017
1.879814 -0.11983 1.9747829
1.837532 -0.104192 1.973074
1.7957489 -0.090273999 1.971037
1.7422611 -0.082172997 1.9721071
1.783573 -0.081312001 1.973701
1.864554 -0.084757999 1.973943
1.80369 -0.077184997 1.974414
1.807065 -0.23965 1.975871
1.8033431 -0.2192155 1.9779844
1.747882 -0.20712499 1.977793
1.8002909 -0.199508 1.979355
1.815357 -0.17649101 1.975403
1.814069 -0.174963 1.977613
1.759779 -0.165187 1.976429
1.705037 -0.154052 1.9774491
1.881128 -0.15386701 1.978379
1.899556 -0.14799801 1.976626
1.8374521 -0.139294 1.977603
1.824821 -0.13023999 1.976036
1.821072 -0.110276 1.9793561
1.713812 -0.093474001 1.978634
1.846722 -0.091110997 1.975163
1.853415 -0.073444001 1.9757839
1.7972111 -0.180271 1.981932
1.794132 -0.161034 1.9845099
1.8103189 -0.154999 1.980934
1.8065701 -0.13503499 1.984254
1.876653 -0.132585 1.982619
1.753666 -0.127001 1.981545
1.833015 -0.118191 1.9818079
1.850916 -0.112072 1.981001
1.750609 -0.107908 1.984103
1.819342 -0.109795 1.982918
1.724293 -0.086893 1.980197
1.765563 -0.085064001 1.980181
1.767078 -0.22630399 1.989835
1.835218 -0.195583 1.987525
1.735656 -0.130753 1.988025
1.861684 -0.123988 1.9850841
1.80282 -0.11507 1.987574
1.872178 -0.111303 1.98686
1.857638 -0.10454 1.986413
1.803039 -0.099542998 1.985713
1.828577 -0.097089 1.9860131
1.8811229 -0.093566999 1.986022
1.747553 -0.088815004 1.986661
1.829012 -0.15681601 1.9927191
1.717645 -0.13450401 1.994505
1.876922 -0.132613 1.992429
1.784893 -0.103322 1.992242
1.79907 -0.095105998 1.990894
1.894752 -0.098713003 1.993551
1.833791 -0.17693201 1.997473
1.843343 -0.129637 1.99501
1.714589 -0.115411 1.997063
1.7808191 -0.099900998 1.999112
1.796793 -0.094746001 1.996462
1.813784 -0.179407 2.0012231
1.8100049 -0.159284 2.0045691
1.8076251 -0.141242 2.001894
1.825002 -0.135286 2.004935
1.804522 -0.121858 2.0044911
1.805995 -0.081964001 2.0010681
1.867754 -0.149811 2.0073111
1.748601 -0.110882 2.0053
1.8206069 -0.114464 2.008666
1.802446 -0.119038 2.0112619
1.839749 -0.117309 2.0129161
1.784049 -0.12387 2.0195451
1.78027 -0.103747 2.022892
1.860098 -0.13623901 2.0255079
1.852115 -0.101073 2.0293701
1.869458 -0.15489601 2.0337059
