# .PCD v0.7 - Point Cloud Data file format
VERSION 0.7
FIELDS x y z
SIZE 4 4 4
TYPE F F F
COUNT 1 1 1
WIDTH 134
HEIGHT 1
VIEWPOINT 0 0 0 1 0 0 0
POINTS 134
DATA ascii
1.037378 0.37581301 1.182953
1.063058 0.37151301 1.1967781
1.066169 0.371225 1.202909
1.0680799 0.35560301 1.207718
1.080282 0.35926199 1.218766
1.04923 0.35442099 1.228191
1.015328 0.34936199 1.234735
1.032497 0.34421501 1.240715
1.037511 0.34224901 1.2427779
1.070603 0.34295601 1.246982
1.046881 0.339625 1.251268
1.069941 0.33806899 1.256812
1.047049 0.32538399 1.26162
1.058918 0.33335501 1.264843
1.093325 0.330621 1.265309
1.124254 0.33514801 1.268551
1.04447 0.32450601 1.274832
1.056453 0.325638 1.279422
1.052012 0.323019 1.284961
1.086549 0.323623 1.2843781
1.1022191 0.3230055 1.2877095
1.116323 0.32128501 1.2884049
1.136014 0.32292101 1.289816
1.1250139 0.31725901 1.298929
1.096432 0.31183699 1.301838
1.129511 0.308543 1.305904
1.114013 0.311598 1.308043
1.1186219 0.30376801 1.312505
1.10657 0.29979801 1.319711
1.087999 0.30310601 1.3192919
1.103013 0.30593699 1.317157
1.114468 0.30184799 1.324792
1.094519 0.29582801 1.326918
1.092013 0.30027601 1.3262711
1.095107 0.29383099 1.330969
1.146329 0.290483 1.3328871
1.153793 0.298538 1.330374
1.142123 0.29354799 1.338876
1.123516 0.290023 1.342762
1.1304539 0.28855699 1.3473769
1.14457 0.28934199 1.347471
1.167774 0.28513601 1.348864
1.2928751 0.289653 1.349093
1.1268359 0.290371 1.345037
1.196677 0.28556299 1.351487
1.313961 0.28909501 1.351343
1.193975 0.27650499 1.3590519
1.118784 0.28356701 1.3558789
1.150076 0.28184 1.356553
1.155966 0.28008699 1.3574671
1.326504 0.28459501 1.358811
1.129758 0.27817199 1.3645231
1.132799 0.27794501 1.361158
1.137678 0.27775499 1.3639669
1.156285 0.27654001 1.366352
1.339047 0.280094 1.366279
1.141752 0.274975 1.37043
1.1737289 0.27375299 1.370499
1.19348 0.274405 1.37485
1.180843 0.267634 1.377834
1.2520961 0.27499601 1.375802
1.17476 0.25714001 1.380327
1.181459 0.269265 1.383608
1.306772 0.266918 1.383118
1.27083 0.27195999 1.3817101
1.168332 0.26345301 1.3857141
1.325074 0.26975399 1.387014
1.182328 0.251481 1.3901269
1.208405 0.26030701 1.3944679
1.2270581 0.264447 1.391646
1.282786 0.266866 1.3902479
1.223923 0.248162 1.3980809
1.173617 0.257716 1.397727
1.244333 0.25990799 1.398065
1.294741 0.26177201 1.398787
1.196236 0.25510299 1.403334
1.218923 0.244894 1.409699
1.187619 0.24793801 1.405069
1.232496 0.25381601 1.407872
1.223583 0.24583 1.4145
1.216091 0.25083801 1.4135931
1.254847 0.25024799 1.4105361
1.239462 0.23346201 1.418328
1.211036 0.23878901 1.418025
1.1847939 0.24673 1.419776
1.20812 0.249292 1.41579
1.2206579 0.247724 1.41768
1.211264 0.24056201 1.423475
1.195998 0.2456415 1.4219151
1.209359 0.23272599 1.428501
1.2088211 0.241632 1.427487
1.198945 0.235294 1.4324501
1.20834 0.237519 1.433001
1.2391911 0.231004 1.435064
1.24386 0.233712 1.4382401
1.250919 0.23599701 1.438467
1.207459 0.231177 1.444429
1.267851 0.22120801 1.446963
1.2316461 0.228724 1.4465135
1.238946 0.228521 1.452029
1.2977459 0.22428299 1.4598351
1.282915 0.22629 1.457839
1.267835 0.21864299 1.464252
1.2618181 0.22485 1.460429
1.244123 0.21462899 1.4677734
1.27069 0.219998 1.467968
1.3149101 0.216658 1.469707
1.269152 0.2215385 1.468843
1.230418 0.210199 1.474866
1.246143 0.2068 1.479695
1.297368 0.20848601 1.476725
1.231257 0.210528 1.476233
1.279736 0.215607 1.479131
1.2360179 0.186799 1.484604
1.244482 0.197614 1.480683
1.3210469 0.197212 1.483881
1.2712981 0.21390399 1.480252
1.266451 0.197328 1.4870729
1.2841181 0.207332 1.489965
1.297503 0.205778 1.494518
1.248304 0.17990699 1.495098
1.270655 0.202832 1.498445
1.28502 0.19902299 1.50278
1.284542 0.20023599 1.503961
1.275547 0.178679 1.509446
1.298902 0.19217999 1.512665
1.336735 0.196895 1.511182
1.314953 0.18965 1.517251
1.318377 0.183174 1.523111
1.32786 0.181245 1.527238
1.328698 0.17754 1.5340019
1.346099 0.178767 1.530846
1.292969 0.182624 1.532974
1.352528 0.17821801 1.546252
