# .PCD v0.7 - Point Cloud Data file format
VERSION 0.7
FIELDS x y z
SIZE 4 4 4
TYPE F F F
COUNT 1 1 1
WIDTH 1451
HEIGHT 1
VIEWPOINT 0 0 0 1 0 0 0
POINTS 1451
DATA ascii
-0.26129499 0.99592203 -0.61045599
-0.245533 0.995731 -0.61452901
-0.22043601 0.99851799 -0.61098552
-0.124461 0.996719 -0.61194497
-0.249339 1.003835 -0.61262399
-0.25345999 1.0124 -0.61485201
-0.198284 1.010805 -0.61355299
-0.26362401 1.024425 -0.61119097
-0.24315301 1.0282201 -0.61261398
-0.221158 1.026765 -0.61036903
-0.20613299 1.026544 -0.61061299
-0.123407 1.025045 -0.61196202
-0.25217599 1.031235 -0.61351901
-0.23570099 1.031113 -0.61296499
-0.27775699 1.0385261 -0.61003298
-0.23129199 1.046801 -0.61312997
-0.314172 1.05085 -0.61153197
-0.29263899 1.0523469 -0.61497998
-0.26599699 1.053344 -0.61188197
-0.28035101 1.06476 -0.610668
-0.25488299 1.0781699 -0.614784
-0.27099499 1.115212 -0.61443102
-0.205073 0.88618499 -0.60811502
-0.148542 0.88926798 -0.60719299
-0.139962 0.88971198 -0.60995901
-0.090264998 0.88722998 -0.60834199
-0.20421401 0.89974397 -0.60821998
-0.170644 0.89737201 -0.60776001
-0.105446 0.89586502 -0.60791498
-0.096372999 0.89514297 -0.60992801
-0.161973 0.906335 -0.60622698
-0.141247 0.90862799 -0.609326
-0.119455 0.90512401 -0.60607201
-0.088841997 0.91496998 -0.60577899
-0.241098 0.924061 -0.60994297
-0.21379399 0.92363602 -0.60983598
-0.205965 0.923935 -0.608729
-0.18718 0.92429602 -0.60687
-0.17161199 0.921682 -0.60842699
-0.166062 0.92559099 -0.60889
-0.17717201 0.93844402 -0.60548103
-0.19618 0.94310302 -0.60726202
-0.186389 0.94930601 -0.60950899
-0.104287 0.94890302 -0.609164
-0.186803 0.95147097 -0.60707802
-0.165512 0.95277703 -0.60911399
-0.20700499 0.95671099 -0.60713297
-0.120793 0.96351999 -0.60743999
-0.198798 0.96787101 -0.60782099
-0.190266 0.96801901 -0.60952598
-0.123962 0.97233498 -0.60539401
-0.18642101 0.97911 -0.60730499
-0.263935 0.98724002 -0.60908401
-0.207909 0.985425 -0.607593
-0.238685 0.99036503 -0.60558897
-0.17618801 0.99084502 -0.60806602
-0.206459 0.99860197 -0.60963601
-0.139396 0.99663401 -0.60549402
-0.123527 0.99995399 -0.60606003
-0.20713601 1.00076 -0.606359
-0.20768 1.00589 -0.605474
-0.26615301 1.012411 -0.60958999
-0.19475199 1.011966 -0.60614198
-0.17540701 1.017072 -0.60909498
-0.211219 1.0239021 -0.60870498
-0.121165 1.022035 -0.608374
-0.275327 1.029101 -0.60859901
-0.22408 1.028095 -0.60926801
-0.215278 1.032617 -0.60598803
-0.207467 1.034461 -0.60570103
-0.19455101 1.038419 -0.60719401
-0.243292 1.042098 -0.60677499
-0.27482101 1.047598 -0.60620499
-0.212671 1.0475791 -0.608648
-0.25517201 1.052117 -0.60704499
-0.233032 1.052405 -0.60786599
-0.121358 1.052027 -0.60883498
-0.207251 1.063511 -0.60592401
-0.245643 1.068568 -0.60740101
-0.233043 1.068759 -0.60691398
-0.30970499 1.07278 -0.609115
-0.225591 1.079435 -0.60597998
-0.25521901 1.081382 -0.60699803
-0.31865799 1.096893 -0.60858703
-0.30006799 1.096963 -0.60914898
-0.233147 1.096313 -0.60802698
-0.31247801 1.102354 -0.60981101
-0.30418599 1.108444 -0.60563803
-0.29409501 1.107213 -0.60607398
-0.25039199 1.106863 -0.608845
-0.16743 0.88523901 -0.60106301
-0.115859 0.88738298 -0.60451698
-0.19631501 0.89364898 -0.60004598
-0.19347601 0.89104402 -0.60416698
-0.188667 0.89061099 -0.60359901
-0.138101 0.89820099 -0.601852
-0.226291 0.90238899 -0.60204703
-0.086071998 0.90602303 -0.60006899
-0.189768 0.914657 -0.60418302
-0.157215 0.911147 -0.60377097
-0.116993 0.91182297 -0.60498899
-0.223821 0.91945601 -0.60143501
-0.143043 0.91971397 -0.60267699
-0.13496301 0.92281997 -0.60106701
-0.22878399 0.92803001 -0.60292
-0.116964 0.93111199 -0.60215503
-0.109731 0.93176001 -0.600178
-0.099615999 0.93256003 -0.60249501
-0.086460002 0.93088502 -0.60065001
-0.155724 0.93702501 -0.60329199
-0.106841 0.93503398 -0.60391998
-0.14317101 0.9432165 -0.601987
-0.17927501 0.94902599 -0.603374
-0.187038 0.95449448 -0.6018315
-0.16646899 0.95428801 -0.60053599
-0.136254 0.95047301 -0.60168999
-0.099661 0.95202303 -0.60403699
-0.086842999 0.95613903 -0.60127002
-0.228223 0.96499401 -0.60429299
-0.14422899 0.96858799 -0.60096502
-0.17833699 0.97489202 -0.60431999
-0.14063001 0.97060299 -0.60453898
-0.187757 0.982544 -0.600959
-0.165979 0.98212498 -0.60047501
-0.182015 0.98627102 -0.604563
-0.241776 0.99232 -0.603351
-0.133551 0.992024 -0.60129797
-0.25942001 1.007031 -0.60002899
-0.192377 1.011613 -0.60013199
-0.187442 1.010854 -0.60090202
-0.165481 1.01043 -0.60041302
-0.213245 1.019856 -0.60278797
-0.243946 1.020793 -0.60402799
-0.20389301 1.0200191 -0.60312003
-0.29593399 1.0293601 -0.60386503
-0.286773 1.029091 -0.60465097
-0.261861 1.032822 -0.600568
-0.25293201 1.032208 -0.60029101
-0.28729901 1.040071 -0.60128403
-0.209269 1.040064 -0.60132802
-0.20313901 1.041012 -0.60233098
-0.29719499 1.045801 -0.60234499
-0.203198 1.045884 -0.60481697
-0.22857399 1.053919 -0.60308599
-0.26433599 1.059014 -0.60113198
-0.289866 1.069118 -0.60189301
-0.231471 1.069761 -0.60174799
-0.30030999 1.07335 -0.60325903
-0.25380701 1.070192 -0.60224497
-0.19603699 1.070734 -0.60496998
-0.229004 1.083127 -0.60372102
-0.211477 1.08676 -0.60021001
-0.27835399 1.094453 -0.604509
-0.25143701 1.0903209 -0.601888
-0.292474 1.098662 -0.60252899
-0.229141 1.096944 -0.60152298
-0.23859601 1.101858 -0.60421097
-0.23375399 1.101632 -0.60373199
-0.135056 0.87976402 -0.59921497
-0.085704997 0.88147497 -0.59944999
-0.174419 0.88752699 -0.59723002
-0.116537 0.88980401 -0.59514898
-0.189191 0.89413798 -0.59866399
-0.156495 0.891343 -0.59765399
-0.099344 0.89808702 -0.59753001
-0.136329 0.903943 -0.59961402
-0.15868901 0.90654999 -0.59792298
-0.109485 0.90980798 -0.59877402
-0.101639 0.90609503 -0.59522402
-0.092086002 0.90528601 -0.59667498
-0.164708 0.911125 -0.59547502
-0.190833 0.91828901 -0.59910399
-0.11823 0.91575497 -0.59600002
-0.102694 0.92567801 -0.59917402
-0.2184995 0.933878 -0.59511554
-0.174734 0.93290502 -0.59747499
-0.12587699 0.93097299 -0.59774202
-0.102669 0.93087697 -0.59565699
-0.091380998 0.93276799 -0.596726
-0.164602 0.937751 -0.59598202
-0.111211 0.93628001 -0.59957099
-0.158986 0.94004202 -0.59534299
-0.11995 0.94210303 -0.59686399
-0.118433 0.94963402 -0.59529001
-0.10614 0.94867301 -0.59696901
-0.165015 0.95185697 -0.59816003
-0.13417099 0.95302498 -0.59584701
-0.220779 0.959396 -0.59562898
-0.173912 0.959185 -0.598342
-0.156891 0.95652097 -0.59973198
-0.103732 0.955971 -0.596035
-0.24851801 0.96159899 -0.59511101
-0.220276 0.96075702 -0.59566599
-0.164497 0.96483999 -0.59653598
-0.17925601 0.96959502 -0.59896803
-0.157901 0.965644 -0.59622103
-0.121914 0.966941 -0.59516901
-0.100623 0.968247 -0.597206
-0.117884 0.97497201 -0.59518999
-0.21703 0.97549701 -0.595617
-0.257025 0.98156101 -0.59943599
-0.123952 0.98441797 -0.59942698
-0.222258 0.98871702 -0.596246
-0.184366 0.98727798 -0.59814501
-0.120994 0.994708 -0.59529799
-0.25268301 1.002436 -0.59869802
-0.21950699 1.0023021 -0.59647697
-0.25080001 1.006683 -0.59982401
-0.12156 1.009584 -0.59943497
-0.143521 1.010007 -0.59992403
-0.111185 1.01949 -0.59914601
-0.258351 1.024051 -0.59941101
-0.194086 1.022735 -0.59772199
-0.120059 1.022946 -0.595438
-0.23309 1.027503 -0.59741002
-0.23192701 1.043384 -0.59624302
-0.27370399 1.049011 -0.59531599
-0.11062 1.0488811 -0.59920597
-0.23255301 1.054826 -0.59836203
-0.119108 1.051661 -0.59557998
-0.211557 1.059545 -0.59922397
-0.31906301 1.062501 -0.59609097
-0.229508 1.062778 -0.597794
-0.22486199 1.067868 -0.59955102
-0.21282201 1.065227 -0.59536701
-0.27603501 1.074981 -0.59569103
-0.267041 1.071048 -0.59617001
-0.28538099 1.075929 -0.59548998
-0.234924 1.089434 -0.59522903
-0.322346 1.090179 -0.59695703
-0.300699 1.092106 -0.59974301
-0.256639 1.091943 -0.59986901
-0.212359 1.092205 -0.59666401
-0.28805 1.1026551 -0.59603101
-0.27839699 1.101356 -0.59608901
-0.127177 0.87398005 -0.59155649
-0.15536299 0.884009 -0.59029299
-0.180877 0.88810903 -0.590855
-0.209819 0.89748901 -0.59313202
-0.12880901 0.89911997 -0.59218198
-0.087453 0.89875299 -0.592107
-0.14570899 0.90087998 -0.59083098
-0.184653 0.90743798 -0.59111601
-0.206544 0.91485101 -0.59292698
-0.182695 0.91247803 -0.59131902
-0.16005599 0.91482902 -0.59448397
-0.15679599 0.91091198 -0.590819
-0.124502 0.91654199 -0.59219402
-0.21218801 0.92309397 -0.59393901
-0.1399 0.92019898 -0.59175599
-0.122259 0.92277598 -0.590285
-0.086212002 0.92458099 -0.59285998
-0.19474401 0.92591399 -0.59050101
-0.131782 0.92591798 -0.59157199
-0.093835004 0.92605603 -0.59071302
-0.211156 0.93472898 -0.59423602
-0.176622 0.93301898 -0.594648
-0.15825801 0.93821502 -0.59131801
-0.208983 0.94097197 -0.59368497
-0.125149 0.94134301 -0.59276003
-0.21459199 0.94909501 -0.594769
-0.192525 0.95498902 -0.59106398
-0.16881201 0.952142 -0.592089
-0.14740001 0.95242101 -0.59288299
-0.104576 0.95297903 -0.59447199
-0.184765 0.96109301 -0.59210598
-0.164497 0.964329 -0.59109497
-0.21146201 0.96749097 -0.59444797
-0.143205 0.965635 -0.59313202
-0.189731 0.97934097 -0.59113199
-0.14655299 0.97990298 -0.59273303
-0.143291 0.98029202 -0.59315097
-0.103375 0.98046499 -0.59433502
-0.23151299 0.99998897 -0.59417498
-0.243641 1.00137 -0.59063399
-0.23544601 1.000954 -0.59005898
-0.18923099 1.007285 -0.59097499
-0.14569201 1.007852 -0.59258902
-0.241375 1.019002 -0.59022403
-0.27142 1.023363 -0.59488499
-0.23746499 1.026437 -0.59045398
-0.171076 1.02895 -0.59365898
-0.222289 1.038559 -0.59164602
-0.21197501 1.037033 -0.59204
-0.203162 1.038725 -0.59345102
-0.14517 1.036847 -0.59472799
-0.144816 1.036272 -0.59244299
-0.122863 1.036558 -0.59325701
-0.28021899 1.0407521 -0.59315699
-0.24428301 1.040014 -0.59389102
-0.21901099 1.04019 -0.59463298
-0.21104699 1.0446399 -0.59003299
-0.239527 1.05224 -0.59079301
-0.19039799 1.050458 -0.59163499
-0.27964801 1.059212 -0.59011698
-0.233767 1.059124 -0.59488398
-0.20827299 1.059642 -0.59297299
-0.123854 1.064456 -0.59043199
-0.270026 1.065456 -0.59467101
-0.244858 1.06958 -0.59390599
-0.28274 1.08732 -0.59089899
-0.207718 1.086993 -0.59387398
-0.32352301 1.1085989 -0.59237099
-0.091458 0.87635797 -0.58972502
-0.136244 0.88057202 -0.58820301
-0.14671201 0.89047402 -0.58753902
-0.20116299 0.90441501 -0.58541501
-0.197347 0.90267801 -0.58763498
-0.143112 0.90953797 -0.58807302
-0.16062599 0.91790599 -0.58865601
-0.096239001 0.915672 -0.58696997
-0.153616 0.92285001 -0.58782202
-0.22850101 0.93071699 -0.58583498
-0.14390001 0.934075 -0.58856601
-0.21386801 0.94319999 -0.58692402
-0.1140445 0.9428305 -0.5856595
-0.097217001 0.943268 -0.58748001
-0.178275 0.94994402 -0.58722299
-0.156827 0.94852501 -0.58503401
-0.152639 0.94886202 -0.58862501
-0.103986 0.94673699 -0.58743
-0.088150002 0.950158 -0.586124
-0.23110899 0.95695901 -0.58653802
-0.200914 0.957183 -0.58861798
-0.215143 0.96783698 -0.58744299
-0.092000999 0.96780801 -0.58708799
-0.10286 0.97338599 -0.58819997
-0.23345099 0.97586602 -0.58969498
-0.19991 0.97946697 -0.58941102
-0.16263001 0.97616702 -0.58687401
-0.123226 0.97563702 -0.58949798
-0.090760998 0.97844201 -0.58512598
-0.233758 0.98360199 -0.58724701
-0.202739 0.98511398 -0.58914101
-0.174202 0.98663902 -0.58873099
-0.238732 0.99207002 -0.58941001
-0.185397 0.990758 -0.58913702
-0.141559 0.99061799 -0.58528298
-0.092419997 0.993545 -0.58763802
-0.210342 0.99754202 -0.58965099
-0.20253 0.997253 -0.58728999
-0.189171 0.99509501 -0.585127
-0.18063501 0.99813002 -0.58655602
-0.209181 1.004624 -0.58723903
-0.2001 1.008046 -0.58941001
-0.236449 1.0106471 -0.587955
-0.205485 1.01274 -0.588669
-0.12189 1.011837 -0.58851397
-0.185 1.018963 -0.58922499
-0.189932 1.024376 -0.58540601
-0.211281 1.026843 -0.58996803
-0.18038701 1.0265549 -0.5869
-0.091422997 1.029461 -0.58657402
-0.247943 1.032807 -0.58695698
-0.209502 1.032028 -0.5862
-0.200294 1.037104 -0.58940101
-0.258237 1.043241 -0.58547801
-0.208939 1.059986 -0.587035
-0.25018701 1.061794 -0.58744901
-0.233422 1.0623441 -0.58751297
-0.26045299 1.069168 -0.58578098
-0.269366 1.070183 -0.58595401
-0.22821601 1.074106 -0.58518702
-0.30523899 1.085091 -0.58769798
-0.19113199 0.867414 -0.58350599
-0.15565699 0.87148702 -0.58137101
-0.16543899 0.88257003 -0.58166301
-0.19334701 0.89258999 -0.58421803
-0.17828999 0.89916098 -0.58069801
-0.164597 0.896851 -0.584701
-0.16147 0.90259898 -0.58397198
-0.167145 0.90689802 -0.58205998
-0.098007999 0.90956497 -0.5801
-0.196024 0.929084 -0.584611
-0.179906 0.926184 -0.58114803
-0.102884 0.93688798 -0.58091199
-0.097101003 0.93635702 -0.580383
-0.123022 0.94267601 -0.58125198
-0.102029 0.94457698 -0.58470201
-0.116001 0.94780397 -0.58360797
-0.167428 0.96387398 -0.58036703
-0.140219 0.96239001 -0.58475798
-0.11126 0.96025699 -0.58288902
-0.18842299 0.96630001 -0.58485299
-0.170257 0.971071 -0.58214402
-0.153798 0.977301 -0.580751
-0.18322 0.98151201 -0.58203501
-0.14260501 0.98037398 -0.58356202
-0.168 0.99264801 -0.58060402
-0.227862 0.99570799 -0.58123899
-0.18144301 0.99926299 -0.581258
-0.15266401 1.003384 -0.58152401
-0.134672 1.003718 -0.58273298
-0.230069 1.021414 -0.58163899
-0.22199801 1.020666 -0.580616
-0.187637 1.022346 -0.582178
-0.165677 1.0219229 -0.581689
-0.14371599 1.0215 -0.58120102
-0.121755 1.021076 -0.58071202
-0.258919 1.026883 -0.580697
-0.180913 1.026958 -0.58196801
-0.189887 1.034665 -0.58188999
-0.13431001 1.032739 -0.58266801
-0.209466 1.051654 -0.58244598
-0.201736 1.0530699 -0.58402002
-0.143025 1.050374 -0.58096701
-0.11176 1.060775 -0.58032298
-0.22828799 1.066944 -0.58227998
-0.254006 1.081881 -0.58319998
-0.23166899 1.08145 -0.58270299
-0.223446 1.080029 -0.58108401
-0.206384 0.87488002 -0.57608497
-0.083963998 0.87070298 -0.57747
-0.169848 0.87998402 -0.57529402
-0.176875 0.88769102 -0.57530302
-0.132623 0.909446 -0.57868803
-0.199719 0.93717098 -0.576819
-0.142057 0.93861502 -0.57507402
-0.136535 0.93735301 -0.57573199
-0.098826997 0.93714201 -0.575647
-0.092482999 0.944269 -0.57846802
-0.21634699 0.94552398 -0.57974303
-0.13023201 0.95284301 -0.57878202
-0.200894 0.96176499 -0.57726598
-0.146433 0.961447 -0.575881
-0.13054401 0.96481901 -0.57977402
-0.117075 0.961299 -0.57757598
-0.100083 0.96261901 -0.57602501
-0.216214 0.978926 -0.57860702
-0.162873 0.97662699 -0.57913202
-0.14218999 0.97718698 -0.575113
-0.13094001 0.97804499 -0.57920802
-0.099606998 0.97979897 -0.57918698
-0.121881 0.98698598 -0.57811898
-0.116308 0.98893398 -0.57781601
-0.188163 0.99368101 -0.57561898
-0.14683001 0.990201 -0.57608002
-0.14039101 0.99218202 -0.57639903
-0.10284 0.99178702 -0.57594103
-0.101648 0.997419 -0.576168
-0.22622199 1.000633 -0.57931298
-0.183189 1.0005029 -0.57511699
-0.098503001 1.007673 -0.579184
-0.18743899 1.020887 -0.57635403
-0.077876002 1.022935 -0.57528698
-0.228265 1.029175 -0.57979399
-0.10335 1.0252301 -0.57681501
-0.140674 1.0333641 -0.57504702
-0.097379997 1.036019 -0.579189
-0.078125998 1.0440249 -0.57911998
-0.077059999 1.048618 -0.57660449
-0.28511 1.052403 -0.57771599
-0.20018999 1.050905 -0.576289
-0.228154 1.055655 -0.579521
-0.253351 1.064436 -0.576419
-0.244872 1.063354 -0.57586998
-0.186244 1.062497 -0.57607597
-0.139897 1.062167 -0.57501698
-0.118067 1.063506 -0.577106
-0.27405599 1.077569 -0.57745999
-0.28813201 1.080003 -0.57844001
-0.268181 1.082942 -0.57728601
-0.245998 1.081475 -0.57502198
-0.093520999 0.86470097 -0.57308
-0.14102601 0.89196199 -0.57310802
-0.17931999 0.89924997 -0.57472003
-0.15159599 0.90131903 -0.57280201
-0.145437 0.90135199 -0.57023001
-0.201217 0.91431302 -0.57110399
-0.166445 0.91385603 -0.57029003
-0.142876 0.91249299 -0.57446998
-0.091551997 0.91131902 -0.57075399
-0.206011 0.91518199 -0.57078397
-0.142892 0.91772801 -0.57378101
-0.18089201 0.92343801 -0.57498699
-0.159279 0.92947698 -0.57108599
-0.13855299 0.93177003 -0.57418501
-0.201214 0.93987799 -0.57011902
-0.098321997 0.94309199 -0.57490098
-0.107865 0.94870502 -0.57223499
-0.101675 0.94538701 -0.57429898
-0.16219001 0.95003599 -0.57452101
-0.119715 0.95393199 -0.57004702
-0.20268901 0.955598 -0.57051098
-0.158865 0.95667499 -0.57132697
-0.13797 0.958987 -0.57445198
-0.101182 0.95518398 -0.57054698
-0.168281 0.96337098 -0.57384598
-0.149013 0.96065599 -0.57255203
-0.18887 0.96687502 -0.574866
-0.18313999 0.97288001 -0.57470298
-0.220154 0.979173 -0.57366401
-0.1635915 0.97689497 -0.57400298
-0.109519 0.97550499 -0.57291597
-0.15844201 0.984272 -0.57151598
-0.102203 0.98335397 -0.57095599
-0.15973 0.988056 -0.570122
-0.14799 0.98715299 -0.57322502
-0.137375 0.98660302 -0.57466602
-0.099982001 0.98518199 -0.57157999
-0.094492003 0.98679602 -0.57141602
-0.16760699 0.99094403 -0.57353902
-0.096066996 0.99029601 -0.57190299
-0.20670301 0.99703097 -0.57220799
-0.170068 0.99838603 -0.57314199
-0.16290601 1.003722 -0.57302201
-0.111201 1.0027111 -0.57359701
-0.097615004 1.005299 -0.57335001
-0.097156495 1.0125196 -0.571922
-0.214173 1.01571 -0.57217401
-0.188692 1.018701 -0.57242697
-0.166922 1.018985 -0.57323402
-0.203834 1.024721 -0.57098001
-0.16904999 1.024827 -0.57385701
-0.18396799 1.030708 -0.57090503
-0.162321 1.0320359 -0.57297599
-0.213734 1.039062 -0.57187498
-0.104313 1.041006 -0.57169902
-0.210131 1.046927 -0.57129598
-0.144272 1.047784 -0.57373899
-0.122319 1.04807 -0.57455301
-0.223419 1.050352 -0.572923
-0.204051 1.053195 -0.57133001
-0.206815 1.056663 -0.57407802
-0.214711 1.068958 -0.57203603
-0.205166 1.072257 -0.57031298
-0.246822 1.077747 -0.57321203
-0.23193599 1.075626 -0.57014
-0.265798 1.080283 -0.570858
-0.162844 0.86987698 -0.56501001
-0.189365 0.87034398 -0.56770498
-0.098192997 0.87345701 -0.56948203
-0.15270101 0.87541401 -0.56685001
-0.160403 0.882792 -0.56638902
-0.164297 0.89364499 -0.56516498
-0.198093 0.90389502 -0.56923503
-0.154713 0.90103698 -0.56740397
-0.162084 0.90837502 -0.56766748
-0.165759 0.91779202 -0.56536198
-0.18557 0.93114197 -0.56671298
-0.161093 0.93455398 -0.568896
-0.127939 0.93888003 -0.56535202
-0.196291 0.94768 -0.56939203
-0.11328 0.95294303 -0.56603003
-0.22153699 0.95631802 -0.56525099
-0.186644 0.95569301 -0.56708902
-0.120791 0.95932698 -0.567644
-0.104442 0.95659399 -0.56690902
-0.179377 0.96144402 -0.56896502
-0.157929 0.96002501 -0.56677699
-0.129733 0.96540499 -0.56598097
-0.11638 0.97184098 -0.56880897
-0.114421 0.97820097 -0.56618899
-0.22343799 0.98105198 -0.56540298
-0.119168 0.981089 -0.56535298
-0.17939401 0.98963302 -0.568793
-0.157767 0.98820198 -0.56658602
-0.122622 0.98637903 -0.568187
-0.104488 0.98530698 -0.56703299
-0.187185 0.99342799 -0.56510299
-0.140981 0.99216098 -0.56615901
-0.116982 0.99739498 -0.569197
-0.145556 1.002632 -0.56821197
-0.184431 1.009004 -0.56853497
-0.118151 1.0081969 -0.56592298
-0.104535 1.014505 -0.567159
-0.17941201 1.018297 -0.56861901
-0.157602 1.016855 -0.56639302
-0.265288 1.020206 -0.56787997
-0.227303 1.0316989 -0.56580299
-0.183714 1.03537 -0.56926101
-0.117113 1.035708 -0.56646597
-0.104583 1.044192 -0.56727999
-0.268134 1.047354 -0.56852901
-0.185688 1.046594 -0.56605899
-0.23733599 1.05869 -0.56688303
-0.205385 1.0581501 -0.56875199
-0.18298499 1.062138 -0.56999302
-0.26665801 1.066077 -0.56525397
-0.200332 1.065129 -0.56570899
-0.27102399 1.0749151 -0.56918103
-0.083442003 0.85936898 -0.56383801
-0.18131401 0.86250198 -0.56005502
-0.087435 0.86941302 -0.560435
-0.181621 0.898996 -0.56032097
-0.19057401 0.90964198 -0.561593
-0.13754199 0.92036998 -0.56384301
-0.13154399 0.92000097 -0.56072402
-0.192462 0.93416703 -0.56184399
-0.18608201 0.934232 -0.56049401
-0.153133 0.932212 -0.56051397
-0.132792 0.94467998 -0.56087601
-0.139055 0.94538897 -0.56417298
-0.103075 0.94809699 -0.56265002
-0.095753998 0.94792801 -0.56281197
-0.093585998 0.955769 -0.56020999
-0.20590401 0.97310102 -0.56348598
-0.140604 0.97072202 -0.56444597
-0.105112 0.97378802 -0.56084698
-0.092412002 0.97041702 -0.563658
-0.126918 0.97661299 -0.56370199
-0.102064 0.97564399 -0.56226802
-0.19630399 0.984384 -0.56244898
-0.161249 0.98841399 -0.56172901
-0.22096699 0.99036098 -0.56276703
-0.226739 0.998622 -0.564969
-0.12587801 0.99900001 -0.56104797
-0.106423 0.99974298 -0.56112701
-0.093961 0.99758399 -0.56426698
-0.170434 1.004765 -0.56266201
-0.12572201 1.003235 -0.56430501
-0.22654 1.015626 -0.56017601
-0.16329201 1.026209 -0.56211197
-0.12712 1.02771 -0.56132799
-0.114149 1.028899 -0.56006902
-0.095537998 1.02516 -0.56486899
-0.083213001 1.025106 -0.56311202
-0.187832 1.033838 -0.56345499
-0.16587199 1.033415 -0.56296599
-0.13660701 1.03155 -0.560139
-0.121951 1.0325691 -0.561988
-0.26370901 1.038407 -0.56473398
-0.20952401 1.038378 -0.56396198
-0.177965 1.03904 -0.56494498
-0.108255 1.037029 -0.560471
-0.232261 1.041188 -0.56272298
-0.13544101 1.0445319 -0.563945
-0.162413 1.052707 -0.56278902
-0.209663 1.063244 -0.56356299
-0.228863 1.072961 -0.56436801
-0.25838101 1.075606 -0.56124002
-0.081407003 0.86228597 -0.55819398
-0.094850004 0.87361997 -0.55584902
-0.098201998 0.87596202 -0.55747998
-0.081642002 0.885975 -0.55874699
-0.156479 0.91216302 -0.558065
-0.150627 0.91214597 -0.55573702
-0.081831001 0.921799 -0.559636
-0.21086 0.92594802 -0.556153
-0.17142101 0.92511302 -0.55660802
-0.14771 0.92920297 -0.55857301
-0.152014 0.93655998 -0.555821
-0.141288 0.94878799 -0.55989099
-0.097813003 0.94717199 -0.55619299
-0.21289501 0.95059103 -0.55636603
-0.206405 0.95067197 -0.55562598
-0.103111 0.954615 -0.55893803
-0.208196 0.97536498 -0.555709
-0.167666 0.98982501 -0.557998
-0.141175 0.98873901 -0.55709398
-0.22516499 0.99050999 -0.55988401
-0.20989101 0.99361098 -0.55585098
-0.144335 0.99903899 -0.55702603
-0.136006 0.99836397 -0.55680698
-0.210006 1.00045 -0.55582398
-0.13749 1.004072 -0.55964601
-0.114939 1.000695 -0.55995703
-0.102305 1.003109 -0.55754602
-0.243264 1.006472 -0.55556601
-0.210668 1.008947 -0.55527502
-0.18155199 1.012386 -0.55757201
-0.116169 1.0145431 -0.55791599
-0.248441 1.015195 -0.55876303
-0.102811 1.017054 -0.559062
-0.100926 1.023998 -0.55649698
-0.095911004 1.024212 -0.55544698
-0.219165 1.0267971 -0.55710799
-0.246029 1.033695 -0.556027
-0.183726 1.032962 -0.55989802
-0.14968701 1.031659 -0.55818999
-0.212584 1.0375561 -0.55555898
-0.25115699 1.042304 -0.55934101
-0.25391701 1.069827 -0.55992299
-0.193976 0.881437 -0.552338
-0.175136 0.90410298 -0.55240101
-0.19628499 0.90690702 -0.552773
-0.159394 0.91229898 -0.55180401
-0.167184 0.91967601 -0.55190098
-0.17691199 0.92858702 -0.55258602
-0.17095 0.92858601 -0.55086899
-0.16147199 0.93839997 -0.55224597
-0.20100699 0.95902699 -0.55367303
-0.16358399 0.964899 -0.55269003
-0.191654 0.96702898 -0.55330902
-0.124708 0.96501899 -0.55498099
-0.140398 0.97584403 -0.550825
-0.134624 0.97705603 -0.55053997
-0.20342401 0.98568499 -0.55412799
-0.119766 0.98931497 -0.55126601
-0.16573 0.991799 -0.55312902
-0.090287 0.99395299 -0.55151999
-0.1062 0.995368 -0.55388498
-0.136485 1.0040751 -0.551054
-0.119089 1.007695 -0.55318499
-0.149553 1.0146461 -0.55114102
-0.12096 1.015049 -0.55133098
-0.177874 1.021848 -0.55054098
-0.202342 1.0314341 -0.552279
-0.166383 1.030401 -0.55468601
-0.118615 1.035602 -0.55342299
-0.232609 1.042732 -0.55098999
-0.182936 1.0424531 -0.55258399
-0.16128901 1.043781 -0.55465502
-0.150989 1.043485 -0.55133897
-0.17760301 1.0504709 -0.55058402
-0.255936 1.056834 -0.55281502
-0.202555 1.060691 -0.55195498
-0.086404003 0.85273999 -0.545973
-0.077959001 0.85635698 -0.54825097
-0.082466997 0.87046599 -0.54653001
-0.086801998 0.89750099 -0.54588902
-0.081270002 0.89636803 -0.54627502
-0.18636701 0.91030103 -0.54533798
-0.18856101 0.93600202 -0.54578698
-0.158144 0.94354898 -0.54673398
-0.197345 0.94501102 -0.54710698
-0.191273 0.94502598 -0.54600102
-0.183598 0.95438701 -0.54509997
-0.13805901 0.95563197 -0.54617101
-0.094407 0.959499 -0.54524201
-0.190786 0.96210003 -0.54625398
-0.192954 0.969679 -0.54601401
-0.163855 0.96828699 -0.54925799
-0.087722003 0.97060901 -0.54709399
-0.210915 0.984438 -0.549707
-0.145596 0.98180902 -0.54938
-0.19304401 0.98860002 -0.54673302
-0.162947 0.99484301 -0.549748
-0.201259 0.99538898 -0.54749399
-0.22572 1.001796 -0.54692602
-0.145592 1.000617 -0.54980999
-0.139357 1.003948 -0.54875499
-0.21218801 1.009511 -0.54992503
-0.191149 1.005345 -0.54816997
-0.11149 1.010996 -0.545834
-0.10668 1.014003 -0.54545802
-0.19403701 1.019329 -0.54924399
-0.122067 1.015121 -0.54810703
-0.203269 1.021093 -0.54764301
-0.23158699 1.0270441 -0.54629701
-0.228349 1.028983 -0.54732102
-0.158723 1.028549 -0.54782701
-0.139048 1.0318249 -0.548958
-0.112857 1.037437 -0.54600799
-0.194839 1.0488141 -0.54922003
-0.236258 1.053202 -0.54565197
-0.175018 1.051121 -0.54792202
-0.25338101 1.059536 -0.54601401
-0.066799 0.85410649 -0.5422945
-0.086280003 0.855627 -0.54486698
-0.076580003 0.85747403 -0.54136002
-0.081588998 0.86787802 -0.54390103
-0.17695799 0.87690097 -0.54395801
-0.086920999 0.88028502 -0.542772
-0.102882 0.88722301 -0.54188001
-0.16136301 0.92300802 -0.54332697
-0.079020001 0.93332201 -0.54339999
-0.176396 0.936369 -0.54292601
-0.16304401 0.94783902 -0.54347903
-0.077712998 0.959418 -0.54377502
-0.177404 0.96095699 -0.54313201
-0.14604101 0.96022302 -0.54405099
-0.154495 0.96701598 -0.54382199
-0.094687998 0.967269 -0.54195303
-0.164745 0.97306001 -0.54365802
-0.17843799 0.98586202 -0.54330301
-0.102256 0.98694599 -0.543854
-0.15649199 0.993756 -0.54428601
-0.12661999 0.99500799 -0.54065001
-0.17163099 1.001742 -0.54106498
-0.15962499 1.000201 -0.54432601
-0.13118701 1.001873 -0.54002601
-0.214746 1.005173 -0.54052699
-0.21527199 1.011402 -0.54111898
-0.14068 1.0109251 -0.54082799
-0.172867 1.0168819 -0.54471999
-0.101229 1.0150549 -0.54332
-0.179914 1.024269 -0.54002702
-0.161799 1.021881 -0.54196399
-0.121136 1.026376 -0.54223502
-0.108006 1.028809 -0.54477501
-0.173228 1.030292 -0.541233
-0.096455 1.030968 -0.54284698
-0.224158 1.037883 -0.54204297
-0.217142 1.036962 -0.541152
-0.152141 1.043879 -0.540097
-0.18802799 1.045331 -0.54473102
-0.17349 1.0463459 -0.54465902
-0.055819999 0.85610098 -0.53924102
-0.205265 0.901079 -0.53888899
-0.171966 0.93106598 -0.53680599
-0.181796 0.93943202 -0.53784901
-0.17614099 0.93937999 -0.53637701
-0.099102996 0.94189602 -0.53995001
-0.18362699 0.96438301 -0.53795999
-0.15908299 0.97351402 -0.53580701
-0.196665 0.97836602 -0.53952998
-0.12970001 0.97610497 -0.53991503
-0.17619599 0.98358899 -0.53761601
-0.156149 0.98000699 -0.53589898
-0.154663 0.98469901 -0.53627902
-0.130371 0.98237503 -0.53571701
-0.14548101 0.98734403 -0.536847
-0.208177 0.99712002 -0.53828698
-0.132277 1.009607 -0.53601098
-0.188127 1.013306 -0.53594899
-0.134637 1.010125 -0.53894699
-0.10177 1.014431 -0.53915203
-0.187373 1.015389 -0.53817898
-0.141414 1.015816 -0.53549302
-0.217235 1.020929 -0.53604698
-0.210669 1.024271 -0.53861499
-0.126344 1.026247 -0.53629702
-0.15317699 1.039376 -0.53692597
-0.1341065 1.0378649 -0.53762496
-0.187613 1.0415339 -0.53533101
-0.16584399 1.0418169 -0.536138
-0.217566 1.048027 -0.53734797
-0.237914 1.0537651 -0.53617603
-0.093025997 0.83823502 -0.53041202
-0.073431998 0.84417599 -0.53435999
-0.057771001 0.84437102 -0.534347
-0.061995998 0.85733747 -0.53150904
-0.094513997 0.863195 -0.53073102
-0.076654002 0.86756599 -0.53123099
-0.090723999 0.87245399 -0.533445
-0.061041001 0.88281602 -0.531178
-0.096020997 0.88854402 -0.53106999
-0.075599998 0.89341497 -0.53114903
-0.097548999 0.91428399 -0.53142601
-0.091539003 0.921031 -0.533687
-0.16315401 0.95488501 -0.53295398
-0.143325 0.96658403 -0.53146601
-0.164086 0.97974598 -0.53305298
-0.198182 0.980551 -0.53141701
-0.233862 0.99499702 -0.53393501
-0.150589 0.99289501 -0.53431499
-0.14466301 0.991813 -0.53142798
-0.197898 1.000163 -0.53140903
-0.199919 1.0056731 -0.53135401
-0.16502 1.005004 -0.53319198
-0.159292 1.006729 -0.53355002
-0.18161801 1.012826 -0.531973
-0.141489 1.012275 -0.53433901
-0.195114 1.017261 -0.53123701
-0.15223099 1.018788 -0.534383
-0.146037 1.017359 -0.53132999
-0.23644701 1.021747 -0.53432101
-0.111986 1.025857 -0.53223503
-0.208262 1.032179 -0.53257799
-0.236633 1.038462 -0.53241903
-0.18165401 1.0416861 -0.531488
-0.239072 1.048906 -0.53471202
-0.067107998 0.83761299 -0.52846199
-0.085143 0.84051198 -0.52939701
-0.048154999 0.840657 -0.52792299
-0.086589001 0.86359203 -0.528292
-0.087312505 0.86694348 -0.52852798
-0.067129001 0.86571997 -0.52654201
-0.080039002 0.87911898 -0.52730298
-0.181568 0.88799399 -0.52859199
-0.086407997 0.89115602 -0.52511001
-0.079281002 0.90469003 -0.52728802
-0.080287002 0.907552 -0.52882898
-0.18378399 0.913513 -0.52884698
-0.15537 0.92613 -0.527825
-0.161008 0.93373501 -0.526752
-0.188315 0.96573502 -0.52938098
-0.150793 0.97165799 -0.52820998
-0.093060002 0.97106999 -0.52767098
-0.074881002 0.97103 -0.52741402
-0.169701 0.984065 -0.52870297
-0.201676 0.989703 -0.52574998
-0.190633 0.99244398 -0.52964801
-0.15284 0.99861097 -0.52846003
-0.171477 1.009685 -0.528714
-0.165436 1.008616 -0.52645302
-0.13173901 1.006592 -0.52657002
-0.15800001 1.011987 -0.526923
-0.21960001 1.016736 -0.52520299
-0.177111 1.029621 -0.52664
-0.166963 1.034287 -0.52631801
-0.222096 1.043857 -0.52552497
-0.204097 1.040324 -0.52588397
-0.066382997 0.83705002 -0.52256799
-0.037246998 0.83980697 -0.52004302
-0.078520998 0.85554498 -0.52167797
-0.068294004 0.86490899 -0.52330202
-0.093099996 0.86563998 -0.52107298
-0.077647001 0.86860502 -0.52368802
-0.076017998 0.92212099 -0.52264702
-0.17674699 0.94245499 -0.52171201
-0.18133099 0.95017499 -0.52188402
-0.097516999 0.953403 -0.52295798
-0.18294001 0.97486401 -0.52172202
-0.188546 0.97530699 -0.52311498
-0.095790997 0.978769 -0.52369499
-0.096879996 0.98018497 -0.52292001
-0.099156998 0.99037999 -0.52095503
-0.18456499 0.99994498 -0.52158803
-0.150564 0.99884498 -0.52286798
-0.136216 1.013042 -0.52484798
-0.137025 1.0228111 -0.52463001
-0.19236501 1.026475 -0.52311301
-0.215459 1.035794 -0.52265102
-0.094828002 0.836357 -0.51974797
-0.056476999 0.855492 -0.51745898
-0.060067002 0.86863297 -0.51502597
-0.095700003 0.88371098 -0.51976299
-0.055272002 0.88099599 -0.51721299
-0.096778996 0.896626 -0.51988798
-0.097032003 0.95736498 -0.519853
-0.092956997 0.96346802 -0.516729
-0.187426 0.98363101 -0.51557302
-0.154791 0.99167198 -0.51818502
-0.151786 0.996494 -0.51966
-0.20275199 1.0117249 -0.51608598
-0.205185 1.016625 -0.51664901
-0.15563799 1.018616 -0.51735198
-0.15433501 1.019556 -0.517937
-0.17506801 1.02863 -0.51799399
-0.157261 1.029958 -0.51920497
-0.14634299 1.027557 -0.51993299
-0.067290999 0.84838003 -0.510921
-0.046718001 0.84798402 -0.510463
-0.047649998 0.851358 -0.51053798
-0.086773001 0.87444401 -0.510611
-0.065949 0.87339997 -0.51065898
-0.090951003 0.87888902 -0.510423
-0.089849003 0.87817198 -0.51300901
-0.060066 0.89391297 -0.51387
-0.074285001 0.90471202 -0.51399398
-0.090887003 0.90604699 -0.51008803
-0.078511998 0.91737747 -0.51097202
-0.166199 0.944529 -0.51226002
-0.167698 0.96917802 -0.51202798
-0.091712996 0.98264098 -0.51010001
-0.164203 0.99014097 -0.513174
-0.206686 1.00104 -0.51196998
-0.19538601 1.003879 -0.51380801
-0.15763 1.0101351 -0.51249599
-0.16627499 1.017058 -0.51340401
-0.176469 1.020772 -0.51364797
-0.19778 1.031082 -0.51394498
-0.095581003 0.82882798 -0.50668103
-0.070193 0.84850299 -0.506293
-0.081206001 0.853894 -0.50973499
-0.083609998 0.86691397 -0.50899601
-0.097948 0.87640703 -0.50644201
-0.078713998 0.87973702 -0.50601602
-0.070629999 0.87654001 -0.50607997
-0.06662 0.87650597 -0.50901902
-0.085780002 0.90126002 -0.50862199
-0.101903 0.90807301 -0.507119
-0.101144 0.91926098 -0.50602502
-0.100391 0.925358 -0.50617403
-0.090815999 0.93367499 -0.509776
-0.090752997 0.96170598 -0.50940502
-0.175622 0.97244197 -0.50508898
-0.18370099 0.98007798 -0.50678802
-0.0960875 0.99102652 -0.505615
-0.177843 0.99920398 -0.50516802
-0.174179 1.002582 -0.50529701
-0.104187 1.001549 -0.505777
-0.090092003 1.0005521 -0.50771803
-0.18590499 1.006714 -0.50696802
-0.189832 1.010897 -0.50688398
-0.15564699 1.010345 -0.50888997
-0.092445999 0.829346 -0.50353098
-0.043134 0.83013302 -0.50037903
-0.050689999 0.84753501 -0.50217301
-0.093376003 0.85268998 -0.50328499
-0.058899999 0.85221201 -0.504614
-0.038306002 0.85084999 -0.50251198
-0.057955001 0.87836301 -0.50389802
-0.037195001 0.87699002 -0.50177902
-0.053968001 0.89220399 -0.500193
-0.094967 0.905141 -0.50217199
-0.077102996 0.933433 -0.50468701
-0.19243599 0.994968 -0.50179303
-0.193578 1.020116 -0.50166899
-0.080362998 0.823367 -0.49761999
-0.070625 0.83759201 -0.498238
-0.041659001 0.85510898 -0.49976099
-0.086147003 0.86507201 -0.496149
-0.058529001 0.87978798 -0.498555
-0.070987001 0.88420099 -0.49839899
-0.093689002 0.88971502 -0.49660701
-0.0583505 0.90509248 -0.49744651
-0.094618998 0.91647702 -0.496418
-0.072970003 0.91601002 -0.49684
-0.095569 0.94363898 -0.496196
-0.089625001 0.95002502 -0.49652401
-0.096539997 0.97120303 -0.495938
-0.077633999 0.82381999 -0.49410999
-0.084694996 0.831038 -0.49172801
-0.086097002 0.85581499 -0.49181899
-0.074004002 0.85995698 -0.49001801
-0.0469 0.85874999 -0.49292201
-0.047143999 0.862059 -0.49315199
-0.06622 0.88489699 -0.49246901
-0.102797 0.887173 -0.49181101
-0.06611 0.88729101 -0.491496
-0.088988997 0.90638697 -0.4919
-0.085851997 0.91143203 -0.491974
-0.064798996 0.912099 -0.49103099
-0.077240005 0.92863399 -0.49388549
-0.091959 0.95853502 -0.49202701
-0.077082001 0.95647597 -0.49322399
-0.083578996 0.96507502 -0.49011701
-0.093145996 0.97362399 -0.49175799
-0.090365998 0.99421299 -0.49252999
-0.179226 1.0140001 -0.49141899
-0.093391001 0.815772 -0.486844
-0.036664002 0.82969099 -0.48756999
-0.071829997 0.83556598 -0.48632699
-0.094924003 0.84035301 -0.48675901
-0.057994001 0.85457402 -0.487654
-0.072095998 0.85908502 -0.486114
-0.098493002 0.86333102 -0.488998
-0.096477002 0.86531502 -0.486689
-0.058091 0.87798899 -0.48765501
-0.099485002 0.887052 -0.48860899
-0.073873997 0.88719851 -0.48929101
-0.059021998 0.889494 -0.48622599
-0.076110996 0.895648 -0.48563001
-0.10048 0.91115099 -0.48825401
-0.085380003 0.91289902 -0.48978499
-0.099647 0.91640198 -0.48657301
-0.072755001 0.91540402 -0.48834899
-0.058065001 0.91619098 -0.485392
-0.084064998 0.93915802 -0.48878601
-0.078186996 0.94474602 -0.48672599
-0.072536997 0.94310802 -0.48785999
-0.102916 0.96906602 -0.48645201
-0.082726002 0.96587402 -0.48780799
-0.077375002 0.97231299 -0.48585799
-0.081890494 0.992787 -0.487984
-0.104591 0.99599898 -0.486377
0.010506 0.82364303 -0.48010799
-0.068464004 0.82621002 -0.48294401
-0.085142002 0.83398098 -0.483197
-0.054625001 0.83064198 -0.48351499
-0.033369001 0.830405 -0.481343
-0.020021001 0.83469498 -0.48372099
0.00041099999 0.83334398 -0.48163599
-0.069747001 0.85095203 -0.48297
0.001825 0.85916799 -0.480777
-0.01877 0.86053002 -0.48287901
-0.093456 0.86630398 -0.48364499
-0.040699001 0.86603302 -0.48272201
-0.091086999 0.87625003 -0.48256299
-0.093787998 0.88965201 -0.483632
-0.038261998 0.88812101 -0.48410699
-0.091500998 0.900195 -0.48229399
-0.052662998 0.903413 -0.48317301
-0.094131 0.91330701 -0.48360601
-0.056062002 0.916417 -0.48173299
-0.094820999 0.961631 -0.48357701
-0.095170997 0.98630601 -0.483567
-0.076623999 0.81130397 -0.478587
-0.062839001 0.81987 -0.475104
-0.029596999 0.81866401 -0.476987
-0.0093430001 0.81827301 -0.47653601
-0.029676 0.82312 -0.478618
-0.0095849996 0.82338101 -0.47936299
-0.082714997 0.83438498 -0.47992501
-0.078032002 0.83585 -0.478441
-0.028068 0.84367001 -0.475936
-0.027967 0.84788603 -0.47758701
-0.083576001 0.85776502 -0.47951099
-0.079458997 0.86077899 -0.47830799
-0.090809003 0.867037 -0.476946
-0.047083002 0.86951703 -0.47538099
-0.046638999 0.87276 -0.47576699
-0.084461004 0.881446 -0.479054
-0.080904 0.88609397 -0.478185
-0.093771003 0.91777599 -0.476805
-0.058115002 0.91610497 -0.47925401
-0.071653999 0.92730701 -0.47968501
-0.074597999 0.938676 -0.47710699
-0.076090999 0.96775001 -0.475638
-0.100473 0.983024 -0.479141
-0.059856001 0.806835 -0.47033
-0.052232999 0.821383 -0.47415999
-0.067902997 0.82885897 -0.47050399
-0.035390001 0.84064299 -0.47093999
-0.053396001 0.84608901 -0.474121
-0.077036999 0.87026298 -0.47252801
-0.063215002 0.88943601 -0.474886
-0.078621998 0.89776897 -0.473322
-0.045033999 0.89834398 -0.47473601
-0.081234999 0.90709502 -0.47286201
-0.086038001 0.92237097 -0.474152
-0.065133996 0.921969 -0.47368699
-0.064136997 0.92404002 -0.472891
-0.104328 0.92766398 -0.47097301
-0.081469998 0.931095 -0.47282201
-0.063840002 0.948645 -0.47260401
-0.074910998 0.95492899 -0.47035599
-0.062651001 0.95038801 -0.47175699
-0.061138999 0.97719598 -0.47064099
-0.036001999 0.81655502 -0.46537599
-0.02287 0.82826 -0.46931699
-0.089922003 0.844594 -0.46877399
-0.057037 0.843086 -0.468016
-0.037044998 0.84122598 -0.46527201
-0.091061004 0.86830801 -0.468364
-0.059053998 0.867948 -0.466914
-0.038118001 0.86620802 -0.46510699
-0.055323999 0.87061203 -0.46800199
-0.019827999 0.87157297 -0.46534699
-0.069438003 0.87584102 -0.46949801
-0.039739002 0.87695599 -0.46568301
-0.075808004 0.887312 -0.46795401
-0.092207 0.89240003 -0.46798801
-0.070215002 0.89986002 -0.46900401
-0.039329 0.899252 -0.466436
-0.051357999 0.91462201 -0.46615201
-0.093382001 0.91680002 -0.46756101
-0.05914 0.92741299 -0.46757701
-0.054513 0.92765898 -0.46513501
-0.058173001 0.95466298 -0.46661299
-0.097373001 0.96058702 -0.46792501
-0.043088 0.80236602 -0.462073
-0.050204001 0.81378299 -0.46457699
-0.039296001 0.81304502 -0.46107501
-0.073697001 0.815759 -0.46014401
-0.062564 0.81754303 -0.46329701
-0.053091999 0.82333302 -0.46108299
-0.0090880003 0.83391702 -0.46224499
0.011003 0.83417898 -0.46298999
-0.050237 0.83662701 -0.46444499
-0.015667001 0.83954102 -0.460118
-0.062784001 0.84072101 -0.46287
-0.035668001 0.84185201 -0.46439201
0.019793 0.84294802 -0.46215799
-0.027465999 0.858504 -0.460336
-0.0072189998 0.85876799 -0.46108699
-0.062987 0.86427599 -0.462493
-0.040293999 0.86448503 -0.460085
-0.056483999 0.87055498 -0.46423599
0.00076700002 0.87020999 -0.46324599
-0.089615002 0.89216298 -0.464665
-0.01857 0.897879 -0.46431699
-0.068338998 0.90088302 -0.46211699
-0.038226999 0.90247899 -0.46477199
-0.090538003 0.9163 -0.46413699
-0.05714 0.92720097 -0.46194601
-0.036688998 0.92845601 -0.46390301
-0.070339002 0.938604 -0.46252999
-0.091489002 0.94074398 -0.46355501
-0.073036999 0.95000499 -0.46037999
-0.092444003 0.96557498 -0.46299499
0.0089130001 0.80377197 -0.459977
0.029011 0.80338401 -0.45952901
-0.064398997 0.81776398 -0.45519
-0.029973 0.81773102 -0.456433
-0.003853 0.81573498 -0.45537201
-0.0095229996 0.82887298 -0.459268
0.030985 0.82809198 -0.45836601
-0.073844001 0.83927852 -0.45801601
-0.058107 0.85731101 -0.45924899
-0.075735003 0.86280799 -0.45923799
-0.015004 0.86595201 -0.459387
-0.054414 0.87023598 -0.459943
-0.026693 0.87988698 -0.45738199
-0.081977002 0.881441 -0.458942
-0.059335999 0.88241303 -0.459039
-0.047265999 0.88028401 -0.45784
-0.025728 0.88372701 -0.45913801
-0.07677 0.88686103 -0.45879599
-0.055082999 0.89421397 -0.45938
-0.100968 0.898606 -0.45539001
-0.082463004 0.90931201 -0.45692
-0.06058 0.90790498 -0.45884299
-0.045851 0.90620202 -0.456646
-0.044525001 0.90912998 -0.45721301
-0.023957999 0.90939802 -0.45797601
-0.042893 0.93518102 -0.45599699
-0.086629003 0.94262201 -0.45996499
-0.026319999 0.79789698 -0.453816
-0.037567999 0.80769598 -0.45405
-0.058587 0.81033701 -0.45114699
-0.048707001 0.81163901 -0.453401
-0.038279999 0.81780702 -0.45166299
-0.027356001 0.82234401 -0.453486
-0.059486002 0.833673 -0.450652
-0.048831001 0.83477598 -0.45290601
-0.037516002 0.83049899 -0.45384699
-0.021925 0.83901602 -0.452539
-0.065716997 0.84235901 -0.45486999
-0.038825002 0.84106898 -0.45104799
-0.077817 0.84848899 -0.453417
-0.055291999 0.84791899 -0.45184901
-0.034115002 0.85159397 -0.45431
-0.067051001 0.86733598 -0.454561
-0.055365 0.87114203 -0.451619
-0.062863998 0.87940103 -0.45063901
-0.042863999 0.87751299 -0.45012501
-0.032756999 0.87669802 -0.45360899
-0.057641 0.88215101 -0.45091701
-0.080554001 0.89861703 -0.45297101
-0.063556001 0.90582198 -0.450037
-0.057314999 0.90908402 -0.45007199
-0.075406 0.91065401 -0.454512
-0.101452 0.92270797 -0.45492899
-0.064028002 0.95967197 -0.45463699
-0.0095530003 0.793428 -0.445559
0.015694 0.80313802 -0.44701299
-0.047630999 0.81329501 -0.446933
-0.043048002 0.82432401 -0.44504899
-0.058171999 0.83389801 -0.44689801
-0.048824999 0.83785701 -0.44655201
-0.024940001 0.83561999 -0.44638699
0.011501 0.844715 -0.44587299
-0.037966002 0.85329998 -0.447442
-0.050032999 0.8628 -0.446181
-0.067927003 0.87545401 -0.44890699
-0.088679999 0.88296402 -0.44757599
-0.061331999 0.88132203 -0.44960499
-0.00029200001 0.881253 -0.445714
-0.086917996 0.89261901 -0.445355
-0.068177998 0.89939302 -0.448401
-0.090195 0.90844601 -0.44722
-0.019637 0.90900999 -0.44664499
-0.073463 0.91232902 -0.44934899
-0.040396001 0.910384 -0.448764
-0.050053 0.92583001 -0.449132
-0.091732003 0.93431997 -0.44686499
-0.073643997 0.93636602 -0.449146
-0.037501499 0.93840051 -0.44711101
-0.069023997 0.949902 -0.445375
-0.091789 0.95414799 -0.44710699
-0.023497 0.79853201 -0.44212601
-0.019224999 0.79921699 -0.444859
0.00046499999 0.796942 -0.44065201
-0.043476 0.80491501 -0.44215
-0.024932999 0.80160898 -0.44352201
0.035808999 0.801808 -0.44496101
0.0087339999 0.81428897 -0.44284099
-0.044268001 0.82821202 -0.44159099
-0.034878999 0.82883102 -0.44294101
-0.029957 0.83986199 -0.44244999
-0.0097030001 0.839472 -0.442
0.010551 0.839082 -0.441549
0.030804001 0.838691 -0.441098
-0.042571001 0.84179002 -0.44125101
-0.045081001 0.85180902 -0.44098699
-0.034885999 0.85230201 -0.442424
0.018742001 0.853903 -0.444765
-0.042557001 0.86497098 -0.44094899
-0.0080190003 0.86464101 -0.44067401
-0.045894999 0.87578201 -0.440413
-0.044103999 0.87593901 -0.44380999
-0.034903999 0.87607902 -0.441872
0.020303 0.87989098 -0.44361299
-0.081618004 0.89762801 -0.44416499
-0.060274001 0.90500802 -0.44488701
-0.087301999 0.91667902 -0.44482401
-0.065361999 0.919294 -0.443748
-0.086303003 0.92085499 -0.44051799
-0.081656501 0.92175651 -0.44179201
-0.023448 0.920183 -0.44045299
-0.056164999 0.93829697 -0.44463801
0.020155 0.79466599 -0.43644401
-0.024202 0.79571098 -0.43897101
-0.0029150001 0.82641 -0.43872201
-0.031932998 0.83335501 -0.43823299
-0.053737 0.84587598 -0.43941399
-0.022967501 0.84813702 -0.436712
-0.043942001 0.85171002 -0.43676099
-0.0011549999 0.85098898 -0.43765801
-0.053877 0.86946702 -0.43887201
-0.025343999 0.87247598 -0.43698099
-0.071661003 0.878429 -0.43919501
-0.060454 0.88251001 -0.43893799
-0.04761 0.88881803 -0.43514201
-0.031472001 0.887734 -0.43685099
-0.054028999 0.89336401 -0.43829501
-0.026875 0.89065403 -0.439841
-0.006302 0.890257 -0.439383
-0.045141999 0.89936203 -0.43526301
-0.073048003 0.90387601 -0.438777
-0.085299999 0.909922 -0.437989
-0.101904 0.91393298 -0.43872601
-0.046034999 0.91705501 -0.43896499
-0.025297999 0.916655 -0.43850401
-0.074455 0.92971498 -0.438357
-0.086737998 0.935619 -0.437635
-0.028672 0.93926001 -0.435114
-0.087173998 0.94786298 -0.43988499
-0.081474997 0.94593 -0.43926299
-0.042378999 0.94605303 -0.438335
-0.104404 0.96343303 -0.43746701
-0.088196002 0.96171498 -0.43728599
-0.0058690002 0.79232699 -0.43229699
-0.028365999 0.79949301 -0.433153
-0.020995 0.79983002 -0.43360901
-0.014096 0.80435699 -0.430419
-0.029952999 0.81282502 -0.43101099
-0.020927001 0.82288599 -0.43297601
-0.029850001 0.83566201 -0.43065199
-0.029754 0.84630901 -0.43186101
-0.020835999 0.84631598 -0.43238899
-0.029749 0.85880101 -0.430278
-0.040265001 0.864748 -0.430491
-0.019345 0.874717 -0.43465999
-0.066180997 0.892088 -0.43497401
-0.017686 0.90003902 -0.433532
-0.073152997 0.91065001 -0.434719
-0.048765998 0.91435802 -0.43476701
-0.066430002 0.91658354 -0.432015
-0.059650999 0.92071599 -0.43285
-0.092278004 0.92793602 -0.431142
-0.048748001 0.93703902 -0.43211201
-0.068117999 0.94434601 -0.43294799
-0.096413001 0.94558102 -0.431265
-0.059333 0.94821203 -0.43188801
0.012464 0.78894299 -0.42562401
0.053100001 0.78641403 -0.42705801
-0.028063999 0.79991698 -0.428875
-0.028139999 0.809591 -0.42747101
0.034775 0.81259298 -0.427838
-0.028549001 0.822846 -0.42805699
-0.015041 0.82885301 -0.42991501
-0.029123999 0.83400702 -0.42706501
0.036432002 0.83782601 -0.42654499
-0.029025 0.84614402 -0.42727301
-0.0080920001 0.85498899 -0.42800999
-0.030115999 0.85880601 -0.426678
0.011999 0.85525101 -0.42875499
-0.020264 0.862436 -0.426218
0.038123999 0.86350697 -0.42528701
-0.029519999 0.86974198 -0.42644301
-0.047646001 0.87633997 -0.428267
-0.050742999 0.886549 -0.425782
-0.047913998 0.88739198 -0.427535
-0.03988 0.887335 -0.42818999
-0.065543003 0.893879 -0.426256
-0.039797999 0.89135998 -0.429524
-0.001351 0.89229602 -0.42818299
0.019244 0.89093298 -0.426081
-0.048489001 0.913876 -0.42675301
-0.039329 0.91836703 -0.42850801
5.6000001e-05 0.91876799 -0.426855
-0.020703999 0.92014098 -0.42897299
-0.087599002 0.93291003 -0.428828
-0.070142999 0.93068397 -0.42865399
-0.066233002 0.94024301 -0.42956901
-0.049061 0.94082898 -0.426011
-0.040364001 0.94847101 -0.42981201
-0.017507 0.78424102 -0.42090201
0.00033800001 0.78943503 -0.42246801
-0.013256 0.79407102 -0.42415601
-0.0071379999 0.793926 -0.423713
0.0026720001 0.79988801 -0.422162
-0.027925 0.806903 -0.423067
-0.017317999 0.80673802 -0.42048401
-0.001798 0.80821103 -0.42396501
0.00064699998 0.812114 -0.42205101
0.012371 0.81409401 -0.42487499
-0.006974 0.81694001 -0.423011
-0.017128 0.82953399 -0.42005301
-0.001042 0.83394003 -0.42293599
0.012276 0.83962899 -0.42411
-0.036509 0.844365 -0.42298099
-0.014427 0.84081 -0.42273501
0.010371 0.84968102 -0.42427999
0.030624 0.84929103 -0.42383
-0.049059 0.86234999 -0.42247501
-0.01502 0.86470401 -0.42202899
-0.037625 0.86935699 -0.422434
-0.029154001 0.88393003 -0.420706
0.039839 0.88957101 -0.42397901
-0.030187 0.89876997 -0.420093
-0.071029 0.90285498 -0.42034301
-0.059004001 0.90462101 -0.424613
-0.0064849998 0.90102398 -0.42184201
-0.050331999 0.91015702 -0.42076999
-0.106752 0.92470002 -0.424095
-0.078128003 0.92190701 -0.42103699
-0.046220001 0.92790699 -0.421285
-0.025482001 0.92750698 -0.42082301
-0.022939 0.930969 -0.42292899
-0.0023719999 0.93123698 -0.42369199
-0.083710998 0.93522298 -0.42381099
-0.079135999 0.94097698 -0.422757
0.036531001 0.77834803 -0.41661301
-0.011166 0.78079599 -0.41924199
0.019327 0.78485298 -0.41786101
0.001855 0.78864998 -0.41515899
0.030796999 0.785559 -0.41894999
-0.013356 0.79443002 -0.41951999
0.025836 0.79395002 -0.41657299
-0.012027 0.80479801 -0.41874999
-0.0095929997 0.80351901 -0.41639301
0.018596001 0.80639702 -0.41885751
-0.013738 0.81731999 -0.41863599
-0.0098540001 0.82878202 -0.41557401
-0.016941 0.85263097 -0.41960701
-0.013765 0.85394299 -0.41782901
-0.057976998 0.85987699 -0.41604701
-0.034568001 0.85699898 -0.417335
-0.025776999 0.85749298 -0.41880301
-0.034837998 0.87017 -0.41759601
-0.059254002 0.88498598 -0.41544801
-0.035305999 0.88101 -0.41659001
-0.025730001 0.88130599 -0.41808501
-0.052735001 0.88770902 -0.41558501
-0.052795999 0.91135198 -0.41509199
-0.029581999 0.91038603 -0.41986999
-0.072049998 0.92733002 -0.41957
-0.053548001 0.92574799 -0.419673
-0.050990999 0.93455601 -0.41987401
-0.097253002 0.939192 -0.41745999
0.0048310002 0.77603799 -0.41058499
0.056069002 0.77609003 -0.41243801
0.012974 0.78334802 -0.41194099
0.049129002 0.782175 -0.41227701
0.001351 0.78894198 -0.410166
0.0067179999 0.78802198 -0.413816
0.052074 0.79711598 -0.41006801
0.013369 0.80598599 -0.411452
0.006978 0.81099498 -0.413046
0.0072639999 0.834342 -0.41231999
-0.019617001 0.839863 -0.41466299
-0.010121 0.85443002 -0.41473699
-0.0075940001 0.86552501 -0.41089201
0.012496 0.86578703 -0.41163701
-0.034827001 0.87002802 -0.41180599
-0.034674 0.88045901 -0.412054
-0.055590998 0.89731598 -0.41115099
-0.044854999 0.898592 -0.41450799
-0.035884 0.89522398 -0.41124499
-0.0352 0.90451097 -0.411145
-0.070632003 0.90524799 -0.41357401
-0.060547002 0.910483 -0.41485101
-0.063979 0.915878 -0.41093099
-0.056499999 0.92175102 -0.41031101
-0.041664999 0.92999798 -0.411286
-0.061859 0.93637198 -0.414249
-0.074924998 0.94207299 -0.41355899
0.030181 0.77892798 -0.40640599
0.016965 0.78322798 -0.40616199
0.046815 0.78356302 -0.40614599
0.039788999 0.78800499 -0.406609
-0.018000999 0.80461001 -0.40983501
0.030224999 0.80089498 -0.406427
-0.001871 0.810817 -0.407022
0.013635 0.81822598 -0.406708
