# .PCD v0.7 - Point Cloud Data file format
VERSION 0.7
FIELDS x y z
SIZE 4 4 4
TYPE F F F
COUNT 1 1 1
WIDTH 215
HEIGHT 1
VIEWPOINT 0 0 0 1 0 0 0
POINTS 215
DATA ascii
-2.326628 0.038998999 0.27236
-2.322057 0.050721999 0.287074
-2.2955871 0.049387999 0.29399601
-2.297904 0.055891 0.31100199
-2.3008001 0.068235002 0.311959
-2.2508869 0.037384 0.31813201
-2.2852581 0.063948996 0.32322299
-2.2467561 0.050342001 0.32834399
-2.245759 0.050526001 0.33267701
-2.2987461 0.097608998 0.33309099
-2.2733071 0.064735003 0.335556
-2.2755401 0.073734999 0.33603001
-2.2613871 0.070377998 0.337715
-2.2550001 0.054494999 0.34347999
-2.2543271 0.059517998 0.34496999
-2.282542 0.061935998 0.342197
-2.2785151 0.064271003 0.34498799
-2.2905841 0.092610002 0.34145099
-2.2404931 0.090037003 0.34103501
-2.222101 0.05466 0.349399
-2.2689531 0.081981003 0.349399
-2.26825 0.096065 0.34563899
-2.342726 0.113032 0.34799299
-2.269542 0.110535 0.34593499
-2.220186 0.057613 0.35225201
-2.2211771 0.068645 0.35325801
-2.2511261 0.079853997 0.35239601
-2.2713909 0.061496999 0.35532001
-2.2316201 0.067694999 0.35951599
-2.2503581 0.076448001 0.359312
-2.2359929 0.077852003 0.35701299
-2.2825601 0.091269001 0.35963601
-2.2415371 0.092202999 0.356644
-2.2943611 0.099509999 0.359514
-2.285475 0.104798 0.356197
-2.2721241 0.103916 0.357575
-2.1841209 0.040748999 0.360441
-2.2167101 0.069785997 0.36279699
-2.286283 0.080136001 0.36084899
-2.2519779 0.091089003 0.36311999
-2.289494 0.098839 0.36436799
-2.2637119 0.107702 0.36024401
-2.2644341 0.122723 0.360681
-2.337539 0.12540799 0.36296701
-2.190239 0.049260002 0.36681101
-2.231848 0.059523001 0.366487
-2.197793 0.058267999 0.36609
-2.267256 0.072361 0.366243
-2.2545381 0.070694 0.36570701
-2.3058751 0.099039003 0.36661899
-2.27265 0.114881 0.366806
-2.2795081 0.14211801 0.36633301
-2.2295649 0.067951001 0.37241799
-2.2481439 0.073063001 0.373355
-2.2463889 0.093377002 0.37365401
-2.240057 0.092352003 0.37378001
-2.230612 0.091608003 0.37134701
-2.2784431 0.108399 0.374008
-2.2374549 0.109185 0.37089199
-2.2074659 0.108822 0.374412
-2.288837 0.115009 0.37324101
-2.2669151 0.117266 0.37235001
-2.323236 0.14129899 0.374414
-2.162688 0.064710997 0.37734199
-2.1853721 0.066018 0.37985501
-2.211318 0.084911004 0.376194
-2.2479811 0.091041997 0.37592199
-2.2226369 0.090244003 0.37695199
-2.2603309 0.110022 0.37993401
-2.267206 0.117305 0.37740299
-2.2868559 0.121473 0.3793
-2.2276139 0.13257299 0.37814599
-2.247045 0.14234699 0.37799701
-2.340471 0.16303501 0.379583
-2.2660861 0.171775 0.377143
-2.1597149 0.037351001 0.38037899
-2.2274089 0.070908003 0.380775
-2.2400861 0.112389 0.383497
-2.3014841 0.116436 0.38058299
-2.2684469 0.13185801 0.38133401
-2.3097539 0.13997 0.38136199
-2.241586 0.088896997 0.386657
-2.2431941 0.090104997 0.386621
-2.2059269 0.100037 0.38959101
-2.262243 0.105866 0.38833299
-2.243026 0.107378 0.38975099
-2.22523 0.105363 0.38568199
-2.2333741 0.126166 0.38514
-2.283313 0.13050801 0.386969
-2.2617061 0.130615 0.387126
-2.254638 0.13097601 0.38945299
-2.2221551 0.130393 0.38998899
-2.2153571 0.13360099 0.387391
-2.2490661 0.13975701 0.38801
-2.3251171 0.159169 0.387456
-2.2386279 0.082814999 0.39067999
-2.1805041 0.082774997 0.39289901
-2.2575901 0.106949 0.393437
-2.222404 0.122073 0.393491
-2.184833 0.120752 0.390358
-2.2411671 0.126132 0.39076301
-2.263202 0.13438199 0.39186999
-2.2542169 0.147098 0.39017299
-2.223448 0.14940301 0.39254799
-2.2406471 0.150429 0.39047199
-2.2636371 0.158755 0.39434901
-2.243042 0.15942401 0.39246401
-2.235332 0.158081 0.39081401
-2.332803 0.202131 0.394555
-2.169503 0.095627002 0.39771399
-2.198797 0.106449 0.39596301
-2.217391 0.130522 0.39908299
-2.239186 0.14448 0.397439
-2.2292919 0.14314801 0.39938799
-2.2693291 0.14981 0.39553201
-2.257314 0.147219 0.395946
-2.259676 0.155954 0.39809799
-2.269213 0.16667999 0.39605001
-2.243871 0.173703 0.39649001
-2.1946981 0.100475 0.401063
-2.2710741 0.116423 0.404753
-2.235569 0.115169 0.40331301
-2.2380719 0.123715 0.40358001
-2.2146189 0.124322 0.404735
-2.2314241 0.12654901 0.40122899
-2.2573161 0.131427 0.403074
-2.2701499 0.141361 0.400435
-2.2564969 0.14396399 0.40190101
-2.2777891 0.146007 0.40069601
-2.251538 0.150969 0.40477201
-2.236284 0.155002 0.402264
-2.320477 0.171069 0.40239099
-2.230978 0.175328 0.40465799
-2.3214071 0.18840399 0.40350199
-2.2844319 0.186562 0.40202099
-2.188081 0.095788002 0.40776801
-2.255126 0.123921 0.408277
-2.2394791 0.141581 0.40632701
-2.2567079 0.14747301 0.40738299
-2.2591989 0.15145899 0.40633699
-2.229521 0.159513 0.40948501
-2.2852681 0.160899 0.40639001
-2.259465 0.170195 0.409215
-2.2555709 0.17992599 0.40547201
-2.299432 0.188352 0.40794101
-2.336046 0.190653 0.40868801
-2.2630661 0.204763 0.40657499
-2.2512219 0.20037401 0.408279
-2.2751529 0.205272 0.40875399
-2.327425 0.21591599 0.409812
-2.1965539 0.133674 0.411746
-2.2759471 0.148396 0.412065
-2.2146521 0.15626 0.41433099
-2.272264 0.161505 0.414424
-2.2647581 0.161534 0.410245
-2.22521 0.160129 0.41363701
-2.260041 0.165812 0.41038901
-2.275645 0.17163201 0.411259
-2.2396679 0.19068 0.411017
-2.186341 0.191948 0.41472599
-2.314841 0.208067 0.41428
-2.2523229 0.148616 0.41645399
-2.2303181 0.153861 0.41966
-2.2512879 0.157314 0.41667601
-2.212245 0.163066 0.417647
-2.247184 0.168216 0.418616
-2.2144971 0.168991 0.41726801
-2.271749 0.173484 0.41978499
-2.2896869 0.18459401 0.418632
-2.2457421 0.184679 0.417597
-2.2792449 0.198937 0.41699499
-2.2573431 0.22291701 0.41903999
-2.211534 0.152569 0.42050201
-2.2092421 0.174127 0.42208999
-2.2552929 0.18163601 0.42408201
-2.2306621 0.187159 0.42156899
-2.2675691 0.19319899 0.42235899
-2.258769 0.197898 0.42202401
-2.172864 0.195577 0.42096999
-2.3074119 0.20807301 0.42290699
-2.294647 0.219219 0.423181
-2.24683 0.21777099 0.42224401
-2.2700739 0.22276001 0.42236701
-2.251519 0.19062699 0.426366
-2.246016 0.198314 0.42581901
-2.2251339 0.19559801 0.42752299
-2.3101659 0.220057 0.42932799
-2.224894 0.167726 0.434109
-2.206099 0.167817 0.43400699
-2.2105279 0.18592 0.43160999
-2.2667129 0.19082101 0.43327999
-2.2627461 0.19684 0.43055499
-2.234777 0.19833399 0.430316
-2.2416251 0.201809 0.43197
-2.237715 0.209304 0.430287
-2.2467141 0.180424 0.435276
-2.251121 0.193077 0.43894801
-2.2256651 0.20363399 0.435516
-2.254164 0.209709 0.436847
-2.2631769 0.21059699 0.43632299
-2.2310309 0.210655 0.43586501
-2.2013099 0.211651 0.43906599
-2.286392 0.216262 0.436804
-2.279417 0.218876 0.436111
-2.1683979 0.181531 0.44108301
-2.2474401 0.207964 0.44049901
-2.219666 0.209574 0.44208699
-2.240766 0.21177 0.440712
-2.200664 0.183065 0.447512
-2.1868119 0.192252 0.44580501
-2.2417181 0.1969 0.44922301
-2.2306049 0.209775 0.445182
-2.246949 0.20451701 0.45381501
-2.2172689 0.20597 0.451902
-2.16327 0.194673 0.45562801
