# .PCD v0.7 - Point Cloud Data file format
VERSION 0.7
FIELDS x y z
SIZE 4 4 4
TYPE F F F
COUNT 1 1 1
WIDTH 162
HEIGHT 1
VIEWPOINT 0 0 0 1 0 0 0
POINTS 162
DATA ascii
-0.25333148 0.068735495 0.89781547
-0.24207322 0.066943787 0.89778394
-0.26728469 0.062266856 0.90736246
-0.26123768 0.062811665 0.90732312
-0.25682685 0.063409008 0.90622383
-0.28192943 0.058528285 0.91390669
-0.291486 0.060633998 0.91397703
-0.28285551 0.063708 0.91142297
-0.27818149 0.061626501 0.91288
-0.296516 0.056974001 0.91914499
-0.290887 0.058812998 0.91761899
-0.28712052 0.057515621 0.9181487
-0.28348571 0.057746571 0.91784394
-0.27837899 0.058830004 0.91574597
-0.274618 0.059749 0.91516298
-0.300639 0.058582999 0.92241651
-0.2971175 0.057354499 0.92368621
-0.29197714 0.057913747 0.92207378
-0.30690673 0.051879909 0.92802471
-0.30301243 0.051512282 0.92727673
-0.29868251 0.054126501 0.92612648
-0.31656879 0.047250401 0.93371791
-0.30915999 0.049642999 0.93199998
-0.31569076 0.052807 0.93318379
-0.31190768 0.053751335 0.93287545
-0.30863133 0.051836502 0.93247366
-0.32667801 0.046115 0.93793964
-0.32189929 0.046982117 0.93786114
-0.31753439 0.047540799 0.93646878
-0.32619199 0.050216001 0.93988597
-0.31722882 0.052054916 0.93710589
-0.33234075 0.0432785 0.94361949
-0.32761332 0.043302361 0.94271177
-0.32440048 0.043836504 0.94120699
-0.33111 0.046131499 0.94332004
-0.32715279 0.047500901 0.94282758
-0.32419035 0.04895867 0.94221467
-0.34097499 0.040608998 0.94839799
-0.33687565 0.041983876 0.94815922
-0.33316424 0.043248713 0.94794613
-0.33783141 0.046051402 0.94895267
-0.33237085 0.046839003 0.9474346
-0.3468 0.036028001 0.95370865
-0.34232801 0.037896626 0.95201772
-0.33835599 0.039682999 0.95256299
-0.34610599 0.040445998 0.95323199
-0.34227401 0.042553 0.95336676
-0.33802333 0.042872667 0.95175368
-0.33451 0.041510999 0.950755
-0.35028499 0.037443999 0.95923799
-0.34824461 0.037680697 0.95761174
-0.34440038 0.037564404 0.95607185
-0.34732556 0.041874427 0.95807976
-0.360264 0.033767 0.96494699
-0.35721269 0.032290556 0.96336663
-0.35353121 0.033313598 0.96242964
-0.35687184 0.037007 0.9639318
-0.35272798 0.037179571 0.96204263
-0.348634 0.037819337 0.96092606
-0.36624369 0.031666335 0.96846741
-0.36269864 0.032299377 0.96735948
-0.35767934 0.0328435 0.96735018
-0.35480601 0.034993999 0.96842998
-0.36166549 0.037574999 0.968723
-0.35658711 0.037492372 0.96773267
-0.37122664 0.0271245 0.97318137
-0.36699328 0.027356429 0.97157097
-0.36356899 0.029348334 0.971313
-0.370258 0.032031 0.973692
-0.36783522 0.0323884 0.97372961
-0.3632943 0.032785855 0.97155344
-0.359635 0.033983 0.97112203
-0.37672651 0.027765501 0.97970748
-0.37334988 0.027352426 0.97781581
-0.36775634 0.028352669 0.97599506
-0.3709878 0.031978667 0.97802204
-0.36806914 0.031556778 0.97662044
-0.36424199 0.032765999 0.97602499
-0.381558 0.023010144 0.98393524
-0.37781566 0.021810889 0.98182106
-0.374731 0.02366 0.98385596
-0.38191649 0.027213 0.98291051
-0.37727034 0.027241362 0.98267704
-0.37351918 0.027651802 0.98213518
-0.38736171 0.017422799 0.98814613
-0.38294226 0.018439749 0.98692501
-0.38630599 0.021605 0.98906898
-0.38316911 0.021949375 0.9876461
-0.37999201 0.022617999 0.98799402
-0.38166499 0.0271884 0.9870432
-0.37893462 0.0271092 0.98714733
-0.39594001 0.016883999 0.99102801
-0.3913824 0.016698599 0.99292737
-0.38811809 0.017308181 0.99301237
-0.38326901 0.017763499 0.99063247
-0.38778386 0.022280166 0.99244279
-0.38397178 0.022535 0.99357975
-0.39312127 0.012499 0.99727219
-0.39618668 0.017592 0.99860603
-0.39257655 0.017981429 0.99776846
-0.388235 0.015444 0.99706501
-0.39198732 0.021557501 0.99810594
-0.38875401 0.023238 0.99701041
-0.40230241 0.0112088 1.0036523
-0.39775988 0.012687376 1.0021358
-0.39723364 0.01629775 1.0027595
-0.39323518 0.017207501 1.0009109
-0.40706775 0.0068734996 1.0078473
-0.40338323 0.0079270005 1.0065918
-0.39962801 0.0095520001 1.006918
-0.40195864 0.012210751 1.0071659
-0.39959201 0.014148 1.006604
-0.40231499 0.017879168 1.0081147
-0.39831915 0.016909286 1.0069271
-0.411217 0.0069185002 1.014466
-0.40689433 0.0071506924 1.0127244
-0.40343922 0.0079197492 1.0112078
-0.40723968 0.011737335 1.0134175
-0.40305525 0.01353957 1.0119392
-0.41286907 0.0027239998 1.018235
-0.40900901 0.004526 1.0162441
-0.41171962 0.0066565997 1.0183039
-0.40833354 0.007747333 1.0173059
-0.41540501 0.011343 1.019742
-0.41403803 -0.00077266665 1.0218277
-0.422564 0.002382 1.02361
-0.41675732 0.0012732857 1.0227849
-0.41344351 0.003644 1.0210155
-0.416758 0.0055379998 1.023127
-0.41164899 0.0075128325 1.0218943
-0.42100048 -0.0022344999 1.0287952
-0.41800284 -0.001987 1.0264046
-0.42172399 0.00026199999 1.026592
-0.41691199 0.0024793332 1.0267617
-0.41490301 0.0045619998 1.027898
-0.42537001 -0.0025299999 1.034954
-0.42203519 -0.0023941817 1.0321152
-0.42220351 0.00297875 1.032017
-0.41863754 0.0025537142 1.0318108
-0.42704949 -0.0070205 1.0373877
-0.42429447 -0.0080555007 1.0361195
-0.42706642 -0.002841 1.0378191
-0.42396116 -0.0024315999 1.0363824
-0.419267 -0.0025510001 1.035067
-0.43148103 -0.0078531662 1.0442501
-0.42890549 -0.006947 1.0414615
-0.42482099 -0.0062449998 1.041675
-0.42695975 -0.0020852855 1.0428498
-0.42432702 -0.002266 1.0406721
-0.43334228 -0.012009 1.0479654
-0.43804801 -0.0077519999 1.0482121
-0.43200168 -0.0084133334 1.0481721
-0.4291465 -0.0056665 1.0467925
-0.43687788 -0.013222428 1.0533626
-0.43399325 -0.011338001 1.0522655
-0.43239504 -0.0073697502 1.0520729
-0.43709207 -0.012459399 1.057103
-0.43414801 -0.012574 1.055215
-0.43931678 -0.016279001 1.0622557
-0.44504499 -0.019114001 1.069496
-0.44342482 -0.017661998 1.0682979
-0.43999201 -0.015705001 1.065721
