# .PCD v0.7 - Point Cloud Data file format
VERSION 0.7
FIELDS x y z
SIZE 4 4 4
TYPE F F F
COUNT 1 1 1
WIDTH 1535
HEIGHT 1
VIEWPOINT 0 0 0 1 0 0 0
POINTS 1535
DATA ascii
0.41887999 0.233127 0.63526303
0.4273265 0.23315001 0.63720798
0.447629 0.230923 0.63613999
0.45354301 0.231648 0.63963503
0.417981 0.239242 0.63959497
0.42448899 0.239639 0.63996202
0.427423 0.238041 0.63642102
0.43386099 0.23845001 0.63981199
0.438526 0.235999 0.63847297
0.414092 0.24216899 0.63940001
0.41757798 0.24161151 0.63956845
0.42189574 0.242634 0.63759005
0.42504999 0.240343 0.63951898
0.43673599 0.241558 0.63511699
0.44317502 0.24120051 0.63960803
0.40776899 0.24751601 0.63886702
0.41843399 0.24769026 0.63666499
0.42435899 0.24833401 0.63554603
0.42783248 0.24643549 0.63566649
0.43218601 0.245956 0.63504601
0.400323 0.25447699 0.63742399
0.40608999 0.25473699 0.63712603
0.415999 0.253151 0.63505101
0.421884 0.25121999 0.63851601
0.42634201 0.25101399 0.63762498
0.39893699 0.25822899 0.63849902
0.403126 0.25723499 0.63660598
0.41066599 0.25744 0.63822949
0.42703801 0.25517851 0.63944054
0.43098599 0.25509 0.63514698
0.405846 0.26098701 0.63967597
0.41123667 0.26274666 0.6372177
0.41620433 0.26189664 0.63650995
0.39625299 0.26518199 0.63649702
0.40029001 0.266168 0.63531899
0.40504801 0.26904699 0.63740498
0.41104099 0.26806 0.63808799
0.40309301 0.27074501 0.63708597
0.40554801 0.27052799 0.63894999
0.39725 0.27691799 0.63558501
0.40400901 0.27599299 0.63532901
0.40621299 0.27664399 0.63834202
0.41038501 0.27921399 0.635162
0.41683164 0.27713534 0.63805866
0.398065 0.28352275 0.63785148
0.40501899 0.28256199 0.63614303
0.39829099 0.28917199 0.63824701
0.40017301 0.28657001 0.63799798
0.40998301 0.28724799 0.635544
0.39876652 0.292144 0.6368615
0.404773 0.29035899 0.63649398
0.410117 0.29792801 0.63737398
0.40093601 0.30074599 0.63796401
0.41144699 0.30100501 0.63915199
0.45556501 0.207344 0.64473701
0.46700549 0.20732075 0.6427415
0.472141 0.20901632 0.64291567
0.446087 0.213122 0.642946
0.462055 0.21028 0.64223802
0.46743 0.21096501 0.642847
0.433878 0.217848 0.64179599
0.443019 0.217115 0.64182103
0.44587702 0.218824 0.64358747
0.45195001 0.21549401 0.640302
0.45904499 0.21627501 0.64083898
0.461766 0.21769899 0.64319801
0.4277125 0.2245405 0.64123851
0.44400749 0.22229975 0.64268726
0.44983399 0.222578 0.64394701
0.45134801 0.223097 0.643161
0.45618501 0.22465999 0.64149398
0.46463501 0.22362199 0.64252901
0.42725301 0.22786251 0.64250302
0.43291 0.22860301 0.64111
0.44297749 0.226862 0.64274651
0.445755 0.225866 0.64454299
0.4533765 0.227356 0.64292645
0.42452601 0.233054 0.64416498
0.428036 0.23477 0.64349598
0.43316048 0.23294601 0.6427685
0.44141701 0.230533 0.64348102
0.41591999 0.23936801 0.64052999
0.42326099 0.235029 0.64113301
0.42724252 0.23841101 0.64142454
0.43464601 0.238612 0.64233899
0.43781599 0.23811001 0.64259797
0.44316649 0.23602399 0.64037347
0.42463601 0.24016701 0.64125901
0.42995301 0.244765 0.64235198
0.433927 0.24015801 0.64383
0.44943401 0.241864 0.64475799
0.42279699 0.2487465 0.64114702
0.42555699 0.24856099 0.64054799
0.43368 0.24607 0.64484298
0.438436 0.245364 0.64473897
0.440772 0.245727 0.64461601
0.40882051 0.2529155 0.642308
0.41306448 0.2507295 0.64393902
0.415627 0.25237 0.64420199
0.428455 0.25369099 0.64414603
0.44671199 0.251766 0.64432102
0.40112799 0.257375 0.64172101
0.40970749 0.25797248 0.64193046
0.41310534 0.25813532 0.64218599
0.41953599 0.25835499 0.64188403
0.423648 0.25781399 0.64390999
0.399968 0.26263601 0.64237398
0.40144801 0.26383299 0.64103401
0.40687701 0.26065499 0.64408499
0.412249 0.26323101 0.64019901
0.41743699 0.261471 0.64437097
0.42151299 0.26106399 0.64454401
0.42518401 0.26473901 0.64326698
0.40299034 0.26908001 0.64309973
0.40696001 0.26814252 0.64138353
0.42752051 0.26629752 0.642528
0.40388048 0.27399302 0.64078403
0.41219899 0.27136001 0.64073902
0.4024505 0.2782045 0.64252901
0.40616599 0.276939 0.64304298
0.41361001 0.27731401 0.64031202
0.406165 0.286755 0.64451301
0.41174752 0.28717351 0.64293152
0.415849 0.286066 0.64235401
0.40691599 0.30407301 0.64000899
0.406645 0.30724201 0.641451
0.45530701 0.20875201 0.64626002
0.46007401 0.209097 0.649194
0.47210535 0.20617366 0.64643002
0.47729951 0.2070795 0.64626449
0.484552 0.207683 0.64670801
0.48541 0.206637 0.64519799
0.49443999 0.206294 0.64980102
0.44265899 0.212569 0.645688
0.45425248 0.2119635 0.646474
0.45693201 0.21279401 0.64877599
0.462787 0.210328 0.648229
0.46559101 0.210273 0.646056
0.478425 0.21249101 0.64601201
0.488177 0.211289 0.64892602
0.45231599 0.217033 0.645437
0.45727199 0.21865949 0.64735347
0.46180803 0.21599549 0.64887452
0.48193499 0.21608999 0.64906198
0.43980998 0.223299 0.647892
0.44172499 0.220907 0.64629197
0.44663301 0.223139 0.64896601
0.45038199 0.22398099 0.64555401
0.458217 0.220595 0.64750701
0.43505201 0.22834 0.64942801
0.44056553 0.2285205 0.64792752
0.45726752 0.227354 0.6475355
0.42188999 0.2336545 0.64799201
0.427885 0.23446999 0.647847
0.431427 0.23246799 0.64693099
0.43732548 0.23297299 0.64771855
0.44265848 0.2313875 0.647892
0.45214701 0.23201101 0.64632797
0.45522201 0.23062 0.645693
0.42481101 0.235019 0.64826298
0.42577201 0.238322 0.64512002
0.433079 0.236875 0.64574754
0.43555301 0.235511 0.646999
0.441199 0.236105 0.64578003
0.44585699 0.23697799 0.64970601
0.45179901 0.237753 0.64966953
0.4151125 0.24326301 0.64665103
0.42431101 0.243567 0.64662999
0.43486899 0.242856 0.64572197
0.43877351 0.24182749 0.6469385
0.44270501 0.24329101 0.64507699
0.41404501 0.248033 0.64940202
0.418129 0.2476355 0.64892
0.427636 0.2473215 0.64750504
0.43118867 0.24871434 0.6479373
0.4085865 0.2526305 0.64784098
0.41857162 0.25264499 0.64716721
0.43299401 0.2530455 0.64893103
0.416866 0.25964001 0.64816099
0.42221951 0.2563715 0.64640498
0.43724099 0.25519699 0.64876002
0.4186615 0.260306 0.64776397
0.42859399 0.26180199 0.64526898
0.44330701 0.26102701 0.64810699
0.40706334 0.26725233 0.64808798
0.41313452 0.26716 0.64902651
0.407251 0.2718375 0.6471315
0.41230398 0.2711525 0.64851898
0.415916 0.27152401 0.64594501
0.42168301 0.27412999 0.64737803
0.40426201 0.275576 0.646433
0.40956101 0.27543199 0.649005
0.4236635 0.27618951 0.647533
0.40940601 0.28176349 0.64601803
0.41522601 0.28467301 0.64543498
0.40878001 0.28736499 0.64723098
0.40763152 0.29694152 0.64638299
0.41338748 0.29692352 0.64741051
0.44509199 0.204374 0.65344101
0.45850599 0.203988 0.65491903
0.46003699 0.202246 0.653292
0.46621901 0.2019535 0.65258098
0.47589001 0.202885 0.65205503
0.4824 0.20375501 0.65116501
0.48723999 0.203833 0.65436
0.467639 0.207316 0.65214199
0.47844201 0.20554349 0.65293598
0.48291901 0.20546199 0.65056902
0.4472895 0.2122815 0.65236199
0.45699447 0.21282575 0.65363705
0.46184433 0.21340768 0.65050966
0.47915101 0.210811 0.65117598
0.447429 0.21844099 0.65279299
0.45163 0.21613599 0.654544
0.46922702 0.21653999 0.6538505
0.43416601 0.223929 0.651676
0.44059151 0.22369951 0.65019345
0.44585049 0.2243135 0.65286803
0.45275801 0.223143 0.654396
0.458673 0.22298799 0.654791
0.46157497 0.220791 0.65194201
0.472379 0.223222 0.65224397
0.43217951 0.228138 0.65177345
0.4432075 0.22861451 0.65304255
0.44689199 0.227707 0.65329498
0.45326799 0.22823501 0.65101099
0.457398 0.22589301 0.65332401
0.43245399 0.23245101 0.65027702
0.43542999 0.232596 0.65346903
0.44498 0.23267899 0.65090102
0.44768751 0.230958 0.65377951
0.452833 0.23264401 0.65207601
0.41982901 0.236532 0.65002298
0.42573199 0.237032 0.65303099
0.43277699 0.23715 0.65282398
0.44159999 0.236166 0.65013599
0.44913 0.236643 0.65117699
0.4531115 0.23725599 0.65370297
0.422346 0.24091233 0.65196162
0.42832601 0.240905 0.65346402
0.43825251 0.24088651 0.65391898
0.441598 0.242534 0.65410501
0.44683799 0.24165501 0.65383399
0.421736 0.2469755 0.65067601
0.4283165 0.2474315 0.65067005
0.43069401 0.247935 0.654603
0.436912 0.2474145 0.65252548
0.448385 0.249219 0.65329802
0.41920501 0.25306299 0.65445799
0.421487 0.25121701 0.65474802
0.42903799 0.25225699 0.65317452
0.43381301 0.25097099 0.65391999
0.411226 0.258995 0.654351
0.419341 0.25974101 0.65300101
0.42677936 0.25804469 0.6518997
0.408723 0.26029599 0.65039402
0.41176572 0.262797 0.65193373
0.421462 0.26497799 0.65343702
0.43292031 0.26400998 0.652354
0.4086405 0.2670525 0.65190351
0.41670001 0.26758999 0.650648
0.420398 0.265632 0.65473998
0.42621499 0.26931101 0.65304899
0.41299 0.27172199 0.650226
0.41668299 0.27111501 0.65146297
0.424523 0.27192301 0.65034503
0.43990299 0.270289 0.65189397
0.43067399 0.277044 0.65499598
0.41190201 0.28164101 0.651205
0.418181 0.283521 0.65148801
0.41713101 0.28601199 0.65322149
0.421031 0.28631899 0.65323198
0.41117299 0.29474899 0.65048802
0.45547 0.204221 0.65621197
0.46738568 0.20464401 0.65676802
0.47567201 0.203418 0.65614903
0.48003501 0.20069399 0.65979201
0.49197799 0.20397399 0.65862697
0.45745301 0.208506 0.65696901
0.46487099 0.206705 0.65523601
0.4762345 0.208932 0.65511799
0.484148 0.206671 0.65680498
0.48629001 0.205208 0.65953797
0.45696768 0.21382399 0.65770102
0.46404701 0.210005 0.65869403
0.46661651 0.2114765 0.6588285
0.47444651 0.2129935 0.65747201
0.477568 0.211025 0.65752703
0.44833601 0.21933851 0.65848148
0.45178401 0.218134 0.656977
0.455484 0.218307 0.65830702
0.46834698 0.21682198 0.65615469
0.482034 0.215253 0.65746498
0.44105399 0.224012 0.65546697
0.45283252 0.22164351 0.65749049
0.45756599 0.22346249 0.65569901
0.43864548 0.22897601 0.65772247
0.45266151 0.22674251 0.65822649
0.456819 0.22605 0.65728998
0.464672 0.22585 0.65991998
0.43462399 0.233753 0.65654898
0.43624499 0.233437 0.657107
0.44204301 0.23234899 0.65807998
0.44889951 0.230361 0.6590445
0.45778799 0.233799 0.655581
0.46285099 0.230276 0.65539402
0.42994601 0.237836 0.65725702
0.432228 0.23828299 0.65551698
0.43635201 0.2376935 0.65665305
0.443073 0.237974 0.658539
0.44962901 0.238262 0.65583903
0.45338202 0.2367475 0.65860403
0.415575 0.242971 0.65787399
0.42348748 0.241662 0.65718699
0.43288147 0.242897 0.65753698
0.437846 0.24408901 0.656362
0.44012499 0.24278 0.65785497
0.41144699 0.249943 0.65570301
0.41991499 0.245125 0.65530801
0.424669 0.247122 0.65949601
0.428601 0.246391 0.65785199
0.432733 0.24801001 0.65688455
0.437962 0.24650699 0.65688348
0.44420201 0.246783 0.65827799
0.41748735 0.25140265 0.65814096
0.42625099 0.25189099 0.65856898
0.437989 0.252148 0.65858799
0.44124001 0.25058901 0.65588403
0.417025 0.25844601 0.65785998
0.42359602 0.256484 0.65761799
0.42800799 0.25828499 0.65672803
0.4305 0.25790101 0.65937197
0.444967 0.25851899 0.65710002
0.4157975 0.2616505 0.65653402
0.42250666 0.26102102 0.65694427
0.44121599 0.26229599 0.65500402
0.41198701 0.26967701 0.65518999
0.41833299 0.26735201 0.65652603
0.42232999 0.26822332 0.65774536
0.4125675 0.27123451 0.6552825
0.41992801 0.27094001 0.65788698
0.42865101 0.27361798 0.65710652
0.43018001 0.27413699 0.65705001
0.420452 0.28204501 0.65542001
0.41938499 0.28554499 0.65630299
0.42728299 0.28626901 0.65876698
0.420849 0.29564801 0.65607899
0.452243 0.199178 0.66368699
0.46027601 0.198635 0.6602
0.47250301 0.197826 0.661448
0.47627568 0.19796436 0.66225165
0.48273951 0.196789 0.66261101
0.51164198 0.198246 0.66190797
0.47207499 0.2034125 0.66306603
0.47544 0.20220099 0.66278398
0.49531701 0.20326599 0.66433799
0.46137151 0.20717999 0.66234148
0.46703434 0.20848934 0.66125965
0.48366901 0.207819 0.66122001
0.48572701 0.2079 0.66495502
0.463204 0.21348201 0.66306466
0.46789348 0.21043 0.66039199
0.47182 0.213457 0.66104698
0.45468599 0.217792 0.66030997
0.461898 0.219998 0.66432101
0.471241 0.219072 0.66418701
0.47896299 0.216315 0.66475499
0.48210201 0.215618 0.66475803
0.4414115 0.2231275 0.66040301
0.44790751 0.22465751 0.66308653
0.45343301 0.222536 0.66391551
0.458184 0.22153465 0.66395235
0.4626835 0.221867 0.66400898
0.47409299 0.220478 0.66139102
0.445375 0.2261 0.66499299
0.45759901 0.22535799 0.66092002
0.463588 0.225572 0.664904
0.46711501 0.22511201 0.66370797
0.43256068 0.23354232 0.66233534
0.43630099 0.232528 0.66057998
0.44278699 0.23193049 0.66325402
0.44858399 0.233492 0.660016
0.45139301 0.233766 0.66200501
0.45583299 0.23057801 0.66003501
0.44275552 0.2381855 0.66480505
0.44523299 0.238363 0.66416401
0.45151001 0.23569401 0.66479599
0.42952701 0.243202 0.6649
0.43220434 0.24337834 0.66297239
0.44262499 0.244755 0.660478
0.44834533 0.241197 0.66305262
0.45192099 0.241629 0.66295004
0.42201599 0.24544001 0.66325098
0.428615 0.247041 0.663432
0.43243748 0.248243 0.66322351
0.439253 0.24824101 0.66378301
0.44347301 0.246113 0.66029501
0.45002401 0.246631 0.66234201
0.456783 0.24988 0.66336602
0.42604801 0.252258 0.662606
0.434246 0.25083399 0.66234303
0.42286 0.25553399 0.66064799
0.42812124 0.25816223 0.66235751
0.43320549 0.25686225 0.66235328
0.43595299 0.25671399 0.66369098
0.41814268 0.26266465 0.662462
0.4225705 0.26350152 0.66051853
0.434264 0.261051 0.66270149
0.44154799 0.267818 0.66090202
0.430545 0.27309701 0.66122597
0.437107 0.27251199 0.66012698
0.423657 0.27700001 0.663975
0.43812901 0.277118 0.66470402
0.42267832 0.28249237 0.66318768
0.426072 0.28352949 0.66143596
0.42370251 0.29550451 0.66138399
0.48527801 0.19303 0.66949201
0.47343799 0.199169 0.66848898
0.49316001 0.1975165 0.66684103
0.49760848 0.19790399 0.66649252
0.46793401 0.20374599 0.66819698
0.47866765 0.20297833 0.66683906
0.48249048 0.2038065 0.6671055
0.488002 0.2016895 0.66649652
0.492138 0.20216 0.66991901
0.464506 0.20581201 0.668432
0.47324833 0.20793934 0.66750234
0.477355 0.20840074 0.66819751
0.48951799 0.206637 0.66662598
0.4571965 0.21017849 0.66525447
0.462486 0.2127385 0.66635156
0.469432 0.214748 0.66745502
0.47362399 0.213149 0.66898602
0.45329151 0.217565 0.6686455
0.461155 0.215113 0.665456
0.47182 0.21723801 0.66765499
0.44323099 0.224676 0.66535902
0.45168799 0.22103199 0.66532302
0.463521 0.22168465 0.66680598
0.471214 0.22247501 0.66689301
0.44119835 0.22706532 0.66825897
0.44687 0.228025 0.66812801
0.45133033 0.22700767 0.66716534
0.45880347 0.22741351 0.66869199
0.47061801 0.229931 0.66525602
0.43729001 0.23371699 0.66712099
0.44019601 0.23422401 0.66841298
0.44702399 0.232556 0.66572601
0.45219699 0.234971 0.66995198
0.458197 0.231509 0.66921604
0.43265501 0.2382555 0.66598153
0.439798 0.23726 0.665438
0.448612 0.235183 0.668468
0.46052501 0.23616201 0.66509199
0.467143 0.239384 0.66912103
0.43693301 0.24263699 0.66808563
0.44441 0.24384101 0.66563499
0.44688001 0.244168 0.66794598
0.45275497 0.2411525 0.66668904
0.42484 0.24733201 0.66508502
0.427659 0.248665 0.66684502
0.4353565 0.246022 0.66722298
0.44221699 0.24978 0.66739702
0.42537299 0.25316799 0.66867799
0.43449399 0.252074 0.66694403
0.44774899 0.25208199 0.668356
0.42401099 0.255602 0.66696602
0.42726052 0.25673199 0.6663
0.43166199 0.25879499 0.66919798
0.43785945 0.2569944 0.66639382
0.44613233 0.25693801 0.667485
0.42352149 0.26219702 0.667454
0.42820001 0.26218668 0.66894335
0.42785868 0.26749203 0.66705704
0.430769 0.271377 0.66755301
0.43641299 0.27266598 0.66727555
0.432998 0.28272799 0.66525102
0.43471101 0.28641799 0.66850603
0.42905751 0.29665297 0.666107
0.47080201 0.19391 0.67133701
0.47704101 0.19406401 0.67029297
0.48269001 0.19383501 0.67312002
0.4871605 0.19194549 0.67252898
0.49101001 0.194704 0.67412603
0.49771899 0.192744 0.67277497
0.507182 0.193073 0.670551
0.51280499 0.19090299 0.67434001
0.46638399 0.199183 0.67074299
0.470384 0.198257 0.670739
0.47738099 0.198026 0.67044801
0.481341 0.197265 0.67423999
0.48727649 0.1986745 0.67258954
0.49153951 0.198836 0.67240852
0.498218 0.19582 0.67172801
0.472588 0.20401651 0.67199647
0.48755652 0.20464751 0.67157197
0.44717199 0.208579 0.67199498
0.46748301 0.205167 0.67081398
0.471439 0.20659301 0.67104799
0.47765699 0.207848 0.670048
0.493323 0.20802499 0.67061698
0.46185499 0.2131165 0.67167449
0.47335365 0.21118267 0.67174965
0.44632199 0.216878 0.67068201
0.45655701 0.2158515 0.6724925
0.46305534 0.21720733 0.67350197
0.46606952 0.21730301 0.67416298
0.474677 0.216445 0.67283702
0.475876 0.217732 0.67062098
0.490006 0.21730199 0.67420202
0.454052 0.224411 0.67081797
0.457755 0.22301467 0.6725297
0.46200699 0.222471 0.67091697
0.47031 0.22290701 0.67020702
0.46555901 0.22516 0.67277402
0.4730815 0.2265915 0.67360401
0.44375899 0.23371901 0.67415798
0.44881299 0.230332 0.67084998
0.45763126 0.23282251 0.67172724
0.46459699 0.232682 0.674465
0.44129097 0.23611499 0.67314446
0.454362 0.23818965 0.67275363
0.457095 0.23752299 0.67251754
0.43251449 0.24236199 0.67214453
0.44363499 0.241356 0.67123353
0.44899899 0.24331 0.67048597
0.453114 0.242447 0.67312002
0.45535001 0.24376699 0.67403001
0.43400449 0.2495525 0.67189896
0.437558 0.246641 0.67284697
0.4423545 0.245509 0.67379302
0.44722399 0.2493045 0.67363799
0.457647 0.24642 0.672221
0.42640299 0.25375199 0.671269
0.43939301 0.25253201 0.671251
0.44130149 0.25437999 0.672571
0.42895499 0.256116 0.67156398
0.43238801 0.25673699 0.67102897
0.43960199 0.25656301 0.67289102
0.42792764 0.26223934 0.67138034
0.432408 0.264586 0.67438799
0.44410801 0.26177999 0.67287803
0.43259633 0.26704866 0.672337
0.43525499 0.26654401 0.670542
0.449065 0.26777899 0.67072701
0.439726 0.27464399 0.67379498
0.44856399 0.27059501 0.67413503
0.43217599 0.276988 0.67455101
0.432401 0.281005 0.67161202
0.43717399 0.29832399 0.67307001
0.50042403 0.189762 0.676566
0.47228199 0.193259 0.67834401
0.48279399 0.1923885 0.67712903
0.48734602 0.19397099 0.67755097
0.49397999 0.190312 0.67829901
0.49657801 0.193195 0.677881
0.50421596 0.194097 0.67646348
0.511509 0.19046199 0.676373
0.48144358 0.1973014 0.67780745
0.489609 0.199423 0.67514402
0.49226499 0.19761449 0.67721403
0.4962635 0.19657201 0.6770395
0.479157 0.20450801 0.67701399
0.48186433 0.203151 0.67927474
0.4879545 0.200526 0.6761415
0.50944698 0.200294 0.67796803
0.45956999 0.207726 0.676373
0.46128699 0.20863301 0.679093
0.468041 0.20848599 0.67602646
0.47259802 0.2074655 0.67800999
0.47902101 0.20673101 0.67940801
0.48072249 0.20749301 0.675704
0.494225 0.20533299 0.67955202
0.455075 0.210803 0.67942601
0.462201 0.21469501 0.67872298
0.46660051 0.212586 0.67896301
0.47244599 0.21321826 0.67758596
0.47594699 0.212128 0.67737132
0.48468599 0.210495 0.67554802
0.48751402 0.21210501 0.67734951
0.47310001 0.218353 0.67604798
0.48346651 0.2154575 0.67588949
0.44900101 0.223306 0.67714602
0.4585925 0.22310299 0.67621899
0.46895701 0.222653 0.67813498
0.480921 0.22436801 0.67679501
0.45132601 0.229699 0.67570001
0.45618299 0.229734 0.67575902
0.460731 0.227428 0.67848998
0.46827 0.229458 0.67884803
0.44351599 0.23073 0.67519403
0.44754601 0.2313565 0.67613852
0.45243698 0.2330215 0.67771995
0.45948699 0.230235 0.67506301
0.46317601 0.23142651 0.67778951
0.46650836 0.23139234 0.67721301
0.43593502 0.2377885 0.67532551
0.44390953 0.23714 0.67697704
0.46015501 0.23745599 0.67828602
0.46911651 0.2377845 0.67803401
0.438885 0.24059001 0.67500299
0.451525 0.24129 0.67575753
0.45538199 0.24177399 0.67794901
0.429919 0.247282 0.675713
0.43768725 0.24695024 0.67688447
0.445014 0.247309 0.67961299
0.45109233 0.24938166 0.67749166
0.434894 0.25247601 0.67759299
0.43624499 0.251959 0.67661798
0.44487101 0.25357401 0.67563301
0.44697699 0.25224301 0.67786199
0.45124 0.25412399 0.67941499
0.43509901 0.2566765 0.67767453
0.440938 0.255813 0.67900598
0.44614851 0.25599051 0.67705405
0.45418701 0.255835 0.67606997
0.43744123 0.26286101 0.67800945
0.435096 0.26888001 0.67575699
0.44413301 0.26567701 0.67776299
0.440467 0.271478 0.67739999
0.435074 0.27837199 0.67515099
0.444455 0.28095201 0.67952001
0.44217199 0.28652999 0.67839301
0.492019 0.1883195 0.68221551
0.49785501 0.188778 0.68001801
0.50288534 0.18940167 0.68262571
0.493058 0.19428401 0.68210399
0.49821535 0.19218634 0.68388337
0.50116253 0.1912175 0.68256801
0.50908798 0.19013201 0.68000901
0.51985598 0.19023199 0.68444502
0.48603499 0.1976175 0.6825335
0.49169999 0.19617751 0.68278199
0.49890125 0.19696376 0.68316048
0.4765375 0.204401 0.68213952
0.485183 0.20189101 0.68123698
0.49283299 0.201755 0.68158799
0.50055701 0.20458899 0.68162698
0.48322332 0.20867266 0.68089563
0.48642999 0.20526201 0.68015599
0.45901901 0.21174601 0.68101603
0.46173 0.213028 0.68332398
0.47255734 0.21331966 0.68284827
0.48513401 0.212492 0.68214202
0.46128452 0.2182945 0.68375146
0.4677555 0.2172015 0.6820395
0.473535 0.217305 0.68445998
0.47567201 0.21827349 0.68229997
0.44944501 0.220099 0.68296403
0.45703599 0.222037 0.68400198
0.46160948 0.2205665 0.68334198
0.46798199 0.222709 0.68295503
0.47281677 0.22329625 0.68285096
0.4795 0.220139 0.68349898
0.48384601 0.220549 0.68283302
0.45366299 0.228948 0.68241
0.46251568 0.22756533 0.68232632
0.45260799 0.23287001 0.68105698
0.46265101 0.23171851 0.68405801
0.477617 0.23360801 0.68036503
0.45145902 0.238746 0.68319672
0.45712501 0.237101 0.682724
0.439823 0.242511 0.68396503
0.44967899 0.242541 0.68070799
0.45314947 0.24264534 0.68166476
0.45678601 0.242191 0.68129998
0.46156499 0.24101 0.68411201
0.47281247 0.2424255 0.68386799
0.449577 0.245433 0.68138897
0.45041299 0.245946 0.68068802
0.455805 0.24619099 0.68243599
0.46679735 0.24745733 0.68190432
0.43519801 0.25143301 0.680426
0.44781032 0.25130534 0.68175364
0.45084801 0.25222701 0.68391901
0.44277599 0.256598 0.68382198
0.44718865 0.25847366 0.68296498
0.440743 0.26383701 0.68078101
0.44297799 0.26564801 0.680318
0.45474699 0.267966 0.68421698
0.456718 0.267744 0.68071598
0.43939799 0.27854601 0.68163902
0.45324299 0.277197 0.68458003
0.4930405 0.18679699 0.686432
0.496811 0.1891845 0.68643153
0.503097 0.1888475 0.68919754
0.50763702 0.1870285 0.68555999
0.51106101 0.18718401 0.68955398
0.49403101 0.193157 0.68721402
0.50480402 0.191153 0.68788898
0.50867701 0.191108 0.68707198
0.51161432 0.19131267 0.68851233
0.4772065 0.19821399 0.68849552
0.48203051 0.198993 0.68736351
0.49067649 0.19708401 0.68688297
0.49527201 0.199311 0.68500501
0.51049298 0.19756199 0.68705398
0.470025 0.201638 0.68683702
0.47930634 0.204109 0.68791598
0.482297 0.202078 0.68880802
0.487519 0.203172 0.68763798
0.49204549 0.20427001 0.68634999
0.49605599 0.201674 0.688362
0.50115699 0.204816 0.68963403
0.47741419 0.20723581 0.68749744
0.48328948 0.2089745 0.6863665
0.489048 0.20619801 0.68787897
0.49439651 0.20631799 0.68698096
0.45813999 0.214845 0.68691403
0.46167001 0.21223301 0.68946803
0.47281432 0.212954 0.68891305
0.47700432 0.212505 0.68770808
0.480185 0.212207 0.688429
0.48874101 0.211998 0.687415
0.45497 0.21698301 0.68949503
0.45618999 0.218082 0.68744397
0.46944299 0.21504501 0.68618602
0.47324499 0.219978 0.68851602
0.46210599 0.2239745 0.68658304
0.46823701 0.22226299 0.68723202
0.47865701 0.22019801 0.68784201
0.48181599 0.22176901 0.685727
0.45716301 0.22820599 0.68955201
0.46989799 0.227061 0.68873
0.47161001 0.226468 0.68861002
0.47601199 0.22689199 0.68574202
0.453722 0.23193 0.68589598
0.4562425 0.23284051 0.68781304
0.469899 0.232641 0.686037
0.4712795 0.2322025 0.6867705
0.47908801 0.2310515 0.68880403
0.443802 0.236783 0.68502897
0.45762697 0.23791401 0.68752337
0.462657 0.23852399 0.68873799
0.47511801 0.236017 0.68789399
0.44802499 0.24473599 0.68658298
0.45019701 0.24222399 0.68890703
0.46595499 0.24425501 0.68864399
0.45351899 0.246773 0.686957
0.46089199 0.249109 0.68800998
0.44660199 0.25382698 0.68889451
0.450991 0.25282499 0.68553197
0.457436 0.25141701 0.68952298
0.47100899 0.25208899 0.68750602
0.448091 0.257128 0.68789899
0.45215967 0.25785699 0.68730736
0.46173501 0.25773901 0.68725848
0.465354 0.25725901 0.68563998
0.44307601 0.26200101 0.68692797
0.44633901 0.26255351 0.68883598
0.45249701 0.260712 0.68576598
0.44372851 0.26876801 0.68643099
0.45078999 0.266904 0.68805498
0.450618 0.278373 0.68962801
0.44976801 0.28665 0.68844497
0.49976501 0.183834 0.694776
0.50603998 0.183576 0.69472802
0.51098049 0.18212 0.69180954
0.51771498 0.18418799 0.69297701
0.53036547 0.181538 0.69202054
0.49151501 0.18877301 0.69125599
0.495877 0.189787 0.69287598
0.50845724 0.186627 0.6923185
0.51015198 0.18890999 0.69301403
0.52095997 0.187438 0.69363397
0.48722634 0.19196832 0.69137031
0.492246 0.193492 0.69299603
0.49660698 0.19209631 0.69300938
0.501046 0.194631 0.692653
0.50543499 0.191266 0.69276702
0.48452201 0.197381 0.69388598
0.48727453 0.19673699 0.69269645
0.49747899 0.198681 0.69191301
0.48770228 0.20346449 0.69324994
0.49677849 0.20286599 0.69134694
0.50644898 0.20149399 0.69200999
0.463552 0.211206 0.69392902
0.474141 0.21386699 0.691203
0.47720599 0.21334775 0.69324398
0.48149201 0.21200199 0.69476402
0.48644099 0.21410568 0.69293767
0.49779901 0.21420699 0.69326198
0.45839101 0.218302 0.69142401
0.46241 0.218876 0.69220501
0.47200736 0.21720719 0.69267118
0.47829568 0.21806835 0.69233769
0.48004401 0.219117 0.69304699
0.49016601 0.217586 0.69311303
0.463568 0.224176 0.69066203
0.46963799 0.2232115 0.69391453
0.47288701 0.220035 0.69063902
0.482223 0.22411799 0.69410098
0.487075 0.222764 0.692779
0.449729 0.2261 0.69271302
0.45738998 0.22847967 0.69330865
0.46429101 0.22742601 0.69344401
0.46998501 0.225335 0.69022501
0.474314 0.229783 0.69145
0.45815301 0.232996 0.69266802
0.469666 0.231508 0.69424099
0.44972801 0.237739 0.69221699
0.45278299 0.237648 0.69183397
0.46299401 0.238157 0.69160903
0.46682134 0.23736133 0.69252801
0.47005701 0.236406 0.693434
0.45761201 0.24162701 0.69124502
0.46702036 0.24240001 0.69120401
0.47534502 0.24094351 0.69332755
0.44692171 0.24879175 0.69109404
0.4542765 0.248853 0.69167352
0.45636702 0.248133 0.691836
0.47120801 0.246529 0.69326401
0.454411 0.25313801 0.69011903
0.45569801 0.25248501 0.69269001
0.460022 0.25394899 0.69377398
0.44846648 0.25686848 0.69174898
0.457203 0.25893399 0.69259101
0.44732001 0.262943 0.69040298
0.46770501 0.261329 0.69107699
0.458428 0.26519501 0.69002599
0.46104199 0.26647401 0.69263148
0.46440101 0.27057001 0.69464701
0.46110401 0.27728599 0.69478297
0.51495302 0.179204 0.69738102
0.51696885 0.17834339 0.69746399
0.52294862 0.17756179 0.69825983
0.50433201 0.184937 0.69590002
0.51261127 0.18242651 0.69800299
0.51911998 0.182368 0.698125
0.52104902 0.181787 0.69870102
0.49052501 0.189162 0.69981802
0.49744299 0.188795 0.69973099
0.50228602 0.18676999 0.69649649
0.51403451 0.18806949 0.69736946
0.51650703 0.187703 0.69701499
0.52149397 0.188546 0.69678098
0.49648699 0.191282 0.69897097
0.50117373 0.19183676 0.69637698
0.50543499 0.191752 0.695898
0.52723199 0.19239099 0.69621402
0.49295464 0.19799601 0.69724661
0.498438 0.19780833 0.69701165
0.50228238 0.19768266 0.69646406
0.51307201 0.197798 0.69678903
0.47988501 0.20400301 0.69640601
0.48182499 0.20210099 0.6972695
0.49064901 0.20466299 0.69537598
0.49817997 0.20236799 0.69738853
0.50152302 0.203069 0.69836855
0.50854701 0.200251 0.69681603
0.47047499 0.207427 0.69875997
0.47875601 0.20591199 0.69663501
0.483567 0.20645201 0.69921303
0.48686349 0.206019 0.69703352
0.49462301 0.208985 0.69777298
0.49963099 0.206487 0.69628298
0.51004601 0.207046 0.69996899
0.47911599 0.210852 0.69824201
0.48049799 0.213897 0.69920498
0.48535901 0.214036 0.69660699
0.4912765 0.2131635 0.696711
0.465527 0.217813 0.69768399
0.47397649 0.219265 0.69893348
0.48441401 0.21597099 0.69516599
0.45486501 0.22316401 0.69956398
0.4575215 0.22141799 0.69688547
0.468582 0.22295034 0.69614071
0.47510549 0.2229955 0.69704103
0.49444199 0.22359701 0.69689101
0.454638 0.228439 0.69888401
0.464008 0.227064 0.69521701
0.46791664 0.22681667 0.69797868
0.4737905 0.2298045 0.69740248
0.47909901 0.22664 0.69913697
0.48200199 0.229231 0.69873101
0.48597699 0.22814301 0.69860202
0.463103 0.2320165 0.69844496
0.4723075 0.2330395 0.6967355
0.45191801 0.23822534 0.69805473
0.469129 0.239427 0.69940001
0.47350499 0.23934101 0.69512802
0.45000601 0.240338 0.69611597
0.46368399 0.241592 0.699184
0.46688801 0.241944 0.69988698
0.4512665 0.2471455 0.69657499
0.45765799 0.247851 0.69915402
0.46197882 0.24762718 0.69857419
0.46916401 0.249182 0.697945
0.471865 0.249602 0.69648099
0.45700601 0.25260949 0.69727349
0.46254101 0.253297 0.69597
0.471102 0.25446001 0.69614702
0.46198401 0.25731999 0.69597203
0.46729699 0.25704101 0.69863302
0.45889801 0.26123199 0.69872999
0.46020499 0.26264501 0.69942099
0.45444801 0.27173701 0.69531798
0.45687401 0.2769075 0.69795948
0.461097 0.27981001 0.69821799
0.51426798 0.176762 0.70152301
0.52155399 0.17809451 0.70248103
0.52828401 0.179684 0.700526
0.53228104 0.17768274 0.70293355
0.537485 0.179829 0.703457
0.496263 0.184094 0.70018703
0.50482297 0.18490699 0.70420551
0.50795573 0.18240666 0.70287436
0.51073402 0.182731 0.70005602
0.51838833 0.18368967 0.70183963
0.52202302 0.184604 0.70288998
0.53250003 0.184439 0.70378101
0.53610098 0.18248001 0.70323801
0.50279099 0.18846151 0.70256501
0.50908399 0.188766 0.70406598
0.51205301 0.18663451 0.7035175
0.52172601 0.187997 0.70375401
0.49179199 0.194645 0.70079601
0.50284135 0.19428001 0.70145869
0.50784802 0.1935115 0.70304549
0.51399899 0.192596 0.703197
0.48049101 0.19981401 0.70267099
0.48686501 0.198504 0.70361799
0.49601799 0.196418 0.70184302
0.50220001 0.19559 0.70233399
0.51252002 0.198419 0.70248801
0.48268101 0.204037 0.70212698
0.48754799 0.20429499 0.70374399
0.49528599 0.201066 0.70253301
0.50037497 0.201141 0.70376998
0.50671399 0.20050199 0.70032197
0.48649698 0.208893 0.70405102
0.49795198 0.2060765 0.70053202
0.477653 0.210758 0.70254302
0.48352998 0.21426499 0.70150995
0.48732349 0.213471 0.70445001
0.49292648 0.213239 0.7022205
0.49701634 0.21271366 0.70257068
0.50232196 0.212155 0.70312452
0.463447 0.21735799 0.70395303
0.47520301 0.217131 0.70421398
0.48996499 0.219386 0.70188099
0.490675 0.219598 0.70319402
0.46309099 0.22472499 0.70108598
0.469569 0.222288 0.70159698
0.47305968 0.22205199 0.70295066
0.47723699 0.222554 0.70049399
0.48152202 0.22354099 0.70229149
0.48600501 0.223836 0.70249897
0.49035501 0.22371399 0.70454299
0.49847499 0.22347701 0.70497698
0.467069 0.227157 0.70091802
0.47052801 0.225362 0.70084798
0.476845 0.226813 0.70370799
0.48349801 0.22804999 0.70417398
0.45885599 0.2334415 0.70149952
0.46456099 0.23197401 0.70250154
0.46672851 0.23342651 0.70213604
0.47018999 0.232839 0.702811
0.477485 0.23013601 0.70428699
0.49108401 0.232988 0.70051903
0.459418 0.236274 0.70433098
0.46715999 0.23904 0.704943
0.47543001 0.236481 0.703444
0.48178801 0.238701 0.70409101
0.454824 0.241317 0.70045203
0.46100599 0.24191549 0.70107651
0.46828365 0.24175267 0.70295793
0.470707 0.240008 0.70122701
0.475155 0.24334399 0.70196098
0.48181701 0.24005 0.70302403
0.46924901 0.249892 0.700858
0.457288 0.25755501 0.70224297
0.460495 0.25607401 0.70241398
0.46854699 0.25887901 0.70006597
0.46689501 0.26492 0.70139301
0.463386 0.267553 0.70400298
0.46274501 0.27471301 0.704216
0.47091201 0.27053401 0.70474601
0.52221799 0.173926 0.70778799
0.52504802 0.17454401 0.707883
0.53226036 0.17306666 0.70782703
0.512936 0.178495 0.70984101
0.51667154 0.17615351 0.70782447
0.5213055 0.1776935 0.70747447
0.53326899 0.1757165 0.70820403
0.539922 0.17648201 0.708224
0.50824201 0.18479501 0.70769501
0.51318401 0.180105 0.70524102
0.51934302 0.18494 0.70728302
0.521613 0.18346401 0.70985001
0.502033 0.18665101 0.708332
0.50906402 0.18841968 0.70774531
0.511428 0.18770549 0.70660651
0.51740867 0.18822433 0.70678329
0.525922 0.187593 0.70831102
0.53075498 0.18764099 0.70729703
0.48885101 0.19420099 0.70697802
0.49974301 0.19414701 0.70501399
0.50045103 0.193978 0.70723701
0.50539702 0.192358 0.70804697
0.51329201 0.194197 0.70795
0.51712 0.1921335 0.70761651
0.472812 0.197302 0.70785499
0.483078 0.198438 0.70631999
0.491272 0.198642 0.70692152
0.49940899 0.19777399 0.708893
0.50060803 0.195623 0.70975697
0.50933504 0.19681549 0.70628703
0.51445198 0.19510899 0.70587701
0.518677 0.197318 0.70695901
0.491541 0.204322 0.70714003
0.4975825 0.2017855 0.70701879
0.50916898 0.20152199 0.709117
0.51010501 0.20466401 0.70880699
0.47056699 0.207636 0.70804101
0.48876297 0.20735949 0.70668054
0.49257398 0.2081185 0.70513952
0.49885932 0.205988 0.70743704
0.50764251 0.20854551 0.70821398
0.47658801 0.21194801 0.70610905
0.48337701 0.214634 0.707165
0.49031699 0.211392 0.70906401
0.49946699 0.210612 0.70679098
0.47843 0.21676333 0.70725465
0.48542899 0.218419 0.70854098
0.45828101 0.22230899 0.70609403
0.4778266 0.22238819 0.708058
0.48240566 0.22311966 0.70807368
0.48905247 0.22213 0.7085765
0.495426 0.220961 0.70605499
0.45861599 0.22684599 0.70602202
0.468061 0.2288325 0.70702505
0.47000799 0.22699399 0.70559901
0.48602998 0.227709 0.70698297
0.49784401 0.22605 0.70822901
0.463772 0.230574 0.70996702
0.47306201 0.232898 0.70697069
0.48096102 0.23272049 0.70806551
0.48672599 0.230211 0.70861501
0.492055 0.23039 0.70969802
0.49546099 0.23268899 0.70814502
0.46201402 0.23683649 0.70695102
0.472388 0.23967101 0.70706201
0.479496 0.236763 0.70943302
0.48221001 0.238637 0.707488
0.487055 0.239802 0.70995998
0.46061301 0.24436399 0.70669401
0.46861601 0.24264599 0.70677537
0.471863 0.24193799 0.70550001
0.47871 0.240978 0.70999402
0.462506 0.247668 0.7077058
0.46817851 0.247399 0.70755053
0.47176099 0.24632201 0.70775098
0.47803599 0.24933 0.70810848
0.4661575 0.2505745 0.7077105
0.47162199 0.25295699 0.70589101
0.46269301 0.25766301 0.70699698
0.4685685 0.256419 0.708085
0.46385902 0.2603755 0.70591652
0.468088 0.26256999 0.70982099
0.467581 0.27984899 0.708345
0.51708901 0.171367 0.71080798
0.52489901 0.171727 0.71059
0.52615201 0.174909 0.71060902
0.54249901 0.1742675 0.71177602
0.54514003 0.172419 0.71038097
0.51276398 0.177569 0.71076798
0.5172177 0.17835701 0.71188664
0.52368855 0.17660725 0.7128967
0.53219801 0.17853999 0.71179497
0.53629601 0.17997099 0.71223801
0.54255301 0.17659 0.71418399
0.51616049 0.1815415 0.71291399
0.52148348 0.18222401 0.71181899
0.54350501 0.180333 0.71078098
0.50836605 0.18807499 0.71279567
0.513596 0.1892 0.71474802
0.51902103 0.18676201 0.71391898
0.52263749 0.186699 0.71223599
0.52747703 0.187447 0.71406901
0.48907399 0.190254 0.71212101
0.4934895 0.19159201 0.71200252
0.499259 0.19138101 0.71059901
0.50451499 0.1925005 0.71343899
0.51200098 0.19116499 0.71183699
0.49443352 0.19747201 0.71241999
0.50031698 0.195527 0.71377301
0.50632596 0.19699033 0.71364164
0.51313198 0.19707 0.7132405
0.52672899 0.19846199 0.71282399
0.48087299 0.200371 0.710751
0.49206901 0.200517 0.71033502
0.49693701 0.20333549 0.71256149
0.50299501 0.20091499 0.71333897
0.47555399 0.20774999 0.71290398
0.48544899 0.20555399 0.71405703
0.49519899 0.20838299 0.71440899
0.50293899 0.208352 0.71086198
0.51064599 0.205246 0.71060401
0.51566797 0.20861 0.71304899
0.48692599 0.21078999 0.71405399
0.493469 0.210879 0.71234399
0.49699232 0.21177334 0.71196097
0.50641799 0.21248899 0.71239555
0.47678599 0.21559 0.71135902
0.483145 0.218577 0.71238053
0.48714599 0.21771534 0.71339434
0.49234998 0.21576551 0.71347749
0.496519 0.216576 0.71368098
0.50172698 0.218329 0.71209902
0.47088799 0.22109 0.71223098
0.475099 0.22328401 0.71423799
0.480418 0.223069 0.71433699
0.488159 0.220309 0.71440202
0.492248 0.220909 0.71419197
0.47408 0.226748 0.714252
0.48613101 0.22929101 0.71350998
0.468815 0.23102351 0.71358001
0.472956 0.230873 0.71212947
0.47892967 0.23286833 0.71121496
0.49183199 0.234486 0.71392399
0.47780424 0.23752101 0.71244526
0.48356199 0.23718449 0.71330345
0.48846599 0.23784101 0.71392846
0.46736997 0.24184051 0.71037447
0.476971 0.240648 0.711519
0.48277801 0.240824 0.71403599
0.467906 0.24708301 0.71293849
0.47480199 0.24733 0.71251398
0.47667599 0.24614149 0.71292299
0.48405299 0.248979 0.71311599
0.469441 0.253104 0.71125001
0.474327 0.25420201 0.71329302
0.4684065 0.25735402 0.71124053
0.481011 0.26115999 0.71140498
0.523839 0.1690625 0.71820498
0.52952254 0.16840699 0.71751297
0.53589046 0.167668 0.71728301
0.52919698 0.17327601 0.71843398
0.53299999 0.17147601 0.71734124
0.52730101 0.176939 0.71758699
0.53006101 0.17620499 0.71890599
0.50283098 0.18387701 0.71740103
0.50509101 0.18334199 0.71630102
0.51209497 0.18174499 0.717372
0.51793098 0.18280101 0.71657866
0.52275968 0.18021767 0.71952671
0.52683699 0.18377601 0.71550202
0.53088498 0.184397 0.71900898
0.53699601 0.18443599 0.71800703
0.50757802 0.187213 0.71871901
0.51092148 0.187436 0.71941352
0.51803702 0.188144 0.71908301
0.52239299 0.18628199 0.71827
0.497307 0.192993 0.71728998
0.50851703 0.190617 0.71715301
0.51226401 0.19265801 0.71744299
0.51847446 0.19291849 0.71755397
0.50355428 0.19700076 0.71706128
0.51286966 0.19805367 0.71898264
0.51636702 0.196068 0.71956998
0.52440298 0.196843 0.7173
0.47840452 0.20266351 0.71650803
0.48374599 0.20416901 0.71502399
0.48874801 0.200271 0.71686798
0.491855 0.20058 0.71715498
0.49595851 0.2034435 0.71768653
0.50016904 0.2031835 0.71717548
0.50732601 0.2027005 0.71868253
0.511554 0.200233 0.71781099
0.48495701 0.207744 0.71533197
0.492814 0.208125 0.717646
0.49700302 0.20728099 0.717731
0.500247 0.208866 0.71902102
0.51068503 0.205791 0.71817499
0.48404899 0.211484 0.71642101
0.48871052 0.21178299 0.71744353
0.490969 0.21468399 0.71641397
0.49541965 0.21377367 0.71705198
0.477395 0.21787 0.71706599
0.49099001 0.21899199 0.71992397
0.50324398 0.215745 0.719051
0.476888 0.22199151 0.718288
0.484561 0.220725 0.71894699
0.48922199 0.22144 0.71763998
0.49046499 0.221761 0.71796501
0.49594101 0.22278599 0.71951002
0.50319999 0.22188449 0.71582848
0.47878599 0.227768 0.718768
0.49193335 0.22788866 0.71872371
0.47029001 0.232968 0.71530497
0.48030299 0.23035599 0.71661901
0.48778474 0.23197275 0.71696496
0.492266 0.2329095 0.71892148
0.500992 0.232519 0.71838599
0.47442734 0.23698799 0.71770102
0.46973699 0.24101099 0.71587199
0.47238803 0.24277049 0.71899152
0.477011 0.24154601 0.71937102
0.473777 0.24586999 0.717749
0.476998 0.24833199 0.71548003
0.48272201 0.24656549 0.7177062
0.48531201 0.249248 0.71698499
0.47876251 0.25094002 0.71814597
0.481545 0.25273001 0.715756
0.48596099 0.25074199 0.71959001
0.47237098 0.258313 0.71621829
0.48641899 0.260326 0.71764803
0.47804901 0.26733199 0.71942699
0.477653 0.270551 0.71503299
0.527215 0.16862801 0.720824
0.53118002 0.1677295 0.72154403
0.53770053 0.16820851 0.72186452
0.54980803 0.16551401 0.72150099
0.55711699 0.165442 0.72268701
0.51848698 0.171748 0.72156101
0.521514 0.17216399 0.72388899
0.5318985 0.1711925 0.724033
0.53832799 0.1722715 0.72251999
0.54025102 0.173463 0.72036701
0.55111998 0.171717 0.72090399
0.510692 0.176658 0.72420102
0.526784 0.177745 0.72269231
0.53086501 0.177965 0.720559
0.53604603 0.17675 0.72010499
0.54132748 0.1776755 0.72215998
0.512721 0.182914 0.72008753
0.51709545 0.182677 0.72406501
0.52838397 0.18225101 0.72437
0.53306901 0.18420801 0.724819
0.53678101 0.18317001 0.72411799
0.500045 0.18762299 0.720945
0.50574797 0.18898299 0.724868
0.51662201 0.185706 0.72053701
0.521896 0.18633901 0.72335798
0.53334802 0.18689799 0.72455603
0.49738348 0.193528 0.72198403
0.50673151 0.19195399 0.7235955
0.51358205 0.19215934 0.7240774
0.51683652 0.192738 0.72355002
0.52235997 0.19122851 0.72374797
0.52624953 0.192634 0.722435
0.49344501 0.198126 0.72096401
0.50375599 0.1981205 0.72416949
0.50769001 0.198176 0.72179198
0.52085203 0.196501 0.72096598
0.50059402 0.201373 0.72327203
0.50851297 0.202719 0.72184598
0.51390052 0.201711 0.72244948
0.520437 0.202525 0.72424001
0.49948099 0.208095 0.72320533
0.50318497 0.205091 0.72366899
0.50777984 0.2090662 0.72233617
0.52132899 0.206239 0.72053099
0.48028401 0.212009 0.72253799
0.486532 0.214645 0.720101
0.491023 0.2124445 0.72353446
0.50252551 0.21368 0.72373098
0.50726599 0.210896 0.723158
0.51266301 0.21360201 0.72233599
0.47470599 0.21502399 0.72354299
0.488289 0.218651 0.72026002
0.49201301 0.216934 0.72132897
0.49916399 0.216203 0.72140199
0.50298345 0.21775 0.72228551
0.51443797 0.219237 0.72354603
0.4871555 0.222665 0.72145301
0.49003401 0.223097 0.72020203
0.50055599 0.220466 0.72493899
0.477121 0.22661 0.72301298
0.48231047 0.22793099 0.72216105
0.48634797 0.2271315 0.72408247
0.49023801 0.22641601 0.72378302
0.49923399 0.225822 0.72274601
0.47872901 0.233328 0.72385502
0.484974 0.23199999 0.72293597
0.4865115 0.23229399 0.72213602
0.4913505 0.233649 0.72261149
0.50495702 0.23233201 0.72133201
0.48784351 0.2375485 0.7234695
0.49365899 0.236331 0.72326702
0.47775751 0.243129 0.72143549
0.48394701 0.244542 0.72169602
0.48720849 0.24119949 0.72338951
0.49795401 0.241805 0.72157902
0.477119 0.24731949 0.7226485
0.48403901 0.246472 0.72003102
0.49491599 0.25108999 0.72477198
0.48152101 0.25733799 0.72203505
0.53790349 0.1626365 0.7268365
0.541713 0.164507 0.72555798
0.52770698 0.166922 0.72951901
0.540537 0.168302 0.72921801
0.52670503 0.174963 0.72916698
0.53289133 0.172177 0.72793299
0.53894401 0.17327499 0.72950298
0.54168671 0.17186566 0.72879767
0.555677 0.17238 0.72896099
0.52279955 0.17740156 0.72747362
0.52714938 0.17773335 0.72873402
0.53193998 0.17614301 0.72594202
0.53513002 0.176724 0.72569799
0.513331 0.1824965 0.72948998
0.53333998 0.182198 0.72523302
0.50520903 0.18907601 0.72532898
0.51741499 0.18781801 0.72983599
0.52234334 0.187481 0.72773498
0.52594101 0.185635 0.72767699
0.530626 0.18659499 0.727768
0.50142902 0.19086 0.72773999
0.50811398 0.191227 0.72737801
0.51109201 0.19399101 0.72886002
0.51776648 0.19279751 0.72935498
0.52222103 0.191947 0.72844303
0.526999 0.19067501 0.726605
0.49245599 0.19749101 0.72726601
0.50271797 0.1974985 0.72646153
0.50879198 0.196439 0.72661197
0.51751947 0.197613 0.72891748
0.530249 0.19637001 0.72781301
0.50282651 0.204032 0.727934
0.50924402 0.201717 0.728827
0.5163365 0.20079949 0.72867799
0.52107149 0.203385 0.72944355
0.49251899 0.20628799 0.725824
0.50865102 0.205616 0.729716
0.51114798 0.20536999 0.72995597
0.52319199 0.205593 0.72921503
0.49709299 0.210712 0.72627747
0.50307399 0.21296699 0.72584099
0.51035297 0.21217951 0.72698849
0.489519 0.2179265 0.72581202
0.49641404 0.21775167 0.72559029
0.50258249 0.21870551 0.72672248
0.49228099 0.222324 0.726309
0.49973601 0.223534 0.72963601
0.50297701 0.22156 0.72850502
0.509601 0.22296099 0.72555399
0.48793933 0.227452 0.72593468
0.493716 0.226936 0.729186
0.49953598 0.2283975 0.729496
0.50306499 0.226788 0.728284
0.50655401 0.227588 0.72957402
0.48193201 0.232232 0.72917002
0.49694601 0.230286 0.728953
0.50653899 0.23232 0.72877198
0.48693401 0.23844349 0.72639096
0.48293224 0.24239525 0.7270875
0.48650768 0.24250601 0.72678369
0.49079099 0.24171101 0.72951102
0.501544 0.241878 0.725021
0.48332801 0.247594 0.72737199
0.48736301 0.24555101 0.72655499
0.481511 0.25011599 0.72613299
0.49812999 0.25142401 0.72870898
0.49187899 0.26037499 0.72796398
0.48441699 0.270531 0.72547197
0.56363398 0.158499 0.734676
0.53390801 0.162586 0.73358899
0.53747398 0.161513 0.732063
0.54157102 0.16383401 0.73162103
0.55192751 0.16077149 0.73359251
0.55556899 0.16086701 0.73470199
0.56416655 0.16115749 0.73236954
0.57000202 0.160744 0.73282599
0.52468699 0.16688401 0.73457402
0.52876198 0.16617301 0.73369646
0.53057402 0.168129 0.73350501
0.53857052 0.166346 0.73304051
0.54781497 0.167299 0.73011947
0.55380201 0.16696499 0.73413801
0.51103997 0.170221 0.73324901
0.521415 0.170858 0.732256
0.52960801 0.171068 0.73092902
0.53888595 0.17235351 0.73043948
0.54190397 0.17142099 0.73190999
0.54669601 0.172472 0.73326749
0.55732101 0.17104299 0.73162901
0.52141303 0.178128 0.73360503
0.52629697 0.17965201 0.73303699
0.53280902 0.177908 0.733859
0.536825 0.177609 0.732575
0.54826403 0.178717 0.73342401
0.514709 0.18473899 0.73428601
0.52304798 0.184662 0.73497999
0.52872097 0.18358499 0.73337048
0.53800851 0.1818395 0.73289299
0.51362902 0.18945 0.73034698
0.51717597 0.18949001 0.73401898
0.52367437 0.18745966 0.733464
0.52692997 0.186757 0.73036599
0.53091502 0.18894 0.73455101
0.506405 0.19462501 0.73343402
0.512353 0.19219367 0.73099661
0.52383745 0.19179049 0.73081952
0.52638203 0.19006 0.73462999
0.49842101 0.19808701 0.73143899
0.51205498 0.196389 0.73013502
0.51868552 0.197209 0.73305601
0.48535499 0.200899 0.73071802
0.496903 0.20067599 0.73097497
0.50320101 0.20311299 0.73223603
0.50839067 0.20194866 0.73211098
0.51361299 0.202427 0.73306048
0.51778603 0.20350349 0.73203599
0.499414 0.207736 0.73258197
0.50086999 0.20722 0.73277098
0.507254 0.20773301 0.73433
0.51278168 0.20717667 0.73309499
0.4923335 0.2113165 0.73351252
0.49924999 0.213883 0.73347598
0.50400198 0.212781 0.73395646
0.50807703 0.211022 0.73210502
0.512734 0.210143 0.73183602
0.51751554 0.21351299 0.73382902
0.49429649 0.217678 0.73075497
0.50285 0.217821 0.73385698
0.50602102 0.218292 0.73079348
0.519346 0.21619201 0.734317
0.4876785 0.2215085 0.73218703
0.492075 0.22177701 0.73031199
0.49725068 0.22397934 0.73205233
0.50138104 0.22291499 0.73033351
0.50671202 0.22244599 0.73032302
0.48792768 0.22797601 0.73103666
0.49270201 0.22802299 0.73181301
0.49627799 0.2298875 0.73460799
0.50157702 0.228817 0.731803
0.49036601 0.23027299 0.73419303
0.49771452 0.23276901 0.7336235
0.486646 0.23536199 0.73454601
0.49577799 0.236872 0.7330575
0.486754 0.242312 0.73160398
0.4927685 0.24041751 0.73154199
0.50347799 0.241678 0.73198998
0.50678301 0.24033301 0.73370397
0.48461699 0.248568 0.73002201
0.48922101 0.254076 0.73250902
0.49172199 0.25609699 0.73103398
0.494717 0.26097 0.73239702
0.494279 0.27189201 0.732602
0.5443415 0.1585805 0.73940253
0.55431849 0.15958551 0.73809302
0.56404448 0.157711 0.73818749
0.53260899 0.16068099 0.73977602
0.54532498 0.161645 0.73741698
0.55835599 0.16263933 0.7384603
0.56670803 0.160622 0.73917001
0.54422098 0.167574 0.73774534
0.54945701 0.168795 0.73701102
0.55236053 0.1683165 0.738083
0.55970299 0.16896801 0.73955798
0.52406502 0.17266101 0.738958
0.52847701 0.17119201 0.73878098
0.53226101 0.17230651 0.73851454
0.53797698 0.17227601 0.73598897
0.54076302 0.172517 0.73793298
0.54944903 0.17088699 0.73593301
0.523435 0.177688 0.735116
0.53615201 0.179171 0.73512
0.54307199 0.177215 0.73727399
0.521698 0.18192649 0.73701096
0.52846903 0.183852 0.73641801
0.5323835 0.18316799 0.73629701
0.53590149 0.18127425 0.73810005
0.51957351 0.18859801 0.73583651
0.52821201 0.18784399 0.73617703
0.54512697 0.18830401 0.73672098
0.50811601 0.191037 0.737463
0.52383965 0.19381134 0.73920298
0.529585 0.190007 0.73571801
0.53131998 0.19253549 0.73829949
0.54035002 0.190559 0.738029
0.51834798 0.197244 0.73773599
0.5225895 0.19855699 0.73979551
0.52520698 0.19644 0.73543102
0.489732 0.20161 0.73719901
0.49296001 0.203236 0.73622602
0.50321949 0.204017 0.73514903
0.509067 0.20226 0.73606998
0.51328534 0.20131166 0.73716933
0.52155501 0.201377 0.73873103
0.51419997 0.209088 0.73590899
0.51638198 0.20557401 0.73522502
0.48854199 0.212412 0.73664701
0.49711299 0.212879 0.737064
0.50255901 0.212685 0.73801696
0.51465201 0.212249 0.73732901
0.51530802 0.21123201 0.73536801
0.48985499 0.218932 0.73514199
0.498422 0.218747 0.738047
0.50382102 0.218647 0.73609602
0.50712937 0.21824832 0.73934269
0.51073647 0.21847551 0.73641348
0.49553502 0.22411349 0.73644
0.50189 0.222562 0.73862398
0.50934601 0.221132 0.73772502
0.51529199 0.22269399 0.73608798
0.49322 0.22667199 0.73602402
0.495065 0.22955699 0.73873597
0.50545198 0.22995199 0.73993498
0.51550001 0.22679 0.73942
0.512205 0.23212799 0.73933202
0.49207035 0.23729467 0.73720139
0.49861401 0.23816501 0.73733902
0.50316095 0.237822 0.73572648
0.49381199 0.241705 0.73720366
0.49906501 0.24281301 0.73982
0.49915701 0.2480675 0.73898852
0.5016855 0.25095898 0.73699498
0.494243 0.25526601 0.73646802
0.49519801 0.25623801 0.73747301
0.497354 0.260396 0.73842698
0.56945401 0.154222 0.74443102
0.53416401 0.159714 0.743433
0.53933299 0.15943301 0.74253798
0.54336703 0.1587075 0.74214649
0.55787498 0.15766899 0.74492198
0.56215346 0.15570751 0.74333149
0.56641501 0.15750299 0.74307299
0.53788853 0.1628875 0.74040198
0.54732001 0.1607375 0.74273503
0.53859299 0.168983 0.74004501
0.54877931 0.16767167 0.74129063
0.55200803 0.169431 0.74102855
0.55849755 0.169016 0.74264705
0.56107497 0.167789 0.74165797
0.52408099 0.17320099 0.74460399
0.52929401 0.172711 0.742194
0.53514898 0.17482001 0.74237901
0.54260099 0.174198 0.74117899
0.51153398 0.175851 0.74203002
0.51902401 0.17557199 0.74030501
0.52243948 0.1757915 0.74080902
0.529185 0.175045 0.74374598
