# .PCD v0.7 - Point Cloud Data file format
VERSION 0.7
FIELDS x y z
SIZE 4 4 4
TYPE F F F
COUNT 1 1 1
WIDTH 106
HEIGHT 1
VIEWPOINT 0 0 0 1 0 0 0
POINTS 106
DATA ascii
-0.42543799 -0.201074 1.405107
-0.42169285 -0.20265351 1.4068398
-0.4181895 -0.20412299 1.407375
-0.41676274 -0.20739225 1.4116312
-0.41284925 -0.20889199 1.4129424
-0.41479 -0.204206 1.411867
-0.40767398 -0.21308766 1.4188582
-0.4162305 -0.20731601 1.4168615
-0.4135612 -0.20737319 1.4173095
-0.413165 -0.21562999 1.422282
-0.410622 -0.21041501 1.420193
-0.40703726 -0.21228799 1.4223537
-0.40258199 -0.214164 1.423986
-0.41049999 -0.21574201 1.426011
-0.40206966 -0.21794666 1.4275713
-0.39864951 -0.217291 1.4282745
-0.40628067 -0.21294399 1.4260293
-0.40129566 -0.21356802 1.4272584
-0.39671433 -0.22219767 1.4319433
-0.40728801 -0.217971 1.431417
-0.40222901 -0.2176075 1.4334915
-0.39701262 -0.21669641 1.4323868
-0.39254975 -0.22185248 1.4374425
-0.38917679 -0.2230248 1.4385159
-0.3974444 -0.2168442 1.4364924
-0.39443398 -0.21672401 1.4363855
-0.392566 -0.22240999 1.4421904
-0.38708171 -0.22291517 1.4432496
-0.38470599 -0.224454 1.442606
-0.38560599 -0.22504701 1.44682
-0.38058963 -0.22718032 1.4477891
-0.378887 -0.22957499 1.447301
-0.3921293 -0.22201766 1.446997
-0.382512 -0.22251832 1.4476739
-0.38023999 -0.23188999 1.454164
-0.37566251 -0.230179 1.4530976
-0.380918 -0.225026 1.4520251
-0.37737942 -0.22846219 1.452036
-0.37169099 -0.22727799 1.454641
-0.38616002 -0.224207 1.4524415
-0.38262901 -0.23125499 1.455753
-0.371571 -0.2311285 1.4586275
-0.3682785 -0.23322551 1.4587054
-0.37261626 -0.22896424 1.4567462
-0.365587 -0.23679499 1.463398
-0.36204132 -0.23623167 1.4639994
-0.37602901 -0.23156001 1.460987
-0.37294501 -0.2319115 1.4607615
-0.36820933 -0.230671 1.4623394
-0.36272901 -0.23386499 1.46399
-0.36714602 -0.236882 1.4667605
-0.36207741 -0.2367212 1.4683812
-0.35804302 -0.2357495 1.4690545
-0.354424 -0.239439 1.46974
-0.37224901 -0.231765 1.465326
-0.360762 -0.241799 1.473055
-0.35745999 -0.24301399 1.47417
-0.35282025 -0.24131826 1.4721588
-0.349976 -0.24025001 1.473646
-0.35682178 -0.23651481 1.4730802
-0.35339898 -0.2372475 1.4714285
-0.35528699 -0.24501 1.475937
-0.347251 -0.24619 1.478929
-0.35249066 -0.24196883 1.4773661
-0.34653261 -0.2415752 1.4777399
-0.342549 -0.24491499 1.4783241
-0.346953 -0.24898 1.4827505
-0.34073699 -0.24739301 1.482872
-0.3383382 -0.24632461 1.4828362
-0.35352302 -0.24342099 1.4811625
-0.34713301 -0.24158101 1.4823431
-0.3428624 -0.24239042 1.4827893
-0.340298 -0.25025401 1.489251
-0.34113899 -0.248043 1.486818
-0.33537447 -0.24794799 1.4885399
-0.33216316 -0.2465283 1.4891281
-0.33312199 -0.25195 1.490948
-0.32702601 -0.25237149 1.4901576
-0.32295352 -0.25188351 1.49324
-0.33811098 -0.2472935 1.490983
-0.33246249 -0.24703151 1.491993
-0.32216868 -0.25576434 1.4974817
-0.31416976 -0.25650498 1.4978303
-0.332421 -0.25054201 1.495662
-0.32791433 -0.25207767 1.4967121
-0.32082966 -0.25132167 1.4966869
-0.31194201 -0.254583 1.499145
-0.31770334 -0.25627732 1.5022001
-0.314226 -0.25958899 1.50357
-0.30720299 -0.25793499 1.5019569
-0.30109701 -0.258329 1.504223
-0.31849951 -0.2537725 1.5030215
-0.31040198 -0.26141 1.5063175
-0.29601267 -0.26239598 1.5081745
-0.313806 -0.25654399 1.5080661
-0.304952 -0.261186 1.510007
-0.296891 -0.26453701 1.512377
-0.28690401 -0.263643 1.5147671
-0.30407551 -0.2595785 1.511709
-0.27489501 -0.267625 1.5174
-0.29528001 -0.26316199 1.515628
-0.26123801 -0.27124199 1.5245841
-0.28076601 -0.26799101 1.520667
-0.272957 -0.26801574 1.522699
-0.26406899 -0.273913 1.529052
-0.26515499 -0.2726 1.5314389
