# .PCD v0.7 - Point Cloud Data file format
VERSION 0.7
FIELDS x y z
SIZE 4 4 4
TYPE F F F
COUNT 1 1 1
WIDTH 1580
HEIGHT 1
VIEWPOINT 0 0 0 1 0 0 0
POINTS 1580
DATA ascii
0.92739201 -0.47820601 1.748466
0.93602401 -0.47634 1.7488
0.96153301 -0.47749901 1.7476494
1.0129139 -0.47809649 1.7462595
0.89725298 -0.47411799 1.746477
0.90591598 -0.47152001 1.747551
0.91064203 -0.47444299 1.746497
0.92403102 -0.474767 1.7465169
0.930709 -0.470837 1.748687
0.95705003 -0.47390699 1.749029
0.967197 -0.47398099 1.748426
1.031502 -0.47491801 1.746572
0.82847601 -0.466609 1.748436
0.83366799 -0.46740299 1.746955
0.898552 -0.46904099 1.746331
0.90270901 -0.46894401 1.746304
0.954009 -0.465855 1.747719
1.0304641 -0.46704999 1.748247
1.0371881 -0.46737301 1.749113
1.064558 -0.46850899 1.745205
1.0831929 -0.46824801 1.7472661
1.104248 -0.46950799 1.748678
0.7989555 -0.4616805 1.7472765
0.802329 -0.46274048 1.7472651
0.82959598 -0.46488401 1.747848
0.848427 -0.46404201 1.745688
0.92639899 -0.46299899 1.7488559
0.95511198 -0.463846 1.745294
1.0091079 -0.462706 1.7471811
1.054689 -0.46435499 1.745751
1.066709 -0.46328399 1.748657
1.103651 -0.46198601 1.749601
1.108042 -0.46325901 1.748481
1.133733 -0.462147 1.746467
0.79808998 -0.45810649 1.748214
0.80268848 -0.45759398 1.7463675
0.81721801 -0.45819601 1.74974
0.82179499 -0.459001 1.745747
0.83063298 -0.45911199 1.746667
0.84675801 -0.45950899 1.748971
0.90525502 -0.45850301 1.747712
1.115533 -0.45690501 1.746354
1.173156 -0.45877299 1.748086
0.78482097 -0.452371 1.749223
0.797984 -0.45490399 1.747162
0.81642699 -0.45411399 1.7481281
0.83155 -0.45135799 1.747389
1.09982 -0.45485699 1.7474689
1.267091 -0.450389 1.745136
0.75064498 -0.44985199 1.745833
0.76280999 -0.449691 1.7488
0.77249336 -0.44682232 1.7471609
0.77613401 -0.449691 1.7488
0.78675365 -0.44706133 1.7480707
0.79246801 -0.445553 1.74669
0.80622602 -0.448522 1.748701
0.82892901 -0.44586101 1.749175
1.1051461 -0.44955701 1.747308
1.268942 -0.44939101 1.746974
1.276202 -0.446825 1.749697
0.77769649 -0.4428755 1.747402
0.78941101 -0.44036502 1.7475541
0.79079002 -0.444754 1.746899
0.79934502 -0.44098699 1.749263
0.81080502 -0.44321299 1.745612
0.85937399 -0.440382 1.7463959
0.75941801 -0.43781099 1.749199
0.76279598 -0.436129 1.748232
0.76635802 -0.43897501 1.749808
0.77641451 -0.43825299 1.7468929
0.79553097 -0.437172 1.746578
0.80377698 -0.438775 1.745396
1.343974 -0.43822899 1.745294
0.74685299 -0.434535 1.7496181
0.76804101 -0.43261001 1.745235
0.77494699 -0.43339899 1.7474411
0.796902 -0.43421501 1.746462
0.93309802 -0.48217699 1.753803
0.93636298 -0.482465 1.752968
0.98421299 -0.48449799 1.754845
0.99896598 -0.481888 1.751043
0.87508202 -0.47566101 1.753648
0.92750102 -0.47718099 1.752685
0.936185 -0.47652701 1.7546819
0.94217497 -0.47556901 1.752076
0.94739199 -0.47971901 1.75157
0.97473198 -0.47646299 1.75018
0.988491 -0.47686201 1.750242
1.035664 -0.47543299 1.750468
0.88158798 -0.473196 1.751518
0.89767498 -0.47431299 1.752373
0.90122801 -0.47064 1.754778
0.90537697 -0.471264 1.753553
0.91851902 -0.474967 1.753193
0.93272501 -0.47349 1.751788
0.93677199 -0.473795 1.754979
0.970231 -0.47393799 1.7548521
0.99330199 -0.473088 1.75009
1.049966 -0.473003 1.7531019
1.0538369 -0.473883 1.753584
1.074522 -0.47081599 1.750362
1.147591 -0.47015199 1.752856
0.81342334 -0.46720067 1.7541727
0.81613445 -0.46683151 1.7531455
0.82806802 -0.4667955 1.7530479
0.84216595 -0.466681 1.7505646
0.85771149 -0.46776101 1.7506945
0.86690903 -0.46823001 1.750011
0.88869399 -0.46633801 1.754848
0.93117398 -0.46516901 1.753067
0.98750299 -0.46562201 1.75179
0.99486798 -0.46757701 1.753462
1.00708 -0.46998501 1.752427
1.019194 -0.46622401 1.752117
1.079573 -0.46675199 1.75302
1.0832649 -0.46906701 1.750823
1.214155 -0.46734551 1.752202
0.78915101 -0.463467 1.752272
0.79470801 -0.46264401 1.754447
0.80258 -0.46287999 1.75411
0.84223002 -0.464481 1.750934
0.84745848 -0.461494 1.752537
0.85335797 -0.463806 1.7531869
0.85980898 -0.46300399 1.753401
0.91502601 -0.463411 1.751565
1.031215 -0.46443099 1.751104
1.118633 -0.46462399 1.750897
1.160915 -0.46160901 1.752943
0.78196347 -0.45687401 1.7513936
0.79140902 -0.455901 1.753273
0.80830097 -0.45940101 1.7522326
0.81316298 -0.45543301 1.751569
0.84240299 -0.459162 1.754704
1.113587 -0.45789501 1.751254
1.1409301 -0.455948 1.752174
1.202117 -0.45517099 1.7504489
1.208228 -0.45524201 1.750186
1.245188 -0.45553699 1.7515301
0.767681 -0.453125 1.753131
0.78068101 -0.4511655 1.7522025
0.78718901 -0.45249799 1.750851
0.80280697 -0.45344001 1.750475
0.81132352 -0.45177048 1.7526865
0.82248002 -0.45056 1.752622
0.77842802 -0.44924101 1.753011
0.78553599 -0.44986501 1.751693
0.79138947 -0.44608501 1.7515565
0.835747 -0.44859001 1.751766
0.84216899 -0.44819701 1.752705
0.77110499 -0.443517 1.752929
0.78048503 -0.44375151 1.751549
0.78696698 -0.440732 1.752208
0.82520503 -0.44485599 1.75456
1.294461 -0.444554 1.7529891
1.349695 -0.441241 1.754258
0.74847001 -0.43823901 1.751863
0.75209802 -0.43690401 1.753855
0.76228601 -0.435987 1.752944
0.76659954 -0.43720651 1.7521524
0.78131151 -0.43705499 1.7532451
0.78573102 -0.43999401 1.750883
0.79226947 -0.43798 1.7518525
0.969459 -0.48710799 1.758648
1.035462 -0.485811 1.759279
0.94741702 -0.48022401 1.757059
0.96053499 -0.48113999 1.758669
0.85600603 -0.47550899 1.7596771
0.89010799 -0.47792199 1.756005
0.89672297 -0.479608 1.755873
0.91766298 -0.47641599 1.758191
0.925641 -0.47955099 1.75577
0.96164602 -0.47994801 1.755965
0.96889299 -0.476578 1.7598391
0.970478 -0.47547701 1.757283
1.0244811 -0.47951701 1.759902
1.115447 -0.47531599 1.758024
0.84778798 -0.471654 1.759232
0.886271 -0.47312501 1.75648
0.89538002 -0.470676 1.756696
0.90281045 -0.47290552 1.756038
0.946962 -0.471892 1.758575
0.96685499 -0.47307101 1.757072
0.98609799 -0.47396299 1.758166
0.99133003 -0.47169301 1.75849
1.014099 -0.474455 1.75875
1.015288 -0.473728 1.759348
1.024549 -0.47387701 1.759585
1.059538 -0.473937 1.755754
1.074914 -0.47397 1.757087
0.80555499 -0.46868899 1.759213
0.81943101 -0.46878901 1.758532
0.83206999 -0.46726501 1.75641
0.83855897 -0.46676999 1.756361
0.87582499 -0.46865001 1.755464
1.007224 -0.46705899 1.756858
1.070067 -0.46855801 1.758695
1.1202559 -0.46796399 1.75541
1.1314009 -0.46749699 1.7580709
1.174759 -0.466988 1.75543
0.75956303 -0.46147999 1.759993
0.76943702 -0.46085 1.757432
0.77095801 -0.46120501 1.7553509
0.7820735 -0.4614085 1.7574005
0.78983599 -0.464145 1.758402
0.79245859 -0.46120366 1.7571529
0.80712402 -0.46304899 1.755832
1.026001 -0.46029001 1.755607
1.100795 -0.464156 1.755046
1.179796 -0.464975 1.75973
1.2076091 -0.46439099 1.7584
1.360626 -0.46141699 1.7594841
0.76765901 -0.45977899 1.755627
0.77166575 -0.45768133 1.7590942
0.77947199 -0.45896199 1.756929
0.78596801 -0.45732301 1.756825
0.79732752 -0.4559935 1.756335
0.80265999 -0.456678 1.755934
0.81004101 -0.45869201 1.759465
0.81865346 -0.45754349 1.7564865
0.83895302 -0.45963201 1.756839
1.178712 -0.459782 1.755446
1.194382 -0.45962 1.756515
1.351704 -0.45620599 1.759799
0.74922299 -0.45000401 1.75933
0.752657 -0.451015 1.758826
0.763605 -0.45155698 1.75921
0.77303553 -0.45312899 1.755839
0.77808928 -0.45253134 1.7590953
0.78650302 -0.45438099 1.7577159
0.80307102 -0.45084801 1.758214
0.83709502 -0.45067701 1.757984
0.753133 -0.44569501 1.7558515
0.76732332 -0.44602048 1.758408
0.77782297 -0.44985199 1.759619
0.782399 -0.446495 1.759655
0.785896 -0.448834 1.75708
1.317359 -0.448125 1.758477
0.73218352 -0.440413 1.7576705
0.75375402 -0.44345549 1.756675
0.76550603 -0.44057599 1.7555
0.77098799 -0.444662 1.759534
0.77560598 -0.444915 1.7569439
0.78100598 -0.443569 1.757833
0.80786997 -0.44133499 1.758142
1.339916 -0.437776 1.755717
0.95470601 -0.48971799 1.76245
0.96771002 -0.48616201 1.761253
1.021006 -0.48829699 1.761537
0.886343 -0.48091599 1.76331
0.898444 -0.481435 1.76081
0.90004098 -0.48242801 1.764776
0.92215198 -0.48117599 1.7622401
0.928271 -0.480216 1.760834
0.93096101 -0.48208699 1.762973
0.94426298 -0.48213801 1.764805
0.95793301 -0.482319 1.76456
0.97947103 -0.48251101 1.761529
0.98196298 -0.48198399 1.764634
1.0078425 -0.48198551 1.7621219
0.86072302 -0.475633 1.763162
0.885566 -0.47876799 1.762682
0.902053 -0.47674301 1.760179
0.91927099 -0.478158 1.764426
0.97164601 -0.479231 1.7638839
1.027674 -0.47881299 1.760594
1.035374 -0.47749799 1.760999
1.065182 -0.478165 1.7645839
0.839647 -0.47256601 1.764882
0.84489101 -0.47429401 1.762998
0.88987601 -0.47393399 1.761597
0.92130703 -0.47146901 1.762921
1.007117 -0.47119701 1.761994
1.01082 -0.473831 1.760746
1.0778401 -0.47223449 1.7615914
1.105211 -0.47191599 1.762184
1.125098 -0.47094399 1.7618459
1.1524661 -0.47223899 1.763581
1.363493 -0.474637 1.763881
0.78890997 -0.46607 1.760838
0.79242748 -0.46767849 1.7619951
0.80731499 -0.466701 1.76359
0.82082498 -0.46798599 1.761397
0.83938903 -0.46922401 1.764521
1.069571 -0.46825999 1.7615761
1.1208349 -0.465078 1.763202
1.137714 -0.46667999 1.762871
1.152212 -0.46777999 1.763863
0.75814599 -0.46176499 1.764766
0.78007501 -0.46322501 1.760833
0.78912598 -0.461256 1.760747
0.79500198 -0.46429601 1.76229
0.80037701 -0.46126801 1.764134
0.81459302 -0.46193501 1.761772
1.137314 -0.46195999 1.764928
1.163829 -0.460868 1.761583
0.74234903 -0.45694801 1.764362
0.74732101 -0.45657799 1.764614
0.76267499 -0.45977601 1.760933
0.78419 -0.457645 1.762282
0.79464298 -0.45502001 1.76215
1.225847 -0.45538601 1.7643239
0.74754548 -0.45170248 1.7640535
0.75674498 -0.45458701 1.760139
0.76496798 -0.45313901 1.762239
0.76545548 -0.45153052 1.762114
0.77128798 -0.452865 1.761768
0.77792299 -0.45460299 1.76096
1.301967 -0.45084801 1.7624429
0.72955501 -0.44684601 1.76282
0.746611 -0.44526899 1.760563
0.75537598 -0.447887 1.7621109
0.77814299 -0.44777399 1.764291
0.78331703 -0.44777399 1.76446
0.78589797 -0.44786701 1.761085
0.79214251 -0.44705248 1.7622576
1.3391041 -0.44987199 1.7642111
1.3640826 -0.44761199 1.7634034
0.71469402 -0.44442201 1.764106
0.719845 -0.44293401 1.7602611
0.74366099 -0.44225699 1.761113
0.750597 -0.442002 1.762628
0.75729799 -0.44185701 1.76068
0.764166 -0.440617 1.762025
0.76880699 -0.44222099 1.762913
0.95447201 -0.48730999 1.769195
0.90461802 -0.48199499 1.767696
0.93297201 -0.482117 1.769398
0.95938402 -0.480811 1.766794
0.990991 -0.48473701 1.766541
0.99599898 -0.48479199 1.7656161
1.020781 -0.48199201 1.768896
1.046916 -0.48365599 1.767208
0.87570697 -0.479819 1.76811
0.97734499 -0.47728401 1.765438
1.031008 -0.478457 1.767749
1.090166 -0.47586799 1.768958
1.183145 -0.47940001 1.767252
1.200987 -0.47752401 1.765859
1.216967 -0.476105 1.769757
1.233176 -0.47583699 1.765673
0.80708098 -0.47251299 1.7696151
0.82956499 -0.473948 1.7686779
0.84750199 -0.47192499 1.766748
0.85484803 -0.471255 1.767105
0.88496602 -0.47449899 1.76899
1.106689 -0.47061399 1.7693959
1.137843 -0.47475401 1.765866
1.208523 -0.47340801 1.767908
0.76673102 -0.466106 1.768185
0.780402 -0.466288 1.76794
0.80802202 -0.46993601 1.768573
0.831119 -0.46736601 1.769605
0.83827698 -0.46828699 1.765258
1.189893 -0.46912101 1.769176
1.215003 -0.46548101 1.7695791
0.74795097 -0.460132 1.768284
0.75898004 -0.46257848 1.7688495
0.76141202 -0.46026099 1.768392
0.76829898 -0.46191901 1.7678241
0.77361 -0.46120599 1.76841
0.79394805 -0.46243051 1.7677815
0.80829698 -0.46352899 1.7650141
0.81317902 -0.46425 1.76859
1.13097 -0.46389699 1.7658139
1.1531709 -0.46116999 1.766158
1.253327 -0.46452799 1.765075
0.72795397 -0.45930901 1.768585
0.75034797 -0.45661801 1.765654
0.76393497 -0.45832402 1.76898
0.78178197 -0.458684 1.765982
0.78781599 -0.459728 1.767004
0.73031902 -0.454346 1.7668999
0.73902249 -0.451868 1.769302
0.74378097 -0.454346 1.7668999
0.76858151 -0.45225799 1.768464
0.82157099 -0.452813 1.768348
1.2714 -0.45156601 1.766351
0.72206098 -0.44513699 1.767681
0.733872 -0.448127 1.7684726
0.74494398 -0.44791201 1.765041
0.748079 -0.44667101 1.768427
0.752442 -0.44968301 1.7693321
0.76154 -0.44679999 1.768535
0.76638901 -0.44735 1.768031
0.77771097 -0.446064 1.76799
0.79501599 -0.449 1.76929
1.313545 -0.44658101 1.766323
0.71699798 -0.44465601 1.767601
0.957142 -0.491992 1.770178
0.96576798 -0.490787 1.772537
0.91386998 -0.48818552 1.7717171
0.92709398 -0.48813501 1.7723579
0.934892 -0.48824099 1.774533
0.94111902 -0.48823601 1.77167
0.96916801 -0.488437 1.770293
0.981502 -0.48925701 1.773461
1.0108269 -0.48823601 1.773651
1.084053 -0.48951301 1.772992
1.125015 -0.48595199 1.773561
0.89653802 -0.480856 1.770647
0.95970798 -0.48136199 1.770925
0.96431398 -0.481269 1.7739331
0.98610002 -0.480391 1.772936
1.002496 -0.48403901 1.773386
1.00559 -0.48008999 1.77465
1.01191 -0.480382 1.770056
1.046472 -0.48042601 1.771958
1.050235 -0.48209101 1.771314
1.093974 -0.48229799 1.772719
1.103043 -0.48405701 1.772929
1.1417741 -0.482802 1.77122
1.0308321 -0.479339 1.7749881
1.086831 -0.47760999 1.7724485
1.091247 -0.47973999 1.77316
1.108597 -0.479783 1.770434
1.110526 -0.47581401 1.7710249
1.118028 -0.479891 1.770534
1.14499 -0.47679499 1.77323
1.178463 -0.47917801 1.774377
1.193493 -0.476293 1.771142
0.99475002 -0.47341701 1.773131
1.112942 -0.47155601 1.7720439
1.125502 -0.473795 1.774658
1.135681 -0.474298 1.770752
1.184913 -0.47150201 1.771736
0.7622757 -0.46749234 1.771942
0.76625502 -0.46546301 1.771538
0.77756834 -0.46784201 1.7735027
0.78179836 -0.46830067 1.7729354
0.78590846 -0.46834999 1.7717125
0.80748898 -0.46667799 1.773241
1.023208 -0.46903399 1.77069
1.081754 -0.466952 1.770357
1.156387 -0.46718401 1.771039
0.72889 -0.46174401 1.774598
0.73484802 -0.46191201 1.773701
0.73630798 -0.46030599 1.771975
0.76320797 -0.46399599 1.7710299
0.81219202 -0.46402699 1.7708369
1.131405 -0.46278599 1.773815
1.155071 -0.463449 1.773569
1.24315 -0.46220699 1.77226
1.357223 -0.46324599 1.772746
0.73311102 -0.457389 1.7731071
0.73961699 -0.45893899 1.770866
0.74452603 -0.45780799 1.772392
0.74835753 -0.45732498 1.772344
0.75449598 -0.45636702 1.773154
0.762003 -0.45529601 1.772619
0.7691713 -0.45576766 1.7715944
0.77767903 -0.456323 1.774761
0.78253502 -0.45804 1.7704375
1.2543989 -0.458318 1.774161
0.72364998 -0.45247298 1.7740295
0.72956699 -0.45137 1.7732069
0.74677753 -0.4533805 1.7727325
0.75782299 -0.45131099 1.772926
0.79045999 -0.45304501 1.7739609
0.725963 -0.44975999 1.77417
0.74315649 -0.44984049 1.773016
0.75797802 -0.44841501 1.770395
1.315196 -0.444033 1.771181
0.92751598 -0.49123901 1.778621
0.93214101 -0.49049401 1.775648
0.94741797 -0.494115 1.77666
0.95108998 -0.49360499 1.775696
0.96121001 -0.49094099 1.777257
0.96758997 -0.49276501 1.77942
0.98203403 -0.491263 1.77799
0.99181998 -0.49071801 1.779824
1.068861 -0.49200499 1.777449
1.095134 -0.49168801 1.779992
0.891572 -0.487573 1.7772
0.90046197 -0.48951101 1.77835
0.93686199 -0.48832601 1.778161
0.95676899 -0.48758799 1.778247
0.99439198 -0.488787 1.77773
0.99647802 -0.48976099 1.776561
1.002588 -0.48699999 1.776533
1.035287 -0.486018 1.778044
1.064728 -0.48732799 1.777288
1.110074 -0.48881999 1.776776
0.83706403 -0.480652 1.7788301
0.91381699 -0.484543 1.77965
0.98384202 -0.48319548 1.7755716
1.01752 -0.48422399 1.777575
1.043088 -0.48434499 1.775987
1.0793509 -0.484813 1.775003
0.83256602 -0.477139 1.777746
0.90101701 -0.47966301 1.77872
0.91621602 -0.47993901 1.776987
1.0152169 -0.476515 1.779789
1.068633 -0.47606099 1.779389
1.092675 -0.47817099 1.778105
1.099885 -0.47948101 1.7758811
0.80343002 -0.471625 1.778458
0.73367202 -0.46561101 1.7782969
0.76652402 -0.46794301 1.778313
0.79962999 -0.46877801 1.777124
0.81275898 -0.46975601 1.775416
1.136821 -0.46901599 1.776042
1.185149 -0.46764901 1.775503
1.190902 -0.46729901 1.779125
1.3809659 -0.46788701 1.777733
0.73864698 -0.46300149 1.7795351
0.74098402 -0.46068799 1.77827
0.75288898 -0.464481 1.777877
0.75557101 -0.46296099 1.7787
0.76449901 -0.46088499 1.775239
0.77085501 -0.46427 1.778227
1.212484 -0.46226299 1.775395
0.71931797 -0.45612201 1.775898
0.74108499 -0.45714599 1.777059
0.75106603 -0.45879501 1.776473
0.75532597 -0.45793501 1.775183
0.766958 -0.45951 1.775481
0.773543 -0.45581099 1.778394
0.78645402 -0.45704201 1.777606
1.184502 -0.45879 1.7779419
1.368909 -0.45738801 1.776504
0.70966601 -0.45043799 1.7767119
0.71964097 -0.45415401 1.776691
0.754399 -0.45131499 1.779189
0.76932001 -0.454815 1.776373
1.368027 -0.453495 1.778966
0.99987298 -0.50013 1.78451
0.93870199 -0.49577001 1.7822779
0.94631898 -0.49404201 1.7826149
0.95314598 -0.494268 1.780849
0.96886897 -0.492686 1.7840461
1.003251 -0.49451599 1.783066
1.020859 -0.494872 1.7841409
0.88146299 -0.486821 1.783671
0.89056498 -0.48913601 1.784477
0.94810802 -0.48928699 1.781605
0.97211897 -0.48536199 1.7823499
0.99927002 -0.48688701 1.7805279
1.0234015 -0.48635599 1.7828979
1.032264 -0.488938 1.783793
0.841645 -0.48004401 1.78031
0.881239 -0.48266101 1.783131
0.90025198 -0.48237699 1.78255
0.92731899 -0.48161 1.7817481
0.951657 -0.48097599 1.780953
1.012576 -0.48203 1.7843
1.095953 -0.480685 1.7802041
1.196596 -0.48326901 1.784209
1.227332 -0.48031101 1.780421
0.823286 -0.475099 1.78237
0.84988803 -0.479507 1.780809
1.019381 -0.47981101 1.7832609
1.049773 -0.47739699 1.780539
1.09422 -0.47926199 1.782348
1.096799 -0.478506 1.782939
1.107805 -0.47599301 1.782475
1.238868 -0.47684601 1.781875
1.267907 -0.47662601 1.78341
1.379809 -0.47759101 1.781692
0.80641001 -0.47204301 1.7842259
1.136588 -0.470604 1.780306
1.155017 -0.47355801 1.780095
1.1833529 -0.47359401 1.781739
1.22273 -0.473952 1.781633
1.2860301 -0.47300899 1.782405
0.72510999 -0.46544501 1.783223
0.73745155 -0.466717 1.7828724
0.75142848 -0.46614 1.782176
0.759103 -0.46648201 1.783241
1.233429 -0.46610501 1.784382
0.71975702 -0.463211 1.783062
0.72791803 -0.46437651 1.7843945
0.73967099 -0.462098 1.78206
0.747971 -0.46102899 1.781251
0.76312852 -0.4604995 1.7824974
1.163853 -0.464468 1.781776
1.294036 -0.46305799 1.780359
0.71489 -0.459162 1.781054
0.71765697 -0.45768851 1.7820754
0.72013497 -0.456442 1.781556
0.73334235 -0.45690235 1.782626
0.74692565 -0.45777035 1.7826771
0.75273198 -0.45735699 1.784375
1.359264 -0.45622101 1.782397
0.72040403 -0.454797 1.784497
0.72632998 -0.45290601 1.782759
0.77270901 -0.45223701 1.7809911
0.98477298 -0.50260699 1.78894
1.050311 -0.50029099 1.789638
0.95250899 -0.49818799 1.789151
0.99161202 -0.499901 1.78871
0.89875001 -0.49023601 1.785022
0.90074301 -0.49234 1.7879291
0.923388 -0.49224901 1.789839
0.928729 -0.49444401 1.786103
0.95005101 -0.49161401 1.785641
0.97193301 -0.49046201 1.786351
0.99472898 -0.493426 1.789035
1.008907 -0.49352801 1.78834
1.0177391 -0.49044901 1.78523
1.028952 -0.49157199 1.785153
1.047179 -0.49084601 1.78811
1.1118 -0.49203399 1.787442
0.90911001 -0.48744801 1.789979
0.93066299 -0.487984 1.7851371
0.96064597 -0.48912001 1.788692
0.98087102 -0.48909 1.787383
0.98869699 -0.486072 1.786979
1.004033 -0.48999199 1.787401
1.054994 -0.488585 1.7872601
1.081381 -0.48555601 1.7893831
1.088112 -0.48808801 1.7878985
1.074131 -0.48474699 1.785815
1.172753 -0.48480901 1.787635
1.180146 -0.481617 1.786303
1.211782 -0.48103499 1.786541
1.128074 -0.47968301 1.78947
1.207431 -0.47866401 1.7899131
1.2703561 -0.47558001 1.787003
0.74112564 -0.47057101 1.786275
0.75774097 -0.47188601 1.7857831
0.768821 -0.47281799 1.787328
0.78608 -0.47330701 1.785659
1.123794 -0.47161499 1.7885669
1.171881 -0.47447699 1.786496
1.20897 -0.47426999 1.789937
1.267249 -0.47052199 1.786622
0.72950399 -0.465462 1.788848
0.733298 -0.46837401 1.787717
0.761994 -0.46872601 1.788765
0.80245799 -0.46834701 1.788849
0.71402848 -0.46316749 1.7885056
0.72711396 -0.46411598 1.789494
0.74218303 -0.46472299 1.78659
0.76049602 -0.46185699 1.788456
0.77196997 -0.464237 1.78798
0.69711697 -0.459077 1.7853
0.70790303 -0.45732349 1.787643
0.71993202 -0.456249 1.788164
0.72432202 -0.459077 1.7853
0.72570801 -0.457192 1.785923
0.73374701 -0.456433 1.787917
0.73661447 -0.45722198 1.7869401
0.74141997 -0.45896301 1.786674
1.365243 -0.450418 1.7851419
0.96059197 -0.50251597 1.7947
1.021556 -0.50038201 1.791507
1.03537 -0.50315899 1.792853
0.9616465 -0.49878448 1.79287
0.966272 -0.49994001 1.793712
0.98350197 -0.49892899 1.793378
0.98549598 -0.495327 1.791931
1.047448 -0.497462 1.794266
1.0622981 -0.49632099 1.792757
1.088282 -0.496488 1.793785
0.93768901 -0.49455801 1.790679
0.942532 -0.49098501 1.7912641
0.9661445 -0.491943 1.7920295
0.97470403 -0.49198401 1.791486
0.98663098 -0.49339199 1.791
0.99532503 -0.49172899 1.790218
1.005392 -0.493871 1.791504
1.088218 -0.49016199 1.794751
1.117204 -0.49060601 1.790239
0.911125 -0.488408 1.7910531
1.003134 -0.488179 1.79162
1.008956 -0.48519501 1.794288
1.020121 -0.48709199 1.792465
1.042781 -0.4870055 1.792805
1.053835 -0.489622 1.792531
1.068442 -0.48810199 1.791085
1.086235 -0.48709899 1.793017
1.101429 -0.48658901 1.79357
1.115222 -0.486601 1.791031
1.138201 -0.48918599 1.790966
1.157275 -0.48734799 1.7921751
1.105261 -0.483017 1.793609
1.120213 -0.48475799 1.793249
1.146216 -0.48224601 1.794438
1.196218 -0.48427701 1.792141
0.79029602 -0.47645399 1.79336
0.79856402 -0.47972 1.791903
1.2546819 -0.47815001 1.7916009
1.385781 -0.475425 1.7918921
0.726987 -0.47121099 1.793985
0.75317299 -0.472399 1.7921405
1.220883 -0.47388899 1.791203
0.71556199 -0.466766 1.7935855
0.72430903 -0.467738 1.793326
0.72864801 -0.46652201 1.7941
0.73139095 -0.46635166 1.7925667
0.73859602 -0.46831 1.791454
0.74127603 -0.46782199 1.791466
0.75298101 -0.467044 1.7928571
0.781618 -0.465087 1.790967
1.391579 -0.46762499 1.792832
1.397513 -0.46521601 1.79304
0.70323801 -0.46191099 1.793782
0.70715803 -0.46072 1.793893
0.71446198 -0.461494 1.7947
0.71552998 -0.460049 1.791682
0.72051501 -0.463 1.7904119
1.38907 -0.46370801 1.794567
0.71648198 -0.45905799 1.790388
1.388752 -0.45904499 1.792002
0.95723301 -0.50449401 1.7972471
0.919949 -0.49882999 1.798005
0.928186 -0.497004 1.795339
0.97073001 -0.49816 1.795431
0.9904955 -0.49677849 1.7977304
1.013401 -0.49947301 1.796747
1.073251 -0.49937299 1.797019
1.396781 -0.495731 1.797151
0.99780798 -0.49012199 1.795167
1.011887 -0.49022901 1.798887
1.027597 -0.493 1.795548
1.062827 -0.491909 1.79826
1.139642 -0.49221101 1.797578
0.92539102 -0.48982999 1.7960891
1.1430194 -0.488893 1.796415
1.180923 -0.48584801 1.79909
1.2214431 -0.48484501 1.795384
1.39807 -0.48180699 1.798683
1.40004 -0.48403999 1.799788
1.14219 -0.475238 1.795465
1.264315 -0.47795501 1.798106
0.72367299 -0.47245699 1.79756
0.729321 -0.47174901 1.797588
0.69185698 -0.465837 1.798738
0.70146102 -0.46690699 1.795671
0.70878452 -0.46964598 1.7957865
0.712277 -0.468005 1.7972929
0.7170735 -0.46802253 1.795493
0.73244101 -0.46700299 1.7958879
0.75565201 -0.468063 1.79562
0.70608699 -0.46254402 1.7975048
0.714526 -0.46010301 1.795372
0.723351 -0.46478701 1.799178
0.729002 -0.46057999 1.798691
0.74509603 -0.46489501 1.796819
1.335948 -0.46155199 1.796119
1.394606 -0.460289 1.7986079
1.404125 -0.46138901 1.799233
0.95063198 -0.50574398 1.802753
0.96459502 -0.50592899 1.802503
0.96927798 -0.507061 1.80364
0.97770703 -0.50695598 1.80419
1.021886 -0.505871 1.803002
0.92620003 -0.5019725 1.8022261
0.93937302 -0.50284803 1.801851
0.95142102 -0.503842 1.800398
0.96839499 -0.50278002 1.804408
0.98353201 -0.503214 1.802285
1.000201 -0.50118101 1.8032629
1.0133705 -0.50159144 1.8015665
1.081825 -0.50126702 1.803663
0.906443 -0.49579501 1.804379
0.92544699 -0.499295 1.802545
0.95910501 -0.49805099 1.803221
0.97399199 -0.49989599 1.8014719
1.038365 -0.497518 1.8002549
1.051271 -0.497347 1.8002321
0.98594099 -0.49469799 1.801859
1.084443 -0.491357 1.80022
1.190466 -0.490325 1.803367
1.166077 -0.48519301 1.802789
1.116184 -0.48044401 1.803319
1.108356 -0.47675699 1.801615
1.303468 -0.47742701 1.801544
0.710931 -0.47220999 1.801753
0.71763998 -0.47293964 1.8023534
0.72722632 -0.47114232 1.8020953
0.74200797 -0.47343701 1.803448
0.77678198 -0.47313201 1.804327
1.275763 -0.47492799 1.804427
0.69687903 -0.46954301 1.801949
0.70384097 -0.46606499 1.801366
0.73286802 -0.46556401 1.801635
0.73284501 -0.464448 1.8047611
1.2014771 -0.46499699 1.802047
1.379595 -0.462657 1.8007931
0.98931801 -0.51224297 1.807961
0.978001 -0.50672102 1.806374
1.026117 -0.50907701 1.8059959
1.064903 -0.50560302 1.809038
0.94816053 -0.50428951 1.8086735
0.95342946 -0.50208247 1.8069584
0.96913201 -0.50299102 1.809785
0.97705901 -0.50152701 1.807053
0.98761499 -0.50257599 1.805005
1.04871 -0.500799 1.808876
1.055678 -0.50069702 1.808288
0.89743501 -0.49836099 1.806661
0.90603399 -0.496878 1.805118
0.93697649 -0.49826899 1.8067369
1.001143 -0.49667099 1.806433
1.06397 -0.49958301 1.806767
1.079796 -0.49602601 1.807928
1.085454 -0.49640799 1.808831
1.1083674 -0.49856749 1.8080025
1.1195869 -0.49937001 1.808188
1.088827 -0.49027801 1.809285
1.174978 -0.49306399 1.807359
1.120764 -0.485268 1.805375
1.1908751 -0.48929399 1.809191
1.20766 -0.485863 1.805396
1.236213 -0.48949099 1.808771
1.172395 -0.48289499 1.80861
1.249138 -0.48252401 1.807537
1.390596 -0.482963 1.806052
0.73887599 -0.47797 1.8072439
0.74911904 -0.477532 1.8074825
0.705998 -0.470815 1.808428
0.71769202 -0.47478101 1.805486
1.393845 -0.47129399 1.808714
0.69180799 -0.46999699 1.806985
0.69740826 -0.46856201 1.8071432
0.70885003 -0.46917599 1.805174
1.391281 -0.46769801 1.8076071
0.998101 -0.513798 1.813192
0.961353 -0.506401 1.8119431
0.98582602 -0.50598598 1.812317
1.013703 -0.50868398 1.814453
1.038471 -0.50613099 1.811934
1.049606 -0.50830901 1.812981
1.053069 -0.50644797 1.814019
1.066837 -0.50588399 1.811774
1.127664 -0.50557399 1.813486
0.92510402 -0.50033402 1.8134249
1.036473 -0.501082 1.8148119
1.040296 -0.50322002 1.812801
1.058364 -0.50389498 1.813781
1.093248 -0.50187498 1.814271
1.136675 -0.50371999 1.8111629
1.164373 -0.50071102 1.813506
1.401596 -0.50326902 1.811311
0.87378299 -0.49898401 1.811415
1.0888669 -0.49513799 1.8100179
1.133958 -0.49724501 1.8145421
1.15949 -0.49580401 1.81135
1.174502 -0.49070799 1.813295
1.175209 -0.49255699 1.814828
1.203427 -0.49090001 1.814747
1.2140909 -0.49122599 1.812202
1.226095 -0.49223301 1.81015
1.404815 -0.49162599 1.813935
1.215433 -0.489427 1.810481
1.233363 -0.485111 1.812165
1.265277 -0.486321 1.811191
1.220503 -0.48181501 1.8132091
0.74284899 -0.47593901 1.812621
1.220366 -0.47754499 1.811933
1.289763 -0.47788799 1.810356
0.68311399 -0.47088733 1.8130332
0.69166601 -0.47297201 1.8127185
0.70867753 -0.47318751 1.812017
0.720994 -0.47238201 1.812433
0.72812098 -0.47345999 1.814749
1.38441 -0.470195 1.814952
0.97036499 -0.51179147 1.8176525
1.036019 -0.51006198 1.817552
1.053421 -0.510095 1.818836
0.90094203 -0.50534701 1.8191839
0.98973399 -0.509826 1.8180799
1.037703 -0.50964803 1.819548
1.078583 -0.50534749 1.818535
0.97219402 -0.500094 1.816641
0.98440802 -0.500314 1.818531
1.0888031 -0.50481498 1.816121
1.105467 -0.50007498 1.81924
1.0036891 -0.499403 1.818338
1.070832 -0.49867299 1.817114
1.117282 -0.497199 1.818279
1.144002 -0.49854401 1.815341
1.161114 -0.49727201 1.816883
1.0696369 -0.49348101 1.816326
1.132077 -0.49496201 1.819474
1.152746 -0.49213701 1.8188781
1.221015 -0.494571 1.818345
1.108573 -0.48927301 1.818071
1.1155109 -0.48911101 1.817161
1.171692 -0.485194 1.815858
0.77194601 -0.481177 1.817688
1.241197 -0.48460701 1.815559
1.254205 -0.48201299 1.819368
0.71551454 -0.47834802 1.8163495
1.302287 -0.47812501 1.815751
1.317898 -0.47545299 1.815362
0.68208301 -0.473138 1.818504
0.68841201 -0.47355399 1.816815
0.714908 -0.47414401 1.818495
0.72950101 -0.47134301 1.815354
1.408093 -0.47275299 1.815333
1.408837 -0.46818599 1.818028
0.936786 -0.51093799 1.8202749
0.948713 -0.51290601 1.822415
1.015915 -0.51174301 1.824971
1.0208991 -0.51296502 1.820807
1.0264291 -0.513147 1.823557
1.049796 -0.51066297 1.822601
0.99945951 -0.50515652 1.8221085
1.011178 -0.50596499 1.823017
1.029338 -0.50910699 1.823568
1.058558 -0.508587 1.82172
1.150813 -0.50517899 1.82191
0.99643302 -0.50255698 1.823287
1.040881 -0.50417602 1.820629
1.067129 -0.50218397 1.823568
1.076655 -0.502253 1.821805
1.113026 -0.50402302 1.823324
1.145564 -0.50135702 1.823884
1.085848 -0.496977 1.823163
1.091127 -0.49569201 1.8203731
1.1286139 -0.499623 1.823122
1.18777 -0.49501199 1.8217959
1.148523 -0.49374101 1.820186
1.423393 -0.49393299 1.823958
1.17572 -0.48827699 1.821902
1.4112819 -0.489613 1.824725
1.419327 -0.48975599 1.823645
0.73402601 -0.482981 1.8247041
0.74234903 -0.48349401 1.8214051
1.284696 -0.48005101 1.8248709
1.422531 -0.48262501 1.820231
0.68621498 -0.47611201 1.822391
0.70031601 -0.47694501 1.821635
0.70685297 -0.47737399 1.8205611
0.72982401 -0.479972 1.8217061
1.310644 -0.47571701 1.823375
1.329622 -0.47652599 1.82178
1.344511 -0.47749799 1.823413
1.326236 -0.47272399 1.820019
1.34633 -0.47297099 1.820344
1.400821 -0.525962 1.829355
1.4169101 -0.52311599 1.825209
1.4222701 -0.52395803 1.826898
0.99065697 -0.51876998 1.827315
1.0404299 -0.51678002 1.829599
0.975317 -0.51259899 1.825954
1.005412 -0.511522 1.8260109
1.022336 -0.51284897 1.8250771
1.056108 -0.51444101 1.827529
1.062885 -0.51380199 1.8280391
1.111035 -0.51410198 1.8250591
1.1207 -0.51035798 1.826615
1.376132 -0.510315 1.826538
0.94837099 -0.50840503 1.828034
1.414479 -0.506549 1.827148
1.4200701 -0.50702399 1.828867
1.102338 -0.50044203 1.826913
1.178187 -0.49971399 1.829098
1.107288 -0.49088001 1.828023
1.373946 -0.49349099 1.828494
0.75484401 -0.48798099 1.827639
1.2344019 -0.48550299 1.825008
0.70130497 -0.47971299 1.829597
0.70701998 -0.47748101 1.8269989
1.414318 -0.477743 1.827106
1.418766 -0.47524199 1.828577
1.427336 -0.476794 1.8257329
1.357398 -0.47491601 1.827965
1.027063 -0.52874202 1.83478
1.384732 -0.528808 1.833501
1.405975 -0.526631 1.831678
0.987818 -0.52056402 1.832021
1.42242 -0.52382898 1.833571
1.427894 -0.52358198 1.834294
0.95617598 -0.51766998 1.83439
0.96216047 -0.51877648 1.8329384
0.99185199 -0.51707602 1.831154
1.002679 -0.51901901 1.83055
1.027235 -0.515706 1.831988
1.035702 -0.51512599 1.832516
1.0475399 -0.51783299 1.834947
1.412895 -0.51909202 1.830359
0.91883701 -0.51337701 1.834437
0.98152852 -0.51236153 1.832231
0.99481499 -0.51402402 1.831856
1.041406 -0.512061 1.83316
1.062753 -0.51242501 1.8317961
1.099303 -0.51211703 1.832358
1.134405 -0.51072699 1.832382
1.422354 -0.51005 1.830018
0.95627397 -0.50950801 1.831315
0.99838799 -0.50822198 1.832983
1.130013 -0.50544202 1.830886
1.3983901 -0.509395 1.8312939
1.403775 -0.50969601 1.833647
1.065598 -0.50232399 1.83165
1.408267 -0.50040102 1.834978
1.425359 -0.49820599 1.832361
1.243719 -0.490381 1.833727
1.395959 -0.49282801 1.833234
1.417869 -0.490089 1.8308361
1.135753 -0.486844 1.8337851
0.721569 -0.48008001 1.8308721
1.350612 -0.480095 1.831769
0.68912101 -0.479038 1.8326044
1.371761 -0.476668 1.8304501
1.405056 -0.476762 1.833683
1.4129159 -0.47641501 1.832829
1.4026101 -0.54265797 1.8374879
1.428414 -0.53360301 1.8350379
1.389681 -0.52930301 1.836458
1.406006 -0.52724701 1.8394769
1.024508 -0.52068198 1.838997
1.042246 -0.52036899 1.837629
0.96143502 -0.51501298 1.837841
1.024572 -0.51989001 1.839753
1.06941 -0.51522601 1.8353159
1.113622 -0.51519102 1.839861
0.95261002 -0.51304001 1.837278
0.99017102 -0.51123703 1.837786
0.99716002 -0.51365298 1.83606
1.0572391 -0.51007599 1.837111
1.0669169 -0.51388103 1.837751
1.1683379 -0.51199299 1.8355449
1.382301 -0.51223999 1.835441
0.99822801 -0.50792599 1.8398941
1.06422 -0.50716001 1.836033
1.419634 -0.506428 1.835903
1.424518 -0.50560498 1.837283
1.197852 -0.50435102 1.838943
1.213089 -0.50173098 1.836563
1.248667 -0.50028199 1.83866
1.269922 -0.497758 1.8359621
1.423406 -0.49798501 1.838446
1.150261 -0.49497399 1.836243
1.401575 -0.492762 1.835616
1.4168479 -0.48902699 1.8382339
1.433834 -0.48568299 1.835966
0.70225698 -0.48274699 1.836089
0.73444599 -0.48198199 1.835458
1.427719 -0.541421 1.844529
1.434325 -0.53814399 1.84162
1.028651 -0.52834201 1.842541
1.411459 -0.52789903 1.841694
0.96392602 -0.52026898 1.842159
0.976237 -0.52245098 1.841663
0.98078603 -0.52036798 1.8411421
0.99536002 -0.520473 1.840427
1.032195 -0.521864 1.841856
1.398885 -0.522331 1.841948
1.433431 -0.52069801 1.840875
0.93685001 -0.51940799 1.842185
0.94451898 -0.516837 1.842646
0.99977499 -0.51884598 1.841246
1.014612 -0.51690298 1.841666
1.0259171 -0.51602 1.844433
1.078407 -0.51558602 1.842742
1.0917979 -0.51607299 1.844569
1.433897 -0.51955497 1.844063
1.098911 -0.51361197 1.844889
0.952887 -0.50772601 1.840161
0.97862601 -0.50965899 1.840014
1.038322 -0.50691801 1.8406579
1.083331 -0.50798798 1.840193
1.10554 -0.50861901 1.84146
1.182566 -0.50678301 1.8416245
1.4032201 -0.50984699 1.841809
1.408083 -0.50992203 1.8446831
1.140167 -0.50272399 1.843292
1.219352 -0.50167102 1.8401181
1.429522 -0.502177 1.8441941
1.432254 -0.49634799 1.843645
1.187035 -0.49312401 1.842595
1.244681 -0.49381301 1.8401
1.423268 -0.491918 1.840855
0.715931 -0.487896 1.843927
1.294696 -0.48665801 1.843024
1.4191231 -0.485378 1.841345
1.421142 -0.48762801 1.840273
1.3867151 -0.546372 1.8478481
1.420589 -0.54814899 1.848295
1.439227 -0.54464298 1.849046
1.412414 -0.53895098 1.845116
1.4261791 -0.53651899 1.849286
1.438271 -0.538073 1.849562
1.379581 -0.53386098 1.849471
1.3895921 -0.53066599 1.845383
1.3950239 -0.53221703 1.849093
1.053036 -0.527861 1.849483
1.417117 -0.52572298 1.849703
0.95129299 -0.52322501 1.847152
0.97767401 -0.520576 1.846501
1.017612 -0.52055901 1.848039
1.020098 -0.52046102 1.847272
1.0339561 -0.52070302 1.847599
1.046031 -0.52213001 1.8488735
1.408509 -0.52007401 1.848935
0.981556 -0.51593 1.847324
0.99308699 -0.51704001 1.847627
1.430355 -0.51926798 1.845381
1.443398 -0.516918 1.848973
1.029698 -0.51223099 1.845805
1.039541 -0.513982 1.848852
1.125146 -0.51146299 1.849992
1.176116 -0.51335001 1.848856
1.250191 -0.51003897 1.849777
1.386806 -0.51326501 1.8477139
1.130832 -0.50540602 1.8469681
1.135015 -0.50964099 1.847772
1.4312551 -0.50714803 1.8473901
1.231208 -0.50189698 1.847415
1.237147 -0.50129902 1.845246
1.426386 -0.50039297 1.849142
1.390882 -0.497646 1.849202
1.2289439 -0.48590201 1.849384
1.416995 -0.484644 1.84763
1.434952 -0.54406899 1.852164
1.41019 -0.53958797 1.8527271
1.373178 -0.53408498 1.851289
1.384795 -0.53418797 1.853307
1.4280565 -0.530819 1.851936
0.97725302 -0.527448 1.853423
0.98656797 -0.52701801 1.854982
1.040029 -0.52531999 1.851564
1.413942 -0.52784598 1.853997
1.416041 -0.52588302 1.853789
1.42135 -0.52816802 1.853653
1.441206 -0.52630502 1.851854
0.91174001 -0.52127898 1.854633
0.95469201 -0.52016598 1.850129
0.95946097 -0.522982 1.854709
0.97378302 -0.52486598 1.853667
0.99516898 -0.52214402 1.850873
1.0046099 -0.52319998 1.851264
1.01845 -0.52409798 1.854015
1.106431 -0.520073 1.853225
1.13448 -0.52166998 1.854297
1.407408 -0.52326298 1.854364
1.423398 -0.52019298 1.8509229
0.97132999 -0.51812202 1.854154
1.047349 -0.51796901 1.8506531
1.083304 -0.51954401 1.8542711
1.191956 -0.51589102 1.8520451
1.377135 -0.51718599 1.851423
1.4404089 -0.51696497 1.851772
0.99840403 -0.51311302 1.8505729
1.1267411 -0.510701 1.852132
1.3916481 -0.51423901 1.852083
1.413208 -0.50720203 1.853022
1.4274859 -0.50621402 1.853247
1.2326159 -0.50145698 1.8533829
1.336398 -0.503452 1.854736
1.374688 -0.50051099 1.853375
1.420617 -0.50386798 1.852559
1.451215 -0.50338501 1.853351
1.3185591 -0.49246001 1.8523051
1.388514 -0.488179 1.850618
1.417835 -0.487542 1.854196
1.427632 -0.55377102 1.858938
1.439173 -0.55154997 1.856248
1.441679 -0.55009598 1.859145
1.3782099 -0.54572701 1.859609
1.404713 -0.54926801 1.855213
1.3942 -0.54265702 1.856168
1.396413 -0.54429901 1.855194
0.99533099 -0.53505599 1.8597471
1.3683929 -0.536879 1.858119
1.378589 -0.53653401 1.856493
1.414433 -0.53548503 1.857164
1.450117 -0.53577602 1.856256
0.98736697 -0.53147 1.858242
1.002478 -0.53056097 1.8570271
1.021688 -0.53300297 1.85868
1.400804 -0.53074801 1.858531
1.432391 -0.53043598 1.858031
1.438146 -0.534549 1.856521
0.94517601 -0.527385 1.858153
0.963696 -0.52740502 1.857654
0.97258449 -0.52863097 1.8578575
1.0174839 -0.52636898 1.856295
1.07775 -0.52737898 1.856535
1.3919635 -0.525877 1.8584089
0.93717402 -0.52475101 1.857471
1.0211461 -0.52067399 1.859742
1.069127 -0.52166301 1.85848
1.091194 -0.52269399 1.855605
1.118605 -0.52427399 1.858954
1.1574399 -0.52156401 1.855333
1.159447 -0.51577801 1.859823
1.165733 -0.51916498 1.857182
1.1759779 -0.51851201 1.856733
1.218027 -0.51531398 1.859213
1.382581 -0.51714098 1.855289
1.092594 -0.51337999 1.85774
1.1350631 -0.51212901 1.859504
1.378015 -0.51333803 1.8570189
1.4222375 -0.51193851 1.857414
1.441967 -0.51374298 1.855341
1.218361 -0.50938201 1.859815
1.409279 -0.50901198 1.858651
1.453355 -0.50518698 1.855726
1.2494071 -0.50027102 1.85937
1.380366 -0.500094 1.857271
1.437132 -0.50398397 1.857989
1.367606 -0.499284 1.855951
1.388271 -0.49626201 1.855073
1.417577 -0.497089 1.859111
1.436475 -0.497944 1.85562
1.401845 -0.49061099 1.857637
1.412712 -0.49434999 1.856522
1.4093 -0.48868099 1.856341
1.388399 -0.55429298 1.864041
1.392568 -0.551489 1.864994
1.410401 -0.55302101 1.8601
1.362154 -0.540851 1.863893
1.421091 -0.54369301 1.860648
1.432995 -0.540043 1.862339
1.055604 -0.53723902 1.863927
1.35199 -0.53956902 1.862931
1.367516 -0.53849697 1.86342
1.400174 -0.539213 1.8618619
1.408859 -0.53667098 1.863083
1.414137 -0.53916198 1.864953
1.423198 -0.53656399 1.86432
1.44917 -0.53836399 1.862071
0.95814598 -0.53141898 1.863238
0.98616099 -0.533957 1.862583
1.002395 -0.53101701 1.8644609
1.026947 -0.53205198 1.862403
1.071099 -0.53426498 1.860593
1.432992 -0.53265703 1.862745
1.006308 -0.527722 1.860484
1.023108 -0.526604 1.8607709
1.0265945 -0.528624 1.8613751
1.085375 -0.52869499 1.8619781
1.102729 -0.526878 1.863611
1.1262569 -0.52754998 1.862044
1.375428 -0.529401 1.861246
1.397895 -0.52996099 1.864791
1.071211 -0.521263 1.8613991
1.117058 -0.52288502 1.8634501
1.16 -0.52113301 1.86142
1.182062 -0.52073997 1.863457
1.349775 -0.52252197 1.864913
1.1374249 -0.51781797 1.863489
1.219759 -0.51703 1.860006
1.366178 -0.519831 1.860101
1.443447 -0.51712102 1.863464
1.2130001 -0.51180297 1.862879
1.238591 -0.51384997 1.864916
1.254379 -0.51081997 1.861519
1.283338 -0.51274902 1.862257
1.372647 -0.51307601 1.862883
1.3968951 -0.512227 1.86185
1.414981 -0.514916 1.862776
1.43497 -0.51347703 1.8608381
1.24976 -0.509202 1.861975
1.45856 -0.50700402 1.863196
1.351192 -0.502702 1.8618571
1.363963 -0.50278401 1.862083
1.3718359 -0.50058001 1.8624721
1.3698649 -0.49675 1.864519
1.396186 -0.49779201 1.862469
1.3733881 -0.494647 1.8616379
1.4173465 -0.49318999 1.8617965
1.421075 -0.49287301 1.862431
1.4381726 -0.49343351 1.8602176
1.371547 -0.55723703 1.867319
1.380409 -0.54532802 1.8671629
1.323936 -0.54434198 1.869006
1.335587 -0.54225898 1.867743
1.385373 -0.54438102 1.86771
1.403582 -0.54373699 1.86673
1.41799 -0.543791 1.866122
0.99086303 -0.53823698 1.869863
1.032149 -0.53723001 1.868332
1.368742 -0.53971702 1.869666
1.3743711 -0.53898197 1.865659
1.384491 -0.53577203 1.86736
1.415693 -0.53843802 1.866015
1.4419121 -0.53898102 1.8667589
0.99317801 -0.530635 1.8656861
1.011235 -0.53196102 1.867666
1.0245759 -0.53235501 1.8668669
1.026644 -0.53436601 1.8694969
1.398701 -0.53436399 1.865101
1.434888 -0.53162199 1.866698
0.98919398 -0.529715 1.868775
1.053141 -0.52535498 1.8684191
1.083858 -0.52766103 1.869192
1.414475 -0.52518898 1.867798
1.464466 -0.52805901 1.8680741
1.2091579 -0.52200401 1.866918
1.371909 -0.52219802 1.867624
1.386252 -0.52391499 1.866884
1.427462 -0.52120799 1.867359
1.066206 -0.51563299 1.868578
1.127777 -0.51865 1.866837
1.145023 -0.51997101 1.86621
1.222803 -0.51688099 1.868314
1.3628891 -0.51980603 1.868039
1.3824641 -0.51875502 1.866068
1.425554 -0.51622897 1.867017
1.43153 -0.51814801 1.865427
1.287515 -0.51147002 1.869077
1.4263155 -0.51306897 1.8683596
1.456841 -0.51053101 1.866954
1.295858 -0.50687802 1.866418
1.334779 -0.50612098 1.867763
1.369446 -0.505413 1.869589
1.41538 -0.50908899 1.8678091
1.4568419 -0.50652897 1.866017
1.205093 -0.504237 1.868753
1.309142 -0.50175601 1.867651
1.346368 -0.50173402 1.8695509
1.355401 -0.504897 1.869872
1.4203531 -0.50333202 1.865775
1.428735 -0.50064999 1.869822
1.456582 -0.50457102 1.868912
1.3280931 -0.498694 1.865108
1.353875 -0.49981901 1.867961
1.392987 -0.49370599 1.865169
1.428014 -0.56045502 1.871529
1.372086 -0.55931801 1.872869
1.385161 -0.55630398 1.872227
1.372701 -0.55121601 1.874904
1.3856339 -0.55418402 1.870735
1.3075221 -0.54776102 1.874912
1.385659 -0.54777902 1.871441
1.406161 -0.54521197 1.8740031
1.4184901 -0.547508 1.874357
1.426738 -0.54777402 1.8713371
1.023545 -0.54351002 1.872403
1.3523901 -0.54496503 1.87444
0.98730499 -0.53566402 1.872627
0.99085099 -0.53504002 1.872821
1.381665 -0.535308 1.874496
1.449929 -0.53834897 1.872365
0.92892301 -0.53137797 1.874596
0.99500501 -0.53488398 1.872929
1.033057 -0.53135997 1.872297
1.053201 -0.532933 1.873982
1.068529 -0.53029698 1.871587
1.07749 -0.53232199 1.874328
1.108068 -0.53048003 1.871869
1.012594 -0.52911699 1.873679
1.150741 -0.52743149 1.8717511
1.3556091 -0.52508098 1.871825
1.3795249 -0.525603 1.8732049
1.411425 -0.52751303 1.874961
1.448702 -0.52725202 1.870362
1.365937 -0.52219701 1.872014
1.388353 -0.52066499 1.872412
1.408394 -0.520329 1.87037
1.4165699 -0.52128601 1.873046
1.423915 -0.52197301 1.870523
1.442389 -0.52127302 1.870957
1.207015 -0.51991099 1.871711
1.2359 -0.51633501 1.873458
1.380582 -0.51725101 1.870679
1.409798 -0.51951098 1.871554
1.2741899 -0.51433599 1.872972
1.399287 -0.512178 1.871272
1.4021209 -0.51015699 1.874902
1.452395 -0.51243901 1.870101
1.469944 -0.51093298 1.873878
1.281994 -0.50709599 1.871094
1.331158 -0.508165 1.871707
1.353147 -0.50829703 1.873789
1.407858 -0.50668401 1.874948
1.425604 -0.50791502 1.872218
1.2954741 -0.502653 1.874361
1.358261 -0.50111598 1.872658
1.408612 -0.50166303 1.8719
1.4234215 -0.50206 1.873356
1.278121 -0.498283 1.8717721
1.341943 -0.49889901 1.874347
1.376673 -0.49873099 1.873997
1.348974 -0.561701 1.877993
1.3525259 -0.561104 1.876626
1.40582 -0.56305099 1.87748
1.354704 -0.55614603 1.8750089
1.368449 -0.553554 1.87633
1.378129 -0.554887 1.8759021
1.392895 -0.55188298 1.876184
1.39706 -0.55252302 1.8769855
1.400586 -0.54705697 1.878032
1.418234 -0.54849499 1.875632
1.423532 -0.54738402 1.879259
0.998878 -0.54031497 1.879673
1.063593 -0.54015702 1.876029
1.109844 -0.54299301 1.8772219
1.352216 -0.54315901 1.875613
1.356765 -0.54081798 1.876002
1.421833 -0.54156297 1.878026
1.014652 -0.53772801 1.8750449
1.019057 -0.53798699 1.876478
1.32945 -0.53906101 1.876153
1.423887 -0.53641099 1.8782361
1.44087 -0.53741699 1.876644
1.456326 -0.53919399 1.875989
0.958857 -0.53441799 1.8758301
0.982485 -0.53467703 1.876917
1.046912 -0.534163 1.876786
1.119305 -0.53278601 1.876963
1.1200531 -0.53395402 1.8756289
1.369902 -0.53478599 1.876551
1.374164 -0.53233498 1.8761081
1.397465 -0.53115398 1.875543
0.94897199 -0.52973503 1.875401
1.093165 -0.52973801 1.878525
1.163125 -0.52644497 1.879167
1.348587 -0.52595699 1.8785095
1.3717999 -0.52501303 1.8798651
1.381736 -0.52987999 1.875897
1.397059 -0.52825499 1.877389
1.4118345 -0.52687252 1.8780429
1.080956 -0.52310503 1.876846
1.087876 -0.52159601 1.879311
1.364269 -0.52227598 1.8795069
1.236514 -0.51536602 1.876941
1.257887 -0.51773202 1.8788379
1.277528 -0.51769799 1.878414
1.367102 -0.51835501 1.878199
1.1398031 -0.51059598 1.877697
1.1608911 -0.51389802 1.876115
1.236073 -0.51086098 1.878402
1.3019511 -0.512959 1.8795739
1.314755 -0.51085502 1.876519
1.3368469 -0.51117998 1.87799
1.379967 -0.51083702 1.875888
1.3866889 -0.51119 1.8795871
1.4574471 -0.510607 1.876825
1.1976351 -0.50534201 1.876093
1.330174 -0.50672197 1.878314
1.404231 -0.50872099 1.87593
1.442203 -0.50934201 1.878984
1.391165 -0.50214702 1.878885
1.403903 -0.50058401 1.877092
1.418718 -0.50202298 1.876002
1.435608 -0.50418198 1.879842
1.419595 -0.499522 1.876436
1.332462 -0.56440902 1.8828371
1.355773 -0.56434298 1.881698
1.3786041 -0.56186199 1.8849061
1.369404 -0.55953002 1.88044
1.394892 -0.55785799 1.8843499
1.389416 -0.553738 1.883568
1.032707 -0.54550701 1.882177
1.330233 -0.54724801 1.884832
1.3586479 -0.54746699 1.884307
1.42872 -0.547858 1.882141
0.972215 -0.54031199 1.880793
0.97947198 -0.54175901 1.8836
0.98310298 -0.54290301 1.8843009
0.99374849 -0.54186052 1.8835886
1.0081739 -0.54175901 1.8836
1.022851 -0.54234898 1.883055
1.026421 -0.54075497 1.8847311
1.04781 -0.54294801 1.880096
1.33445 -0.543558 1.880478
1.3690979 -0.54417199 1.882067
1.4263541 -0.54152203 1.883239
0.95673901 -0.53504699 1.882435
0.9860875 -0.538122 1.8827295
1.034682 -0.53680199 1.884426
1.391627 -0.53673798 1.884354
0.94027299 -0.53399599 1.881008
1.0408421 -0.53252 1.88029
1.392043 -0.533131 1.882237
1.4047559 -0.53478301 1.883636
1.411761 -0.53109503 1.884519
1.332884 -0.529082 1.883906
1.344515 -0.52737898 1.881983
1.394843 -0.52822399 1.88345
1.190119 -0.52236599 1.882717
1.248903 -0.522241 1.880868
1.330511 -0.52482301 1.8842109
1.415652 -0.52266997 1.884522
1.449457 -0.52076799 1.8840539
1.4560421 -0.52199 1.88462
1.391348 -0.51857001 1.884356
1.1232899 -0.51413298 1.881071
1.2661231 -0.51232398 1.880585
1.320547 -0.514063 1.88219
1.40486 -0.51123601 1.883799
1.40925 -0.51330203 1.881997
1.3482111 -0.505014 1.883309
1.408682 -0.50792253 1.8830845
1.382849 -0.56616002 1.889421
1.348412 -0.56034398 1.88543
1.379855 -0.55754101 1.888545
1.4015909 -0.55638599 1.888212
1.3372639 -0.55143398 1.885461
1.403984 -0.55497301 1.886375
1.01668 -0.54851604 1.8868816
1.076153 -0.54722899 1.887774
1.3137209 -0.54995698 1.889676
1.346561 -0.548832 1.885221
1.3526911 -0.54707402 1.886295
1.3988985 -0.54758 1.8872025
1.417609 -0.54662699 1.885064
0.96093899 -0.54154402 1.8886811
0.99182498 -0.54250902 1.886638
1.044503 -0.54077703 1.88901
1.364671 -0.54240799 1.889625
1.382378 -0.54311502 1.889557
1.397954 -0.54021001 1.8892
1.004041 -0.53755999 1.887616
1.035213 -0.53873801 1.885602
1.04562 -0.53800201 1.887808
1.069549 -0.53600502 1.88688
1.375438 -0.53680402 1.88539
1.316358 -0.53252399 1.889853
1.328004 -0.53008801 1.886827
1.350212 -0.53017902 1.888273
1.395943 -0.533795 1.886222
1.440024 -0.53135997 1.888554
1.0654495 -0.52849603 1.8855181
1.1222171 -0.52603501 1.885444
1.182022 -0.52918398 1.8897541
1.355247 -0.52936202 1.887318
1.365638 -0.52767801 1.88914
1.239264 -0.52236801 1.886834
1.245141 -0.523426 1.88676
1.433907 -0.52010298 1.885327
1.36792 -0.51934099 1.885053
1.4174401 -0.51864398 1.88679
1.3139811 -0.51170897 1.887078
1.33008 -0.51156098 1.886254
1.447979 -0.514552 1.885588
1.269982 -0.507725 1.887548
1.332118 -0.50810301 1.886772
1.34589 -0.50686198 1.888669
1.359373 -0.57069898 1.894102
1.345042 -0.569691 1.894331
1.372033 -0.56502801 1.892743
1.357165 -0.56456602 1.8901941
1.3733977 -0.5628137 1.892614
1.401654 -0.56288302 1.892323
1.350939 -0.55988801 1.893898
1.367135 -0.55677903 1.890413
1.394776 -0.55569702 1.893384
1.29721 -0.552665 1.89452
1.302636 -0.55348599 1.893451
1.319877 -0.55287802 1.894752
1.342095 -0.55181599 1.891759
1.375309 -0.554295 1.893559
1.387035 -0.55495203 1.891112
1.3902299 -0.55457199 1.894049
1.410673 -0.55046803 1.893306
1.026071 -0.549317 1.8934031
1.039838 -0.54611301 1.893137
1.0422189 -0.54744947 1.8930576
1.318341 -0.54886401 1.890111
1.336284 -0.54997599 1.890524
1.372136 -0.54582602 1.8936141
0.986269 -0.54177499 1.8920209
1.0007761 -0.54212701 1.892043
1.014775 -0.54330599 1.892627
1.0248539 -0.54254299 1.891547
1.030198 -0.540654 1.8902169
1.364318 -0.54024303 1.892071
1.378137 -0.54035002 1.890524
1.3884701 -0.540595 1.893168
1.0285439 -0.53968501 1.892161
1.071786 -0.53801697 1.891966
1.0994281 -0.53521103 1.89493
1.1127665 -0.53853202 1.8918669
1.375921 -0.53851998 1.892392
1.382883 -0.53867698 1.89217
1.390915 -0.53847599 1.894365
1.39845 -0.536138 1.891395
1.312947 -0.53146303 1.8927574
1.333221 -0.53291202 1.8912904
1.338695 -0.53371 1.89477
1.356041 -0.52773499 1.894105
1.3930269 -0.527798 1.894453
1.4219069 -0.52958202 1.890141
1.0800771 -0.52431297 1.8903559
1.271649 -0.52271301 1.894792
1.340603 -0.52258801 1.893067
1.361501 -0.52370697 1.893728
1.385111 -0.52058202 1.893127
1.4195631 -0.52304798 1.8907911
1.463649 -0.52140498 1.891269
1.265547 -0.51892602 1.890955
1.392897 -0.51868898 1.891775
