# .PCD v0.7 - Point Cloud Data file format
VERSION 0.7
FIELDS x y z
SIZE 4 4 4
TYPE F F F
COUNT 1 1 1
WIDTH 1039
HEIGHT 1
VIEWPOINT 0 0 0 1 0 0 0
POINTS 1039
DATA ascii
-0.298498 -0.157585 1.044228
-0.27437899 -0.156132 1.042289
-0.30139399 -0.149234 1.0440655
-0.278157 -0.16202 1.048293
-0.30752134 -0.15609667 1.047781
-0.30390099 -0.156555 1.047366
-0.29728699 -0.157177 1.0477455
-0.27457201 -0.156092 1.0499099
-0.30763301 -0.15300401 1.048649
-0.30238599 -0.153614 1.048275
-0.29699251 -0.15274149 1.049244
-0.28887001 -0.1529265 1.0481584
-0.28085801 -0.150869 1.049283
-0.278725 -0.1544285 1.0482864
-0.29664549 -0.1483115 1.049644
-0.29431599 -0.149782 1.049957
-0.284233 -0.149324 1.04688
-0.31102201 -0.16056401 1.054021
-0.32221296 -0.15828867 1.0537604
-0.31653544 -0.15674214 1.052622
-0.31175733 -0.15705018 1.052531
-0.30698901 -0.15570301 1.0525093
-0.30321226 -0.156133 1.0532296
-0.29811567 -0.15590267 1.053293
-0.292878 -0.15615 1.053103
-0.28554499 -0.156618 1.054376
-0.28166601 -0.15609001 1.053943
-0.27915168 -0.15601332 1.0544833
-0.27186799 -0.1569925 1.0536344
-0.320732 -0.15291999 1.053939
-0.317415 -0.15306351 1.0527557
-0.31269929 -0.15183701 1.0529214
-0.30725762 -0.1529935 1.0526023
-0.30204898 -0.15182616 1.05266
-0.29639375 -0.15196043 1.052659
-0.29276565 -0.1517725 1.0518832
-0.2879644 -0.15148 1.0524414
-0.28129166 -0.15151267 1.054083
-0.27827501 -0.15166 1.0516397
-0.27260751 -0.15265951 1.0524235
-0.3206 -0.147751 1.054131
-0.31720603 -0.14769199 1.0524845
-0.3108598 -0.1482904 1.0537678
-0.30714434 -0.14776577 1.0527583
-0.30332741 -0.14677872 1.0527948
-0.29768282 -0.1460198 1.0523492
-0.29219919 -0.1476922 1.0527725
-0.2879152 -0.1483292 1.0523144
-0.28193474 -0.14903051 1.0533912
-0.277688 -0.147744 1.0542054
-0.273496 -0.149638 1.054417
-0.28312001 -0.144804 1.054583
-0.328235 -0.167138 1.0572
-0.32876101 -0.160622 1.057152
-0.32191101 -0.161102 1.056917
-0.30579901 -0.161626 1.058918
-0.30381799 -0.160954 1.056324
-0.29423901 -0.161175 1.055698
-0.286724 -0.160492 1.056796
-0.269959 -0.16053601 1.056782
-0.330387 -0.158738 1.059464
-0.32661599 -0.15866199 1.0579567
-0.32235521 -0.15761201 1.0578614
-0.31806472 -0.15749185 1.0577943
-0.3119716 -0.1575892 1.0571868
-0.307015 -0.159656 1.0593849
-0.30167499 -0.15510599 1.055275
-0.29659799 -0.15678532 1.0582854
-0.29247501 -0.15773034 1.0580944
-0.28664377 -0.158152 1.0577949
-0.28351733 -0.15710168 1.0581579
-0.276916 -0.157307 1.0589224
-0.27233198 -0.15812398 1.057812
-0.26693365 -0.15866067 1.0582863
-0.263935 -0.156123 1.059204
-0.32657659 -0.1534804 1.0569865
-0.32190263 -0.15324113 1.0582147
-0.31755248 -0.15232299 1.057392
-0.31217769 -0.1530945 1.0571254
-0.30844665 -0.15196668 1.0570987
-0.30361599 -0.153044 1.057713
-0.29898068 -0.15372999 1.0580157
-0.29279602 -0.1539 1.0583405
-0.28673998 -0.15355299 1.0582384
-0.28298151 -0.153404 1.0560355
-0.27837399 -0.153927 1.0569071
-0.27172428 -0.15239827 1.0570651
-0.26714501 -0.15452801 1.057565
-0.32592249 -0.148672 1.0591741
-0.32141221 -0.14785799 1.0582914
-0.31673375 -0.14818251 1.0567659
-0.3130106 -0.1469862 1.0571041
-0.30717149 -0.14799049 1.056473
-0.303267 -0.146506 1.0550441
-0.29677302 -0.14727101 1.0557256
-0.29116598 -0.14851633 1.0563854
-0.28652948 -0.1475195 1.0562634
-0.28305566 -0.14688466 1.0578367
-0.27868819 -0.14758033 1.0566359
-0.26604399 -0.14839201 1.059637
-0.30541101 -0.16756301 1.063874
-0.33329409 -0.16165186 1.0640693
-0.3270542 -0.1625322 1.062405
-0.32202548 -0.1606725 1.064546
-0.3178845 -0.161586 1.0621021
-0.308366 -0.161909 1.06358
-0.303837 -0.16116901 1.060203
-0.29766968 -0.16168767 1.0617863
-0.29194701 -0.1625955 1.0616469
-0.28738067 -0.16185033 1.0634974
-0.28153199 -0.1609735 1.0616485
-0.27766898 -0.16131234 1.0623831
-0.27473399 -0.161917 1.062644
-0.26784301 -0.16009399 1.06047
-0.263331 -0.164381 1.062209
-0.259314 -0.161125 1.0633661
-0.3377485 -0.15833801 1.063558
-0.33135739 -0.15863201 1.0627218
-0.32783455 -0.15769179 1.0631924
-0.32144159 -0.15787899 1.0628818
-0.31701133 -0.15856667 1.0620297
-0.31272802 -0.15674067 1.0630231
-0.30743849 -0.15784851 1.0632114
-0.30332449 -0.158842 1.0608051
-0.29771075 -0.15763152 1.063195
-0.291668 -0.15782 1.0633873
-0.28903368 -0.15723599 1.0614237
-0.28185216 -0.15778084 1.0628517
-0.27843249 -0.1578635 1.0610549
-0.26811299 -0.15729301 1.0619071
-0.26387376 -0.15767875 1.0614758
-0.33145648 -0.1526905 1.0636423
-0.3281002 -0.15209222 1.0627395
-0.32325089 -0.15239686 1.0616947
-0.31823233 -0.15240067 1.0619079
-0.31473851 -0.15398699 1.0625335
-0.306371 -0.15149701 1.0618196
-0.303619 -0.153079 1.061741
-0.29765779 -0.1521568 1.0622182
-0.29247576 -0.1518575 1.0630038
-0.28808826 -0.152814 1.0616088
-0.28227702 -0.15339734 1.0636359
-0.277603 -0.152823 1.06338
-0.27252451 -0.151447 1.060131
-0.26753631 -0.15241666 1.063073
-0.26381075 -0.15226825 1.0621735
-0.32227188 -0.14779001 1.0621454
-0.29747599 -0.149469 1.063463
-0.33118099 -0.17049401 1.06769
-0.32358399 -0.17099699 1.068465
-0.31381801 -0.17096899 1.069474
-0.29713401 -0.17176799 1.069654
-0.28266901 -0.170241 1.06923
-0.33633682 -0.1666218 1.0676801
-0.33054599 -0.165163 1.06522
-0.32721201 -0.1658645 1.0656595
-0.32192534 -0.166382 1.068616
-0.31620201 -0.168952 1.069414
-0.31381851 -0.1667935 1.068553
-0.30660123 -0.16848725 1.0677741
-0.30201831 -0.16748933 1.0687963
-0.29696533 -0.16688199 1.0684479
-0.29240799 -0.166896 1.068181
-0.28820035 -0.16755001 1.0685574
-0.28256899 -0.16554449 1.0674765
-0.27868399 -0.16603599 1.066432
-0.26736701 -0.16805001 1.06941
-0.25692499 -0.16825899 1.066933
-0.342112 -0.16279601 1.067638
-0.33683223 -0.162164 1.0680348
-0.33367071 -0.1624603 1.067742
-0.32775959 -0.1618554 1.0671942
-0.321383 -0.164067 1.068527
-0.31179199 -0.164076 1.066985
-0.30601901 -0.160715 1.068633
-0.30070701 -0.164961 1.065984
-0.29641253 -0.16311699 1.0679076
-0.28705868 -0.16283901 1.0666574
-0.28092399 -0.164516 1.068289
-0.27802134 -0.16284099 1.0665363
-0.27342248 -0.1627325 1.0675308
-0.26593968 -0.16159968 1.0683666
-0.257579 -0.1616735 1.0677005
-0.33682841 -0.1587024 1.0692661
-0.33236173 -0.15809457 1.0671284
-0.32884666 -0.15779634 1.0676113
-0.32448 -0.15675101 1.065402
-0.31798467 -0.15659566 1.0675597
-0.31312752 -0.15896851 1.0661271
-0.30714896 -0.156909 1.0665779
-0.30299199 -0.15636399 1.0666385
-0.298002 -0.15733051 1.0680494
-0.29138499 -0.15721601 1.0689527
-0.28686032 -0.15835468 1.067257
-0.28345633 -0.15776533 1.0664597
-0.276804 -0.15866414 1.0674603
-0.26687348 -0.1587895 1.06883
-0.26202631 -0.15707366 1.0671067
-0.25780067 -0.15566033 1.067432
-0.33759451 -0.154339 1.0677365
-0.33183417 -0.15261 1.0674959
-0.32901263 -0.15223587 1.0677069
-0.322254 -0.15367733 1.0674636
-0.318919 -0.15356 1.069114
-0.31292999 -0.151691 1.066671
-0.308815 -0.15234999 1.0678844
-0.30095997 -0.15273133 1.0676689
-0.29787099 -0.15254149 1.0681369
-0.29251823 -0.15381299 1.068617
-0.28678361 -0.1523262 1.0672878
-0.2821866 -0.1533092 1.0677111
-0.27785999 -0.15482 1.069209
-0.265019 -0.15223099 1.066708
-0.25935933 -0.15280201 1.0684683
-0.24958099 -0.15373901 1.069657
-0.285671 -0.17604899 1.073957
-0.34036851 -0.17212901 1.0713351
-0.33800501 -0.17086899 1.071905
-0.33093449 -0.173871 1.0740135
-0.327975 -0.1707485 1.0738765
-0.32396701 -0.17246 1.073333
-0.31831935 -0.17108333 1.0728097
-0.312837 -0.172616 1.072755
-0.30332351 -0.17174301 1.0729156
-0.28253797 -0.171726 1.0725404
-0.278 -0.17401201 1.073117
-0.27280301 -0.17106551 1.073667
-0.26990399 -0.170111 1.074077
-0.34066233 -0.16654335 1.0734583
-0.33772162 -0.16664955 1.0724916
-0.326444 -0.16950899 1.073267
-0.32423201 -0.16658799 1.072467
-0.31784099 -0.16654101 1.0718336
-0.31258276 -0.16770661 1.0726835
-0.30696133 -0.16804433 1.0703768
-0.30282882 -0.16809659 1.0718973
-0.29620498 -0.166788 1.0711325
-0.2934885 -0.16892201 1.071981
-0.28681925 -0.1679385 1.0726275
-0.2820428 -0.1661294 1.072818
-0.27650568 -0.16684334 1.0714703
-0.27344149 -0.16665751 1.0732479
-0.26851562 -0.16770479 1.0730072
-0.26372299 -0.16578899 1.073496
-0.258636 -0.16540149 1.0735326
-0.33738786 -0.16266209 1.072515
-0.33239287 -0.16253357 1.0728738
-0.32838368 -0.16203167 1.071086
-0.3236765 -0.1644305 1.072763
-0.31262633 -0.16227433 1.0723983
-0.307621 -0.16279851 1.0739204
-0.30259731 -0.16212416 1.0723715
-0.29866874 -0.16297024 1.0726572
-0.29375014 -0.16198958 1.0728801
-0.2855615 -0.1641115 1.073982
-0.28194749 -0.16225749 1.071429
-0.27777702 -0.16212675 1.0709858
-0.27222735 -0.16286424 1.0722551
-0.26813 -0.16349974 1.0732753
-0.2641505 -0.16311151 1.073197
-0.25749499 -0.1619584 1.0711032
-0.25208151 -0.1616035 1.072976
-0.33672813 -0.15746684 1.0722889
-0.33426166 -0.15799834 1.0715076
-0.32274365 -0.15676235 1.0716853
-0.31643099 -0.15983699 1.070945
-0.31435901 -0.155569 1.073374
-0.308761 -0.157787 1.070124
-0.28713736 -0.15713133 1.0731961
-0.28261849 -0.157634 1.071699
-0.27717745 -0.15722428 1.071427
-0.2744225 -0.1586355 1.073281
-0.26701349 -0.15693501 1.0727835
-0.26442701 -0.15938 1.071118
-0.25663999 -0.15598799 1.071939
-0.33336574 -0.15246925 1.0714513
-0.326401 -0.152798 1.070353
-0.314183 -0.153799 1.071312
-0.33416 -0.176753 1.0795455
-0.27622551 -0.17632949 1.0767875
-0.34048501 -0.17174534 1.078159
-0.33873317 -0.17148785 1.0778977
-0.33210525 -0.173154 1.0778285
-0.32675576 -0.17251749 1.078002
-0.32068402 -0.173131 1.077378
-0.31832266 -0.17097567 1.077433
-0.311656 -0.171336 1.077489
-0.281535 -0.17054801 1.075718
-0.27508399 -0.173548 1.079268
-0.27269366 -0.17133065 1.077527
-0.26802537 -0.17135562 1.0783926
-0.264929 -0.17090601 1.077678
-0.34042281 -0.166924 1.0767374
-0.33876079 -0.1685406 1.0770334
-0.3302485 -0.1682715 1.078642
-0.32731152 -0.16803351 1.077209
-0.32206061 -0.16744082 1.0780551
-0.31787667 -0.16890101 1.0771343
-0.31222168 -0.16611567 1.077298
-0.30607301 -0.165969 1.07665
-0.29333699 -0.166262 1.075029
-0.28296801 -0.16524599 1.077502
-0.27675438 -0.16804627 1.0768263
-0.27154022 -0.16769062 1.0782616
-0.267775 -0.16663699 1.0775321
-0.262748 -0.16598651 1.076717
-0.250907 -0.165729 1.075382
-0.34115899 -0.16261789 1.0776787
-0.33833718 -0.16215767 1.0766519
-0.333814 -0.16245925 1.0784187
-0.3227545 -0.1624375 1.0782585
-0.31803417 -0.16397302 1.076991
-0.31250873 -0.16199072 1.0777971
-0.30805966 -0.16268332 1.0757318
-0.30294263 -0.16201726 1.076898
-0.29729065 -0.16198051 1.076677
-0.29167026 -0.16304751 1.0762677
-0.287404 -0.16266643 1.077125
-0.28271934 -0.16402833 1.0766187
-0.2784048 -0.1622172 1.0774204
-0.27151886 -0.16317172 1.07743
-0.26841366 -0.16353533 1.0778953
-0.262427 -0.164896 1.0760961
-0.34111899 -0.1575415 1.0785433
-0.33869535 -0.15718323 1.0774477
-0.31152734 -0.156839 1.0779539
-0.30240232 -0.15697666 1.078204
-0.297553 -0.157996 1.0779705
-0.29260668 -0.15751833 1.0787719
-0.28217199 -0.15824567 1.0776857
-0.27310017 -0.1581385 1.0768024
-0.26262301 -0.158704 1.07707
-0.25867599 -0.15673999 1.076622
-0.25191498 -0.157603 1.0768095
-0.346039 -0.176634 1.083656
-0.3394835 -0.175989 1.0840144
-0.33279768 -0.17629968 1.0825063
-0.32826865 -0.177269 1.0848689
-0.26944101 -0.17632399 1.081827
-0.34139076 -0.17232075 1.0822952
-0.33805063 -0.17205751 1.0822213
-0.3315365 -0.1720105 1.0833435
-0.32793224 -0.172065 1.08362
-0.32299173 -0.173089 1.0822008
-0.27518401 -0.17030101 1.080777
-0.27109283 -0.17209059 1.0809964
-0.2675494 -0.173467 1.0819895
-0.26324701 -0.17213951 1.083236
-0.259767 -0.172602 1.080955
-0.25446099 -0.17072549 1.0833005
-0.24779899 -0.17262299 1.083644
-0.34140188 -0.16710937 1.0823091
-0.33965364 -0.16823667 1.0822936
-0.33261299 -0.16683751 1.0822339
-0.32650623 -0.16677526 1.0820527
-0.32340065 -0.16741401 1.0833007
-0.314942 -0.166372 1.080102
-0.27836967 -0.16632633 1.0819126
-0.27177 -0.16842501 1.0820926
-0.26654202 -0.16769846 1.0828251
-0.26232225 -0.16719225 1.0817039
-0.34191623 -0.16275531 1.0826588
-0.33929101 -0.16027801 1.080604
-0.3327345 -0.16238675 1.0822067
-0.328565 -0.16284101 1.084523
-0.32235369 -0.16237034 1.0820631
-0.31789929 -0.16315472 1.0823623
-0.31132367 -0.16248667 1.0812513
-0.30832401 -0.162471 1.080166
-0.285595 -0.160631 1.0811729
-0.28104499 -0.16214851 1.0803275
-0.27771717 -0.16319068 1.082706
-0.27263677 -0.16237389 1.0820497
-0.26816499 -0.16270438 1.0828866
-0.26381749 -0.1630435 1.0825635
-0.2525315 -0.16255051 1.080454
-0.24759801 -0.164316 1.083825
-0.32258999 -0.15832201 1.081301
-0.33522099 -0.18706299 1.089692
-0.33397299 -0.180087 1.089307
-0.26857901 -0.18000899 1.087289
-0.25478601 -0.180214 1.0875
-0.34537801 -0.175652 1.086324
-0.34181896 -0.17672786 1.0883372
-0.33707851 -0.178091 1.0876905
-0.33181876 -0.17609051 1.0885901
-0.324276 -0.17719901 1.088322
-0.26640859 -0.177433 1.0869737
-0.26367924 -0.1764605 1.0882325
-0.259 -0.17739999 1.088161
-0.346634 -0.1718445 1.0879915
-0.34231198 -0.17255901 1.088119
-0.3381156 -0.17240319 1.0882834
-0.33258262 -0.17249364 1.0877464
-0.32919973 -0.17194325 1.086936
-0.322844 -0.17419 1.0854371
-0.27089101 -0.17123 1.0891066
-0.26673231 -0.17191917 1.0869164
-0.2633234 -0.1721113 1.0876501
-0.25672799 -0.17157325 1.087479
-0.35005999 -0.168009 1.089191
-0.34231967 -0.1680105 1.087376
-0.33146265 -0.16691899 1.087016
-0.32730341 -0.16747341 1.0891125
-0.32273602 -0.16672325 1.0881367
-0.31963998 -0.16557801 1.085968
-0.27525201 -0.166333 1.087242
-0.27162099 -0.16776779 1.0867093
-0.26763824 -0.1679129 1.0878035
-0.26263049 -0.1658625 1.0872495
-0.34606898 -0.162377 1.0873305
-0.34216455 -0.16279458 1.0877216
-0.325611 -0.16179626 1.0879247
-0.32162434 -0.16280134 1.0885347
-0.31922901 -0.162929 1.086056
-0.312785 -0.160322 1.0854599
-0.272499 -0.16213378 1.0873394
-0.26834729 -0.16342857 1.0874436
-0.34219351 -0.18209675 1.0932593
-0.33636078 -0.18166821 1.0919088
-0.33281618 -0.181299 1.0933783
-0.32915601 -0.18221501 1.092044
-0.26233324 -0.18074176 1.0925584
-0.34250885 -0.1773386 1.0930967
-0.33817536 -0.1777235 1.0921528
-0.33374834 -0.17762385 1.0921745
-0.32815367 -0.17578232 1.0916467
-0.27050599 -0.175648 1.09259
-0.267012 -0.176735 1.0924196
-0.26328301 -0.17722966 1.0927165
-0.25897801 -0.175685 1.0940465
-0.24919 -0.176626 1.090379
-0.34555799 -0.1712565 1.0929495
-0.34248969 -0.17196092 1.0926517
-0.337872 -0.17233551 1.0912725
-0.332802 -0.17257474 1.093227
-0.328576 -0.17154619 1.0926802
-0.26730999 -0.17248499 1.0920255
-0.26285014 -0.172181 1.092998
-0.25683698 -0.17265701 1.0915929
-0.247986 -0.17308 1.094972
-0.34643701 -0.16654867 1.0932786
-0.34305924 -0.16762337 1.0923399
-0.331882 -0.16805667 1.0916051
-0.32807478 -0.1665656 1.0911677
-0.27085164 -0.16847266 1.0918393
-0.26753369 -0.16663679 1.0925432
-0.26411334 -0.16711433 1.0911397
-0.25789568 -0.16672902 1.0913957
-0.25302336 -0.16758001 1.0928283
-0.34643599 -0.162489 1.090994
-0.34283528 -0.16285822 1.0919548
-0.33185801 -0.16398899 1.091848
-0.34845799 -0.18650199 1.099028
-0.34406999 -0.18604299 1.099952
-0.3379055 -0.1874465 1.0971825
-0.33447 -0.18599901 1.098439
-0.34579301 -0.183318 1.099229
-0.34216917 -0.18199612 1.0971133
-0.33793879 -0.18250394 1.0978751
-0.33183986 -0.1830167 1.0979503
-0.32843599 -0.18278967 1.0983547
-0.26692849 -0.18134901 1.0973399
-0.26401275 -0.18179575 1.0983837
-0.259803 -0.18261001 1.0989881
-0.25290301 -0.18079799 1.096311
-0.34718099 -0.17828351 1.095966
-0.34225291 -0.17678221 1.0973113
-0.33755517 -0.17828417 1.0971712
-0.33310184 -0.17690802 1.0968624
-0.328448 -0.176689 1.09833
-0.26705238 -0.1774729 1.0975614
-0.26277885 -0.17705883 1.096572
-0.25533551 -0.17658199 1.097172
-0.25372425 -0.17710675 1.0976913
-0.34534299 -0.17201951 1.0978914
-0.34222382 -0.17285261 1.0975693
-0.33743131 -0.17441534 1.0988057
-0.33161277 -0.17235319 1.0967137
-0.32777515 -0.17259748 1.0974878
-0.32414201 -0.173573 1.0979
-0.271779 -0.17279151 1.098917
-0.2666648 -0.17305492 1.0974545
-0.264817 -0.174559 1.099013
-0.25668782 -0.17342958 1.0980573
-0.249917 -0.171051 1.095978
-0.3459655 -0.16752499 1.0977595
-0.3424277 -0.1674425 1.0979712
-0.33863449 -0.168294 1.09737
-0.32840002 -0.166921 1.0977011
-0.27121267 -0.16790034 1.0976392
-0.26764241 -0.1682694 1.0976055
-0.34047201 -0.190116 1.104596
-0.312282 -0.191193 1.104413
-0.34034601 -0.18936799 1.102319
-0.33686098 -0.18598668 1.1020199
-0.33398736 -0.18745233 1.1037153
-0.32939899 -0.18826699 1.100854
-0.324469 -0.189336 1.103673
-0.2684665 -0.186519 1.102425
-0.26221001 -0.1891 1.103915
-0.256019 -0.186544 1.101818
-0.25454 -0.186602 1.103528
-0.34243301 -0.18184842 1.1029309
-0.33747309 -0.18235049 1.1028244
-0.33370969 -0.18269634 1.1024419
-0.32802501 -0.18114701 1.1019471
-0.3234745 -0.18128049 1.1014445
-0.27083474 -0.18293376 1.1041876
-0.26766786 -0.18217485 1.1025348
-0.26224843 -0.18242943 1.1024736
-0.25713402 -0.18167941 1.1023626
-0.25407553 -0.18109301 1.1032259
-0.34789801 -0.17647402 1.102976
-0.34201276 -0.17831224 1.1031625
-0.33800158 -0.1781859 1.1028094
-0.33271986 -0.17829557 1.1026605
-0.32636899 -0.17689 1.104453
-0.322229 -0.17649201 1.103004
-0.27070799 -0.1775565 1.1045297
-0.26796323 -0.17736425 1.1016005
-0.26350677 -0.1774115 1.1018863
-0.25696966 -0.17780699 1.1025981
-0.25394499 -0.175583 1.102628
-0.3422969 -0.17276701 1.1026975
-0.33855581 -0.1725232 1.1029836
-0.33143967 -0.173356 1.102308
-0.32516101 -0.17382801 1.104194
-0.32211551 -0.17437901 1.104068
-0.27110299 -0.17134701 1.1003619
-0.26828021 -0.17315523 1.1023198
-0.26328552 -0.17229 1.100603
-0.25736067 -0.17317833 1.101951
-0.25316069 -0.17203499 1.1036884
-0.33856201 -0.206258 1.109212
-0.3362647 -0.19056366 1.1074253
-0.33416334 -0.19144332 1.108585
-0.32972401 -0.191623 1.106514
-0.32178101 -0.19155601 1.107987
-0.27078801 -0.192791 1.1080641
-0.26809901 -0.19226 1.106504
-0.26356199 -0.192387 1.1067359
-0.34075552 -0.1864865 1.1055911
-0.33787251 -0.187075 1.1084731
-0.33287573 -0.18825985 1.1079876
-0.32732248 -0.1868515 1.1091875
-0.32256225 -0.18840799 1.1084975
-0.315451 -0.185911 1.10962
-0.27624899 -0.18924101 1.10636
-0.27164912 -0.1876775 1.1088116
-0.26804549 -0.18693 1.1075804
-0.261347 -0.18588701 1.1073285
-0.2594645 -0.18796301 1.1090674
-0.25242499 -0.186157 1.109483
-0.34665701 -0.18284 1.1097569
-0.34153998 -0.18241325 1.1072853
-0.33736458 -0.18224843 1.1071289
-0.33323917 -0.18392985 1.1080945
-0.32655165 -0.18271899 1.106212
-0.32245642 -0.1818362 1.1083308
-0.31851432 -0.181899 1.1080433
-0.27212882 -0.1823712 1.1087821
-0.26829764 -0.18330275 1.1076435
-0.26208299 -0.18449999 1.1082619
-0.25593081 -0.1826086 1.1081661
-0.254296 -0.182199 1.108609
-0.3427923 -0.17629035 1.1066405
-0.33782089 -0.17663233 1.1073318
-0.33348048 -0.17877451 1.1067665
-0.32903901 -0.17869399 1.10822
-0.324334 -0.17631499 1.105503
-0.31816468 -0.17590468 1.1088008
-0.27127376 -0.17757414 1.107691
-0.26932064 -0.17872234 1.1058346
-0.256697 -0.175651 1.10814
-0.25462699 -0.17972299 1.1075619
-0.34650001 -0.172359 1.10944
-0.34205249 -0.17262299 1.1078532
-0.33900118 -0.1724555 1.1086972
-0.33315501 -0.17325 1.108317
-0.326112 -0.17413899 1.108036
-0.32238469 -0.17352468 1.1079661
-0.317729 -0.17445099 1.107848
-0.26893249 -0.17323916 1.1068445
-0.26357499 -0.173319 1.105005
-0.327948 -0.20041101 1.1141
-0.338732 -0.19608501 1.111208
-0.332387 -0.195657 1.1132309
-0.32752001 -0.195714 1.1121221
-0.28221899 -0.19739 1.114507
-0.33295217 -0.191973 1.1132073
-0.32732758 -0.19183859 1.1131996
-0.32216299 -0.19068301 1.1122169
-0.3177762 -0.191337 1.1123688
-0.31235623 -0.19289327 1.1126502
-0.30781201 -0.194941 1.1125979
-0.28984201 -0.192223 1.113632
-0.28187099 -0.19162767 1.1118016
-0.27689669 -0.19168167 1.112239
-0.27394599 -0.19295301 1.114296
-0.26705998 -0.1910215 1.11238
-0.25581899 -0.190982 1.111985
-0.2493 -0.191074 1.114307
-0.341939 -0.185008 1.1131949
-0.337376 -0.18646489 1.1119064
-0.33206007 -0.18749768 1.113336
-0.3282724 -0.18683162 1.1123122
-0.322155 -0.18794975 1.1131163
-0.31725299 -0.18642466 1.1127139
-0.31406251 -0.1880255 1.114748
-0.30864 -0.18830766 1.1143748
-0.30270401 -0.18854 1.114372
-0.28711101 -0.187582 1.114791
-0.28155676 -0.18691549 1.1137378
-0.27692053 -0.18681137 1.112606
-0.27262172 -0.18714972 1.1120212
-0.2673476 -0.186957 1.1114051
-0.262036 -0.187172 1.1111655
-0.25796983 -0.18759151 1.1136771
-0.25218999 -0.185195 1.1115741
-0.34000301 -0.18203899 1.114818
-0.3359122 -0.18321 1.1113844
-0.3328914 -0.18306112 1.1122797
-0.32897753 -0.1824805 1.1126494
-0.32339266 -0.18295033 1.1127764
-0.3172912 -0.1831634 1.1126091
-0.31330967 -0.18309133 1.1130034
-0.28369999 -0.18276301 1.1145489
-0.2769334 -0.1831567 1.1126835
-0.27279478 -0.18260469 1.1123123
-0.26461899 -0.18423501 1.110713
-0.25745082 -0.18294401 1.1124725
-0.251362 -0.18273599 1.112722
-0.340922 -0.178253 1.1126254
-0.33725545 -0.1782911 1.1130768
-0.332854 -0.17738861 1.1133206
-0.32321 -0.176213 1.114821
-0.31747532 -0.17830901 1.1133593
-0.31088999 -0.17862 1.114707
-0.27679601 -0.17656533 1.1128912
-0.27298436 -0.17729059 1.1119803
-0.26615649 -0.1769425 1.1113584
-0.25713599 -0.17709252 1.1123518
-0.254089 -0.176809 1.113892
-0.325923 -0.173858 1.111964
-0.3225435 -0.196509 1.117859
-0.306207 -0.197386 1.1182801
-0.3019135 -0.1956635 1.1173534
-0.29245999 -0.19540299 1.1169866
-0.2757 -0.196732 1.115876
-0.262436 -0.195463 1.119746
-0.259431 -0.196752 1.117542
-0.33771536 -0.19206667 1.1178467
-0.33268815 -0.19145615 1.1167425
-0.32714987 -0.19218351 1.1177964
-0.3224577 -0.19319884 1.1171417
-0.319711 -0.190511 1.117258
-0.31216049 -0.19237301 1.1173931
-0.30630648 -0.1927215 1.1173069
-0.30216524 -0.19301699 1.1164736
-0.29770434 -0.19277833 1.1175408
-0.2916218 -0.1922656 1.1186711
-0.28761753 -0.19267173 1.1175387
-0.28267667 -0.19228148 1.1168934
-0.27702135 -0.1915634 1.117384
-0.27301425 -0.19237901 1.1179621
-0.26764274 -0.19115925 1.1178497
-0.26283199 -0.19264001 1.1185474
-0.25552398 -0.19213951 1.117731
-0.33898899 -0.18871699 1.11769
-0.33261585 -0.18657158 1.1171018
-0.32772887 -0.18737437 1.1178421
-0.3235625 -0.18727849 1.118029
-0.3159095 -0.1883435 1.116838
-0.31218261 -0.1877404 1.1167022
-0.30781022 -0.1870546 1.1174619
-0.3024765 -0.18723549 1.1182508
-0.29773527 -0.18678956 1.1188117
-0.29238501 -0.18740542 1.1174048
-0.287965 -0.18722577 1.1184918
-0.2823548 -0.18703769 1.1176422
-0.277789 -0.188501 1.1169405
-0.27297965 -0.18761234 1.11702
-0.26731098 -0.188234 1.1154521
-0.26252601 -0.1879904 1.1177784
-0.25739059 -0.1889082 1.1165724
-0.25336802 -0.18783951 1.1183856
-0.342756 -0.180943 1.119215
-0.33789775 -0.18253574 1.1174949
-0.33260831 -0.1827362 1.1177996
-0.32792601 -0.184021 1.1178989
-0.31579202 -0.180949 1.1164675
-0.31280583 -0.18289484 1.1167642
-0.30724669 -0.18204129 1.1171697
-0.30316478 -0.1835888 1.1175683
-0.29691374 -0.183191 1.118597
-0.29115632 -0.18302967 1.1181983
-0.2872102 -0.1835835 1.118135
-0.28300539 -0.18219 1.1171378
-0.27779022 -0.18276535 1.1163315
-0.27441999 -0.180832 1.115454
-0.26704001 -0.18488351 1.118029
-0.261103 -0.18368 1.118047
-0.25755399 -0.18188234 1.1183432
-0.253865 -0.181116 1.115983
-0.34703401 -0.178905 1.116004
-0.33711529 -0.17807399 1.1164591
-0.33314213 -0.17824785 1.1182162
-0.32148799 -0.178205 1.1168
-0.31725633 -0.17756701 1.1166183
-0.31258482 -0.176496 1.1160408
-0.28243399 -0.17813326 1.1182469
-0.27772146 -0.17713171 1.1164056
-0.27313334 -0.17716366 1.1165633
-0.25224701 -0.178407 1.115716
-0.32754898 -0.200828 1.1229994
-0.33277649 -0.196602 1.122895
-0.32842201 -0.195959 1.1215169
-0.32208434 -0.198523 1.1221644
-0.31655869 -0.197331 1.1236557
-0.31306159 -0.19652909 1.1231931
-0.30661523 -0.196706 1.1230795
-0.303469 -0.19791301 1.122486
-0.29744828 -0.19677676 1.1221538
-0.29190034 -0.19642866 1.1213863
-0.28774852 -0.197145 1.1230979
-0.28315151 -0.19698751 1.123335
-0.2786355 -0.19700851 1.122344
-0.27257401 -0.19677001 1.1235075
-0.26769403 -0.19644167 1.1233311
-0.26188299 -0.19570801 1.121982
-0.33695999 -0.191091 1.123472
-0.33148849 -0.1924195 1.1223061
-0.32766899 -0.1919196 1.1215928
-0.32130635 -0.19242133 1.1218929
-0.31773978 -0.19268511 1.1228822
-0.312107 -0.192554 1.123819
-0.3078835 -0.19155949 1.1224711
-0.30324799 -0.1922555 1.123157
-0.2978825 -0.19204649 1.1216913
-0.29158801 -0.19200501 1.1218286
-0.28709385 -0.19292599 1.1215791
-0.28231865 -0.19352734 1.1207967
-0.277796 -0.1933144 1.1219897
-0.27317452 -0.192516 1.1209686
-0.267055 -0.19245833 1.1229128
-0.26210499 -0.19281501 1.1217115
-0.25945848 -0.19186476 1.122798
-0.25378799 -0.19411799 1.120919
-0.34479201 -0.189283 1.122761
-0.33595899 -0.186534 1.1234
-0.33348301 -0.18730101 1.121837
-0.32789138 -0.18711901 1.1221596
-0.32279399 -0.188234 1.121766
-0.31990799 -0.188419 1.123471
-0.313164 -0.186894 1.122053
-0.30865049 -0.188876 1.123106
-0.30138701 -0.18757232 1.1226357
-0.29689676 -0.18852773 1.1225245
-0.29178423 -0.186579 1.1223898
-0.288057 -0.1874388 1.1214622
-0.28325 -0.187253 1.1214285
-0.27690101 -0.188319 1.123843
-0.2684375 -0.18631801 1.1235065
-0.26142967 -0.187847 1.1239411
-0.25818199 -0.1878255 1.1217885
-0.331974 -0.18177551 1.1213974
-0.32790619 -0.18300161 1.1229692
-0.32337499 -0.18281451 1.1230814
-0.30657548 -0.182079 1.1218514
-0.30403301 -0.18191725 1.1223137
-0.29818478 -0.18204319 1.1232105
-0.29404959 -0.18210539 1.1212636
-0.28779298 -0.18200974 1.122167
-0.28309751 -0.181678 1.1204565
-0.27852499 -0.18427551 1.1216044
-0.26720899 -0.18353499 1.123913
-0.26244575 -0.18346675 1.122918
-0.25766101 -0.18194915 1.1212599
-0.2536777 -0.18171334 1.1218843
-0.32469401 -0.201768 1.126433
-0.316576 -0.20232099 1.125542
-0.308364 -0.202142 1.128096
-0.30156401 -0.20276749 1.126462
-0.29552799 -0.200445 1.127069
-0.29462501 -0.20148499 1.127192
-0.27847201 -0.203206 1.129441
-0.27125749 -0.20183051 1.1267815
-0.263055 -0.20110799 1.127901
-0.32798001 -0.19714899 1.126833
-0.32364434 -0.19660068 1.1277657
-0.31752634 -0.19671698 1.1293141
-0.31094265 -0.19591267 1.1259896
-0.30800241 -0.1973442 1.1272666
-0.30207673 -0.19713585 1.1281933
-0.29285902 -0.19704813 1.1267109
-0.28670448 -0.1970385 1.1271446
-0.28286698 -0.19643867 1.1290077
-0.27902049 -0.19833 1.1297016
-0.27280301 -0.196698 1.1281965
-0.267784 -0.19660775 1.126397
-0.26239198 -0.1978035 1.1284485
-0.25970799 -0.196716 1.126018
-0.33197901 -0.193745 1.1292371
-0.32837474 -0.19221249 1.127902
-0.32225224 -0.19252001 1.126844
-0.31672341 -0.19179571 1.127833
-0.31302097 -0.19270818 1.1277757
-0.30291849 -0.19408849 1.127604
-0.29975498 -0.19357151 1.127522
-0.29105699 -0.191282 1.128008
-0.28666601 -0.19372749 1.128579
-0.283878 -0.192214 1.12705
-0.2782405 -0.192803 1.1282976
-0.272223 -0.192555 1.128849
-0.26678818 -0.1923438 1.1274769
-0.26027799 -0.19130699 1.127701
-0.33895749 -0.1881175 1.125803
-0.3312555 -0.18701001 1.1275284
-0.32733399 -0.186465 1.125281
-0.32258493 -0.1869126 1.12714
-0.31823185 -0.18852699 1.1280967
-0.31448752 -0.18874949 1.1273
-0.30783001 -0.186002 1.129423
-0.301117 -0.188237 1.127625
-0.27856302 -0.188449 1.1279166
-0.266635 -0.18861067 1.126968
-0.26203582 -0.18750983 1.1273919
-0.25899148 -0.187675 1.1271551
-0.3385855 -0.1826055 1.126966
-0.330845 -0.18222 1.127142
-0.32794687 -0.18206264 1.127772
-0.32382569 -0.1821465 1.1282834
-0.31902799 -0.183516 1.1294169
-0.278595 -0.184242 1.12949
-0.271009 -0.18322299 1.127753
-0.26093867 -0.18313301 1.1273366
-0.259029 -0.1839152 1.1273136
-0.31272751 -0.20672101 1.133021
-0.30655301 -0.207414 1.133836
-0.29904699 -0.20558999 1.134163
-0.29097748 -0.2070425 1.1335211
-0.28378701 -0.206616 1.133261
-0.27193901 -0.207939 1.134688
-0.3229765 -0.20098099 1.1320255
-0.31805751 -0.2019445 1.1318455
-0.31314749 -0.201363 1.1330345
-0.30789134 -0.20254867 1.1341113
-0.302683 -0.20382066 1.1340586
-0.29787901 -0.20379299 1.1339536
-0.29311848 -0.20328951 1.132237
-0.287083 -0.20219468 1.1324364
-0.28262451 -0.2029755 1.1327136
-0.27512401 -0.20388199 1.134511
-0.27323881 -0.20131581 1.133546
-0.26844501 -0.2017325 1.132116
-0.26160899 -0.202692 1.132574
-0.32379326 -0.19675575 1.1311517
-0.31623268 -0.19653802 1.1324973
-0.31203151 -0.19765049 1.131254
-0.30894601 -0.1974785 1.133589
-0.28839901 -0.19915099 1.1329041
-0.281304 -0.19704799 1.131739
-0.27795437 -0.19761734 1.1327289
-0.27244258 -0.19770059 1.1322694
-0.26807764 -0.19779266 1.1307783
-0.26280749 -0.19730699 1.1303885
-0.3330515 -0.193174 1.1325619
-0.32615533 -0.19242699 1.1334257
-0.32040849 -0.19116449 1.1333621
-0.31842023 -0.19155763 1.1332189
-0.31181619 -0.19253801 1.1327044
-0.30787101 -0.191232 1.1319456
-0.30270535 -0.19267516 1.132831
-0.29636359 -0.19319318 1.1313938
-0.29333618 -0.19317299 1.131259
-0.28850102 -0.19303 1.1326125
-0.28378901 -0.191255 1.13342
-0.27914101 -0.190698 1.134174
-0.27252358 -0.19309643 1.1321204
-0.26760051 -0.191652 1.132645
-0.26197001 -0.192707 1.133525
-0.33143651 -0.187721 1.1343391
-0.3274475 -0.185359 1.1335235
-0.32229227 -0.18738972 1.1326376
-0.31886181 -0.1882364 1.1323
-0.30733597 -0.187373 1.1314726
-0.30203232 -0.18863533 1.1319507
-0.29647866 -0.18724866 1.1346116
-0.2926707 -0.18642966 1.1336952
-0.28728896 -0.18867874 1.1328955
-0.28341499 -0.18900099 1.1318949
-0.27993 -0.188393 1.134123
-0.27201834 -0.18750934 1.1336517
-0.26675758 -0.18765728 1.1320353
-0.26338482 -0.18745483 1.1324328
-0.3253175 -0.1843375 1.132337
-0.28573301 -0.210016 1.135579
-0.31283501 -0.207672 1.139099
-0.305594 -0.20683125 1.1372402
-0.30222201 -0.206908 1.138569
-0.29832301 -0.20728798 1.1359338
-0.29159948 -0.2074915 1.1358235
-0.285375 -0.20575801 1.136439
-0.282444 -0.206848 1.136759
-0.31849849 -0.20205849 1.137067
-0.31197599 -0.20202066 1.1374217
-0.30719301 -0.20232333 1.1371057
-0.30362999 -0.20316325 1.136605
-0.29689535 -0.20187451 1.1375402
-0.29388165 -0.20202 1.1371953
-0.28799886 -0.20238216 1.138482
-0.28207612 -0.20170754 1.1371557
-0.27807599 -0.20135701 1.1366334
-0.27437401 -0.20356999 1.139099
-0.268673 -0.200123 1.135727
-0.32612801 -0.195281 1.136867
-0.32164475 -0.19629624 1.1379987
-0.31784239 -0.19764259 1.1361988
-0.31319332 -0.19651134 1.1382724
-0.30663401 -0.198327 1.139941
-0.302569 -0.1987465 1.1383562
-0.29635799 -0.19710401 1.138258
-0.29281202 -0.19878934 1.1375331
-0.28681341 -0.1974782 1.1375803
-0.28281176 -0.19964574 1.136621
-0.27810901 -0.19615133 1.1369947
-0.27432299 -0.19736001 1.1381985
-0.26975599 -0.19549499 1.136562
-0.32234958 -0.19189334 1.1377493
-0.31672749 -0.19153117 1.1371188
-0.31283936 -0.19108899 1.1372386
-0.30233935 -0.19165599 1.136644
-0.28857401 -0.193139 1.137722
-0.281791 -0.1925496 1.1378739
-0.27736643 -0.19261356 1.1381553
-0.27309814 -0.19238272 1.137529
-0.26917174 -0.19318449 1.1374835
-0.32652774 -0.18789899 1.1384615
-0.32255143 -0.18752757 1.1377717
-0.31831434 -0.187941 1.1353464
-0.31129634 -0.189063 1.1378161
-0.29713541 -0.18797341 1.1369293
-0.27326539 -0.1878252 1.136456
-0.264961 -0.18892799 1.136741
-0.3127225 -0.20112926 1.1433746
-0.30656749 -0.20142549 1.1418438
-0.30313244 -0.201629 1.1419504
-0.29862481 -0.20162101 1.141403
-0.29191867 -0.20202969 1.1413776
-0.28893751 -0.2011085 1.141243
-0.282801 -0.20439801 1.142707
-0.32196355 -0.19645233 1.1435342
-0.31760132 -0.19775183 1.1425693
-0.31219101 -0.19829531 1.1425279
-0.30851674 -0.19718824 1.1416575
-0.30321461 -0.19804801 1.1422822
-0.29715279 -0.1971512 1.1418083
-0.2919324 -0.19768061 1.142719
-0.2880207 -0.19599766 1.143064
-0.28337297 -0.19633617 1.1410447
-0.27669999 -0.196035 1.1415765
-0.32727852 -0.19166417 1.1431017
-0.32269058 -0.19276446 1.1414084
-0.315256 -0.194842 1.1437939
-0.30340001 -0.19206801 1.1442349
-0.29782775 -0.19265826 1.1440415
-0.29300982 -0.19246359 1.1432911
-0.28607303 -0.191888 1.1417108
-0.28270501 -0.19317082 1.1427743
-0.27882499 -0.19271 1.142653
-0.27489299 -0.191808 1.140735
-0.30983499 -0.206701 1.14572
-0.31734231 -0.200491 1.1486013
-0.314937 -0.201057 1.145774
-0.30728799 -0.20217 1.1473315
-0.32696849 -0.1969005 1.1478505
-0.32187173 -0.19653898 1.1473771
-0.31807801 -0.19740029 1.148564
-0.31232521 -0.197348 1.1472005
-0.30904701 -0.19740351 1.1474744
-0.30239359 -0.19683842 1.1475079
-0.29767299 -0.196145 1.1463604
-0.29291901 -0.19709601 1.1456
-0.28746 -0.195012 1.146239
-0.283517 -0.196698 1.146433
-0.32741901 -0.19245507 1.1476716
-0.32352939 -0.1934765 1.1463655
-0.31544101 -0.194675 1.1487859
-0.31050348 -0.19330749 1.1481005
-0.30651224 -0.19377401 1.1470443
-0.29135999 -0.19305401 1.1468256
-0.28541401 -0.19308101 1.1456029
-0.311364 -0.2072835 1.1532376
-0.328843 -0.20259801 1.153245
-0.32102501 -0.202904 1.154416
-0.31543702 -0.2014385 1.1540744
-0.31256026 -0.20171374 1.1526752
-0.30838048 -0.20124826 1.1526983
-0.33272702 -0.195168 1.1522596
-0.32606032 -0.19659667 1.1531986
-0.32200271 -0.19710891 1.1528215
-0.31861401 -0.197227 1.1520751
-0.31115848 -0.19707251 1.1537371
-0.30650958 -0.19717059 1.1526148
-0.30281198 -0.197925 1.153653
-0.296271 -0.195746 1.1504591
-0.31762433 -0.207743 1.1572744
-0.31488401 -0.2066645 1.1597755
-0.30877599 -0.206349 1.158121
-0.33035001 -0.20043001 1.157838
-0.32554501 -0.201262 1.1552041
-0.32174376 -0.20205951 1.1570749
-0.31656599 -0.20308 1.157057
-0.31167024 -0.20248675 1.1577871
-0.30763498 -0.20106167 1.1587811
-0.335226 -0.197383 1.156369
-0.33072099 -0.19673701 1.156101
-0.31798914 -0.19816872 1.157521
-0.31264499 -0.197695 1.155434
-0.30496901 -0.199673 1.1561871
-0.32625198 -0.2075295 1.1617916
-0.32177901 -0.2062715 1.1601895
-0.309966 -0.205681 1.160998
-0.33089799 -0.20202801 1.161324
-0.322947 -0.20285034 1.1628631
-0.317606 -0.20275275 1.1626642
-0.31308576 -0.20185888 1.1629109
-0.30819133 -0.20247068 1.161188
-0.32220501 -0.205412 1.1666729
-0.311315 -0.205652 1.167241
-0.30833399 -0.208281 1.168045
-0.32766083 -0.20291901 1.1676755
-0.31790712 -0.20253818 1.1672239
-0.30766299 -0.202952 1.1664956
-0.32193148 -0.207155 1.1709886
-0.31704935 -0.20684068 1.171923
-0.30841899 -0.207514 1.1723945
-0.30849701 -0.21423399 1.17584
