# .PCD v0.7 - Point Cloud Data file format
VERSION 0.7
FIELDS x y z
SIZE 4 4 4
TYPE F F F
COUNT 1 1 1
WIDTH 1546
HEIGHT 1
VIEWPOINT 0 0 0 1 0 0 0
POINTS 1546
DATA ascii
0.82278901 0.43481401 -0.42634299
0.79856497 0.44225299 -0.427966
0.17419299 0.494923 -0.42641899
0.199596 0.494102 -0.42573601
0.151043 0.49585399 -0.425787
0.167716 0.49854001 -0.425679
0.19762699 0.50104499 -0.42521799
0.127643 0.50886703 -0.42984301
0.172325 0.50581098 -0.42801401
0.13527399 0.51232702 -0.426054
0.173235 0.514157 -0.42625499
0.143473 0.51574498 -0.42634499
0.193331 0.51984698 -0.428323
0.13661601 0.52444202 -0.42930201
0.170129 0.52212298 -0.42770699
0.185579 0.52073598 -0.42564899
0.217033 0.52438402 -0.42864799
0.128012 0.52871603 -0.42914999
0.17272399 0.52667201 -0.42749301
0.103441 0.53191501 -0.42870501
0.125249 0.532848 -0.42917699
0.1371195 0.53253996 -0.42594701
0.17605101 0.53246802 -0.425924
0.19153599 0.53232801 -0.42835701
0.12953401 0.53729701 -0.428137
0.172793 0.54096699 -0.42732799
0.19391499 0.54100603 -0.427881
0.203953 0.54357302 -0.425713
0.218463 0.54306853 -0.42862099
0.107385 0.548994 -0.425836
0.128418 0.54889601 -0.42853001
0.136767 0.54543298 -0.42879
0.17314801 0.54787099 -0.42702299
0.103414 0.55289698 -0.42831001
0.136668 0.55125803 -0.42632699
0.194258 0.55221599 -0.42757499
0.111292 0.55598402 -0.429921
0.130668 0.55744201 -0.427766
0.173141 0.558761 -0.425735
0.184798 0.55635101 -0.42910299
0.188246 0.558047 -0.42786801
0.104247 0.56484503 -0.426754
0.175767 0.56465101 -0.42855501
0.203429 0.56372499 -0.42978299
0.208739 0.56302899 -0.42520699
0.22165699 0.56043202 -0.428994
0.10833 0.56937498 -0.42524901
0.120701 0.56793803 -0.426597
0.136939 0.56676298 -0.42833
0.14776599 0.56562299 -0.42736
0.168055 0.56677198 -0.42796201
0.103408 0.57422101 -0.42797399
0.113587 0.57418197 -0.42584601
0.150868 0.57186651 -0.426157
0.172784 0.57200903 -0.428231
0.111783 0.57622802 -0.429189
0.16379699 0.57563698 -0.426321
0.19101 0.57582402 -0.427632
0.104735 0.58461797 -0.42686799
0.15051401 0.58392698 -0.427035
0.19386099 0.58024299 -0.42644301
0.121311 0.58787602 -0.42673799
0.137104 0.58837199 -0.427834
0.22965799 0.58940601 -0.42969099
0.19381 0.59378201 -0.427351
0.217406 0.59473097 -0.42857
0.103368 0.59575701 -0.42752901
0.105244 0.60466099 -0.42701
0.145114 0.60247099 -0.425318
0.153299 0.60241699 -0.42665401
0.214854 0.601942 -0.42705199
0.12578949 0.61401296 -0.42626297
0.13299499 0.61663401 -0.428725
0.142331 0.61745799 -0.42985401
0.814013 0.404475 -0.42144701
0.83401 0.40327501 -0.42217699
0.86612397 0.40511301 -0.420533
0.83537 0.413614 -0.42254999
0.804129 0.41548899 -0.42037901
0.827739 0.41814899 -0.42261201
0.83534598 0.419341 -0.42303199
0.82286602 0.424335 -0.422833
0.84113401 0.42312601 -0.420968
0.80459797 0.42554301 -0.42469701
0.82718498 0.42542899 -0.421938
0.79897302 0.44106701 -0.421276
0.172654 0.49316201 -0.42347699
0.185077 0.49082899 -0.42005801
0.15204901 0.49949601 -0.422012
0.15735 0.49508199 -0.42035699
0.17610499 0.49541801 -0.42196801
0.18240599 0.497798 -0.420279
0.14185201 0.50376898 -0.42138299
0.196878 0.51969302 -0.42485601
0.108973 0.52387398 -0.42483699
0.19591799 0.52831602 -0.42084599
0.124769 0.53087598 -0.42186499
0.17357901 0.534931 -0.42267501
0.15728 0.53765798 -0.42229301
0.18802799 0.53875899 -0.42225599
0.19794901 0.53982198 -0.424077
0.20326801 0.53817499 -0.42436001
0.118642 0.54836798 -0.420068
0.208535 0.548581 -0.42462
0.21634001 0.54521602 -0.42410699
0.1760385 0.55206954 -0.4229725
0.159877 0.55667102 -0.421803
0.172544 0.559672 -0.42132801
0.189785 0.559807 -0.42321199
0.109496 0.56410497 -0.42345601
0.15174051 0.56256747 -0.42102051
0.16204 0.560709 -0.42194399
0.16873001 0.56285697 -0.422236
0.18686301 0.56309301 -0.42290801
0.187454 0.568959 -0.422369
0.21158899 0.567177 -0.42421499
0.12589701 0.57096201 -0.420212
0.16879 0.57019401 -0.424274
0.170569 0.57299298 -0.424833
0.177864 0.57159501 -0.420688
0.18214799 0.57311398 -0.423271
0.175955 0.57914501 -0.42473
0.109776 0.58465499 -0.422786
0.116675 0.581406 -0.421785
0.13832401 0.58127898 -0.420849
0.15700799 0.58054948 -0.42061001
0.20818301 0.58385402 -0.422277
0.211273 0.580585 -0.424925
0.1632635 0.58653498 -0.42267901
0.214682 0.58603102 -0.42383501
0.092827 0.59156197 -0.42464799
0.096505001 0.59092098 -0.42392701
0.13914201 0.59436101 -0.422813
0.1525 0.593081 -0.42496899
0.17288999 0.59288597 -0.42407599
0.22181 0.59189498 -0.421455
0.2394 0.59081602 -0.424822
0.142731 0.59751803 -0.42015201
0.160762 0.59862399 -0.421877
0.22346801 0.595007 -0.42379701
0.211409 0.60464501 -0.42092499
0.091147996 0.60632402 -0.421188
0.232749 0.60848802 -0.423511
0.093193002 0.61217803 -0.423868
0.097434998 0.61155701 -0.42353499
0.164969 0.61030102 -0.423756
0.175249 0.61311197 -0.42339599
0.241336 0.61228502 -0.42440799
0.83183903 0.40399599 -0.41804701
0.85673398 0.40860301 -0.41677001
0.83345097 0.41235599 -0.41731799
0.75635499 0.41739899 -0.41726899
0.78995299 0.41842699 -0.41946399
0.87177002 0.41893101 -0.41924
0.82055402 0.42956299 -0.418394
0.82789701 0.42603001 -0.41502601
0.84496099 0.42625201 -0.41565901
0.81494802 0.432073 -0.41872999
0.83954799 0.434284 -0.41651401
0.81764698 0.43890801 -0.41728601
0.187594 0.48897749 -0.416136
0.175413 0.50334501 -0.41715699
0.145658 0.50665897 -0.415095
0.153172 0.50804001 -0.41790599
0.1580255 0.51268148 -0.418706
0.176137 0.52335298 -0.41645601
0.138465 0.52721602 -0.41973701
0.14643 0.525989 -0.415189
0.153486 0.52885801 -0.41743699
0.141679 0.53144598 -0.41801801
0.1590675 0.532552 -0.4180485
0.18785401 0.53488702 -0.419357
0.21008199 0.533512 -0.41834199
0.120601 0.54336298 -0.41639599
0.18909299 0.54362202 -0.41917199
0.193745 0.54524702 -0.418836
0.142893 0.55155301 -0.41758099
0.158967 0.55036199 -0.415775
0.21173801 0.55419302 -0.41768199
0.19576301 0.55870998 -0.418401
0.131216 0.562199 -0.415501
0.196707 0.56382298 -0.41839501
0.118742 0.56966001 -0.41967601
0.125811 0.56829298 -0.41566199
0.223983 0.569969 -0.41555601
0.179028 0.57391602 -0.41626
0.20667 0.57293499 -0.41756099
0.19822 0.57624102 -0.41807899
0.23369899 0.57957 -0.419781
0.131891 0.58209997 -0.41557199
0.135143 0.58290303 -0.419568
0.17639001 0.58125901 -0.41662201
0.106941 0.58629602 -0.41567099
0.153337 0.58977097 -0.41804299
0.20703599 0.58908498 -0.41851652
0.227722 0.58962899 -0.41619101
0.118808 0.59116501 -0.419173
0.126487 0.591438 -0.41940099
0.149358 0.59210098 -0.41572201
0.18194801 0.59219801 -0.415921
0.201803 0.59375298 -0.418089
0.209741 0.59106499 -0.41718599
0.090727001 0.599967 -0.417678
0.115824 0.598885 -0.41584399
0.14092299 0.60244501 -0.419494
0.159582 0.60208601 -0.41907901
0.19718499 0.60303903 -0.41532201
0.21555699 0.60100698 -0.417833
0.23607299 0.60140347 -0.41767901
0.149497 0.60765398 -0.417218
0.182631 0.607041 -0.41732699
0.88271803 0.39175501 -0.41067299
0.79900903 0.408851 -0.410642
0.85150898 0.40902299 -0.41074499
0.84446001 0.413176 -0.41356301
0.851044 0.41348401 -0.41304699
0.807253 0.41675499 -0.41188899
0.82945698 0.41538799 -0.414278
0.84334803 0.41808 -0.41409701
0.84433198 0.42085901 -0.41349399
0.79171503 0.42815 -0.414812
0.81083298 0.425807 -0.41439301
0.83694899 0.42799199 -0.41454601
0.79366601 0.43004701 -0.41479999
0.798648 0.44727299 -0.413495
0.16941699 0.48926899 -0.410303
0.19003201 0.49022201 -0.413109
0.15606 0.498671 -0.41292301
0.15046 0.50165302 -0.410981
0.16229799 0.50941199 -0.41492099
0.16954599 0.50543803 -0.41363901
0.18928 0.51218402 -0.411235
0.156618 0.51845199 -0.41211799
0.138696 0.52568001 -0.41300699
0.163149 0.52883899 -0.41496101
0.18009201 0.53174502 -0.414756
0.205038 0.53937203 -0.41132
0.13387001 0.54383802 -0.411827
0.178955 0.54191297 -0.41305199
0.139332 0.54552299 -0.41208699
0.193075 0.549959 -0.41046801
0.20558 0.54765201 -0.411008
0.21333601 0.55488002 -0.414177
0.123896 0.55893803 -0.41488299
0.168828 0.55826402 -0.412626
0.178029 0.55998701 -0.41026399
0.211386 0.556283 -0.41176099
0.215882 0.557836 -0.41444999
0.181824 0.56046802 -0.41257501
0.19538601 0.56190699 -0.41285899
0.20568299 0.56078702 -0.41070399
0.212354 0.564188 -0.41066501
0.140011 0.565696 -0.41123399
0.186122 0.56596202 -0.41491199
0.19302601 0.56901699 -0.41099
0.208471 0.56665999 -0.41052201
0.103652 0.57995999 -0.412384
0.124273 0.57945299 -0.41415399
0.18472999 0.57927901 -0.41212201
0.214523 0.575508 -0.41328999
0.15457 0.58192903 -0.413019
0.19815201 0.58212399 -0.41195399
0.108729 0.58503199 -0.41374201
0.16147999 0.58586597 -0.411522
0.16735999 0.58527398 -0.41338101
0.188538 0.58574402 -0.414184
0.19471499 0.58995903 -0.41128799
0.21444701 0.58978599 -0.41303501
0.23393101 0.59067702 -0.41433501
0.132754 0.59883797 -0.41333601
0.218381 0.59888202 -0.41458499
0.157337 0.60115403 -0.41261199
0.20095401 0.60260701 -0.41102201
0.098918997 0.606354 -0.413486
0.108571 0.60625303 -0.41405648
0.19097801 0.605721 -0.41335601
0.84405702 0.39214599 -0.40616599
0.85349798 0.39094099 -0.40545601
0.81154501 0.40794599 -0.40639201
0.80223697 0.41172099 -0.40650001
0.86147797 0.416289 -0.40505001
0.82192701 0.43413001 -0.40728199
0.16829599 0.50354201 -0.40972099
0.17106149 0.50715852 -0.40921801
0.137389 0.51367801 -0.40791699
0.17219 0.52699196 -0.40849799
0.137823 0.53355902 -0.407078
0.133818 0.53773099 -0.406957
0.119992 0.540811 -0.40852699
0.152922 0.54178298 -0.40960801
0.190166 0.54436302 -0.40600601
0.15511701 0.54566401 -0.40739599
0.16916101 0.54545498 -0.408728
0.173081 0.54509598 -0.40679801
0.187866 0.54831803 -0.40668201
0.204906 0.54701102 -0.40548101
0.13829499 0.55377102 -0.40630901
0.134939 0.55803698 -0.40624499
0.160671 0.55806601 -0.40766901
0.138035 0.56240398 -0.40547699
0.192958 0.56335098 -0.405487
0.162219 0.56626898 -0.40827999
0.165301 0.56997502 -0.40964901
0.17238 0.56929803 -0.405644
0.19077501 0.56894398 -0.40523499
0.13877 0.57425201 -0.405523
0.148564 0.57290697 -0.40608099
0.15104599 0.57213002 -0.40611401
0.16917901 0.572366 -0.40678599
0.18731201 0.57260197 -0.40745899
0.19962899 0.573327 -0.40544301
0.16320001 0.57825702 -0.406728
0.169754 0.575903 -0.406266
0.18649501 0.57896698 -0.40648201
0.167831 0.58020198 -0.40838599
0.18061799 0.58226049 -0.40814549
0.16037899 0.58948702 -0.40875
0.168138 0.58823198 -0.40926999
0.176809 0.58886099 -0.40957499
0.213368 0.58519697 -0.409931
0.105223 0.59476501 -0.40904599
0.112355 0.59179902 -0.407388
0.148811 0.594558 -0.40542799
0.1723575 0.59395248 -0.40558049
0.190375 0.59319198 -0.40604201
0.114359 0.601762 -0.40513
0.15153401 0.60316098 -0.408966
0.170333 0.60191703 -0.40704799
0.189132 0.60067397 -0.40512899
0.85244399 0.38986099 -0.401371
0.83782798 0.39635599 -0.40399599
0.85593498 0.39582399 -0.400464
0.87089401 0.40178201 -0.404973
0.86815453 0.4066585 -0.40361649
0.76594597 0.410431 -0.40352899
0.85936302 0.412334 -0.40456101
0.80224299 0.418111 -0.40076599
0.85110801 0.42117101 -0.402749
0.182762 0.49980599 -0.40419999
0.16489901 0.515953 -0.400859
0.184209 0.51986098 -0.40347001
0.141012 0.536861 -0.40443099
0.14909799 0.53930902 -0.403586
0.15769599 0.53977901 -0.40413499
0.166226 0.53611398 -0.40010601
0.174679 0.541915 -0.4024325
0.184495 0.54089397 -0.40042901
0.191744 0.54578698 -0.40360799
0.115954 0.553877 -0.40361601
0.184773 0.55401498 -0.40477499
0.14173 0.55645901 -0.40440601
0.154126 0.56042999 -0.402257
0.17744599 0.56004202 -0.400453
0.206964 0.56499302 -0.40455601
0.172115 0.56755298 -0.40438801
0.205596 0.56855398 -0.40493301
0.21029 0.569058 -0.403346
0.116956 0.57429099 -0.40288201
0.120954 0.579144 -0.40355799
0.142472 0.576325 -0.40440601
0.185275 0.57553297 -0.40411201
0.11972 0.58956403 -0.400415
0.17444199 0.58528298 -0.404039
0.193737 0.589903 -0.403817
0.126405 0.59311002 -0.40467799
0.13559499 0.59247899 -0.40401
0.153855 0.59271699 -0.404688
0.175211 0.59026003 -0.40422899
0.122044 0.599702 -0.403032
0.223309 0.600245 -0.401485
0.84515601 0.38793999 -0.39971
0.869394 0.38523701 -0.395991
0.83859003 0.39721099 -0.39804399
0.84394002 0.39768001 -0.39937899
0.8064115 0.40232 -0.39594752
0.83899498 0.40276 -0.395742
0.8779 0.40323001 -0.39546499
0.81320298 0.40916499 -0.39793
0.84784102 0.420048 -0.39507899
0.145843 0.51209801 -0.398285
0.184423 0.52303499 -0.399131
0.152126 0.528427 -0.39856201
0.16734099 0.53977501 -0.397212
0.185929 0.543226 -0.39857599
0.152694 0.54860502 -0.39773601
0.129483 0.55429 -0.39797601
0.148243 0.55236799 -0.396743
0.15026 0.55651498 -0.39529201
0.168736 0.56007499 -0.396644
0.18783 0.5618915 -0.3974385
0.164509 0.56865698 -0.39822999
0.179157 0.569677 -0.395549
0.206432 0.56734997 -0.399416
0.201332 0.571253 -0.39620501
0.129658 0.57562298 -0.39743
0.19626801 0.57822597 -0.39876899
0.18834201 0.58109701 -0.39934301
0.18457501 0.58999902 -0.39677301
0.209582 0.585783 -0.39949399
0.098972999 0.590545 -0.399519
0.164868 0.59027898 -0.39752099
0.20197301 0.593086 -0.39552599
0.12979899 0.59717 -0.39677399
0.15934899 0.59647602 -0.395812
0.20872 0.59551698 -0.39590701
0.85796398 0.38789901 -0.392858
0.81444001 0.391996 -0.39395201
0.82588798 0.40193701 -0.39381799
0.84313101 0.40180501 -0.39083201
0.85739702 0.40063301 -0.39181
0.88244098 0.40177 -0.393078
0.81452101 0.40501601 -0.39353701
0.83102399 0.40871701 -0.39437601
0.83917302 0.40753001 -0.39317599
0.84847701 0.40803999 -0.39008299
0.86532003 0.40825999 -0.390708
0.882164 0.40847901 -0.39133301
0.82038403 0.411569 -0.39480001
0.86526698 0.41435 -0.390953
0.81832099 0.41553199 -0.39425299
0.166429 0.52329499 -0.390046
0.186014 0.528229 -0.394236
0.17952999 0.53044498 -0.39060399
0.152244 0.55071902 -0.39331001
0.169119 0.55376399 -0.392968
0.16474301 0.55597901 -0.39478001
0.16824 0.55516398 -0.39328
0.186222 0.55686599 -0.392645
0.130261 0.56862199 -0.39337999
0.133178 0.573255 -0.39337301
0.153052 0.57054901 -0.39324
0.16512799 0.57738799 -0.39410499
0.18728299 0.57702303 -0.39261401
0.2016535 0.57750851 -0.39111
0.112278 0.584876 -0.390017
0.13421699 0.58436197 -0.391783
0.131327 0.58920401 -0.392492
0.136985 0.58733398 -0.39351299
0.164335 0.58801299 -0.391913
0.181811 0.58994699 -0.394526
0.116214 0.59109801 -0.39317599
0.134349 0.59377497 -0.39278001
0.17788599 0.59433401 -0.39185101
0.88702267 0.37718901 -0.38628367
0.86009902 0.382341 -0.3872
0.86196297 0.388134 -0.38632101
0.85358602 0.39082101 -0.38733399
0.87580001 0.39850599 -0.387878
0.775536 0.40346199 -0.38979
0.86114502 0.40061399 -0.388993
0.89139301 0.400841 -0.38549
0.812626 0.40820199 -0.38690001
0.83003801 0.40786701 -0.38651201
0.86135799 0.418825 -0.388028
0.854334 0.42350301 -0.38938299
0.80208701 0.42728499 -0.38582101
0.81961602 0.426947 -0.38543099
0.85562402 0.42608401 -0.38865301
0.88953 0.426525 -0.389911
0.16709299 0.54343802 -0.389162
0.144711 0.54975998 -0.38973501
0.161548 0.54669899 -0.38724101
0.18050051 0.55109596 -0.38809001
0.129714 0.56552398 -0.385232
0.179772 0.56957901 -0.38701501
0.144991 0.57106298 -0.38913199
0.14928401 0.57049799 -0.38874
0.1815535 0.57373899 -0.3857525
0.201478 0.578417 -0.38707
0.17142799 0.58577102 -0.38982901
0.180925 0.58599901 -0.38961399
0.14523999 0.59257698 -0.38841701
0.86267197 0.37953001 -0.38282201
0.87240201 0.38032299 -0.38248301
0.848849 0.389994 -0.38494101
0.80715501 0.39278901 -0.38153499
0.87758303 0.39177901 -0.38299701
0.864402 0.39632401 -0.38092601
0.898139 0.39591399 -0.383093
0.82526201 0.40393299 -0.380456
0.851547 0.40077499 -0.380117
0.97572398 0.40075701 -0.38221601
0.83331698 0.40914199 -0.38354301
0.80772102 0.41014001 -0.38036701
0.83433402 0.41444501 -0.38416201
0.181492 0.53827101 -0.38058901
0.14817201 0.55864698 -0.38408899
0.143565 0.562953 -0.38387799
0.163633 0.56477302 -0.38207501
0.145402 0.567366 -0.38318801
0.16426 0.56626898 -0.38198099
0.163847 0.570997 -0.38446099
0.18332601 0.57023102 -0.38324901
0.14472 0.58349699 -0.382927
0.14756601 0.58155799 -0.38234699
0.16453201 0.58483702 -0.38195601
0.130329 0.585832 -0.38419899
0.16068 0.58798498 -0.380061
0.901187 0.37382999 -0.37706199
0.86858201 0.384431 -0.37662399
0.87033898 0.38114399 -0.379798
0.89553797 0.38346201 -0.379282
0.87251198 0.38534099 -0.379949
0.89550799 0.38846999 -0.376472
0.83349103 0.39446801 -0.37974301
0.85312402 0.39492199 -0.376757
0.78512597 0.39649299 -0.37605
0.89204901 0.39966801 -0.37911201
0.90809596 0.39749002 -0.3778435
0.78145403 0.40585801 -0.37657401
0.877056 0.41296801 -0.378043
0.86573797 0.417092 -0.376358
0.87034899 0.41775599 -0.37984699
0.162571 0.55348003 -0.375516
0.18226001 0.55864698 -0.379628
0.17621499 0.56142801 -0.376748
0.163398 0.56523198 -0.37976199
0.14444301 0.58056599 -0.375222
0.177635 0.58216399 -0.375819
0.86775398 0.37482101 -0.37302801
0.87956399 0.37502801 -0.37450299
0.85375899 0.38230801 -0.37050399
0.86799097 0.38044399 -0.37217799
0.88394302 0.38776699 -0.372051
0.82510102 0.39398599 -0.37001199
1.001588 0.39228001 -0.370765
0.840213 0.39815 -0.37291601
0.84831297 0.40275201 -0.37283301
0.85601801 0.40603 -0.373972
0.82988298 0.416978 -0.371667
0.84665102 0.416675 -0.37498799
0.15686999 0.557284 -0.374376
0.143649 0.56868899 -0.370442
0.15904699 0.57287902 -0.371499
0.16321 0.57395899 -0.37452
0.140545 0.57821602 -0.371084
0.17518 0.57902497 -0.37072
0.17612 0.58339298 -0.371705
0.177616 0.58567601 -0.373492
0.92191499 0.36650601 -0.369183
0.87992001 0.37267801 -0.368305
0.84482998 0.379531 -0.36904699
0.88357902 0.378041 -0.365913
0.88656503 0.378571 -0.36824101
0.81452203 0.38529599 -0.36764199
0.88495302 0.386112 -0.369697
0.858096 0.39054099 -0.367569
0.863922 0.39401999 -0.367057
0.918446 0.39119801 -0.36768201
0.95170301 0.39163101 -0.36891499
0.83013898 0.39629701 -0.36611199
0.86692798 0.39781499 -0.366034
0.88907301 0.39643401 -0.36644599
0.87394297 0.402722 -0.36744699
0.89275402 0.40711099 -0.36805901
0.90919799 0.40866199 -0.365475
0.86366898 0.41214001 -0.36660799
0.177707 0.568757 -0.36588901
0.158557 0.57529998 -0.366245
0.178452 0.58036798 -0.36963999
0.90053803 0.38283101 -0.363069
0.79471701 0.389525 -0.36231101
0.83379602 0.38531801 -0.36443201
0.853324 0.385335 -0.361173
0.86077899 0.387402 -0.36258501
0.86330903 0.39636201 -0.362122
0.89186698 0.399414 -0.36092201
0.84631401 0.400792 -0.362021
0.152191 0.56786799 -0.36151001
0.15277 0.57232702 -0.360899
0.85866803 0.37462199 -0.35606599
0.87401801 0.37275401 -0.358035
0.89857501 0.37165099 -0.355203
0.90195149 0.37330002 -0.356103
0.92602599 0.37498501 -0.35780299
0.86282802 0.37988099 -0.35969099
0.88059503 0.37870499 -0.35787699
0.89836198 0.37753001 -0.35606399
0.92794597 0.38257 -0.35571301
0.97751403 0.38321599 -0.35755101
0.83104998 0.38639599 -0.35605401
0.85020697 0.38850099 -0.359413
0.87404799 0.38569248 -0.358556
0.88457203 0.38783801 -0.358648
0.86458403 0.39868101 -0.35811701
0.870049 0.399214 -0.358152
0.879161 0.399156 -0.35695601
0.85215902 0.400397 -0.35997701
1.002 0.40099999 -0.35659799
0.84005898 0.40720201 -0.35816899
0.87465298 0.406535 -0.35739899
0.88068801 0.40760401 -0.35822701
0.887438 0.36503199 -0.354128
0.89508802 0.367634 -0.35368001
0.86117297 0.374659 -0.35202399
0.87628901 0.37350601 -0.351289
0.89321804 0.37296349 -0.35295349
0.91209 0.37921199 -0.35253099
0.91713297 0.377895 -0.35408801
0.83501703 0.388661 -0.351769
0.87830502 0.389972 -0.351412
0.90153998 0.38962901 -0.35328999
0.88098103 0.391045 -0.354325
0.773081 0.395284 -0.353632
0.88285398 0.39656901 -0.354213
0.90582901 0.39684701 -0.3545
0.91885799 0.39991799 -0.35351399
0.94113499 0.36854699 -0.34701201
0.87845099 0.37367499 -0.34755
0.89036101 0.370253 -0.345992
0.860071 0.37898001 -0.34608999
0.86843401 0.37988201 -0.34841299
0.89421099 0.37832201 -0.34533
0.80430698 0.38255599 -0.34857199
0.85236102 0.38764101 -0.34698999
0.89575601 0.39422101 -0.34797499
0.92862099 0.358908 -0.34090599
0.90746301 0.360879 -0.34062099
0.864281 0.36539701 -0.34118101
0.90777498 0.366817 -0.34085
0.91467202 0.36502999 -0.344823
0.89596301 0.37268099 -0.34302101
0.836999 0.37880701 -0.34209499
0.88062602 0.3777 -0.34368399
0.89330202 0.383582 -0.340702
0.89503503 0.38427499 -0.34261701
0.91400599 0.382824 -0.34013399
0.879682 0.38823199 -0.34275299
0.92071301 0.38700601 -0.34319299
0.89666098 0.39119101 -0.34452
0.94487798 0.39144999 -0.34224799
0.96139997 0.39166501 -0.342861
0.97792298 0.39188099 -0.343474
0.85005403 0.397493 -0.34476301
0.88441902 0.39682999 -0.34399799
0.89495599 0.35738599 -0.33995
0.89855701 0.36432201 -0.339939
0.905828 0.36448199 -0.336155
0.91090697 0.36128899 -0.335123
0.95624399 0.36210901 -0.33622101
0.88123101 0.365769 -0.33675599
0.93316901 0.368449 -0.33962199
0.88160801 0.37126201 -0.336878
0.89186198 0.38424599 -0.33635801
0.91521603 0.38588101 -0.339127
0.88730299 0.39254701 -0.33568001
0.92084801 0.359736 -0.33021
0.92872602 0.35826001 -0.33311501
0.90283799 0.361817 -0.33405799
0.92284697 0.36274299 -0.33116499
0.90372699 0.36893299 -0.33219099
0.90908802 0.377505 -0.330908
0.84269798 0.38082701 -0.33322701
0.93582201 0.38056701 -0.33240199
0.894059 0.38725501 -0.33077601
0.91224301 0.38537699 -0.334609
0.91983801 0.35412401 -0.327562
0.932594 0.35089299 -0.32649001
0.904625 0.356581 -0.32570201
0.90086401 0.364894 -0.32850099
0.91671598 0.36357501 -0.32946801
0.94875097 0.362636 -0.32971099
0.89274502 0.367511 -0.32818699
0.89837599 0.36679301 -0.32861999
0.94255602 0.36803001 -0.32597801
0.84294897 0.37121701 -0.328136
0.88814402 0.37005499 -0.32950601
0.859734 0.37988499 -0.32865101
0.90162802 0.37894699 -0.32509699
0.92647302 0.376019 -0.326978
0.92132598 0.38246399 -0.32932001
0.95554698 0.38368401 -0.32811999
0.942779 0.35148999 -0.32140601
0.88617301 0.35803199 -0.32222301
0.932495 0.35791299 -0.320072
0.93931901 0.357844 -0.32225001
0.86387199 0.3639065 -0.323966
0.883744 0.36484301 -0.32007
0.91514301 0.36232501 -0.32036299
0.95977902 0.36210099 -0.324137
0.823488 0.36861899 -0.32109299
0.87922502 0.36981699 -0.32006499
0.9505775 0.37377602 -0.32089099
0.877002 0.37893501 -0.32402301
0.92782402 0.37956399 -0.32469901
0.90409702 0.35679901 -0.31719199
0.92997599 0.35934901 -0.31885701
0.90076798 0.372125 -0.318795
0.90732002 0.37207201 -0.319801
0.91810101 0.37404799 -0.31618199
0.92314202 0.37073499 -0.319199
0.90357703 0.377808 -0.31773201
0.93656701 0.34287801 -0.31207401
0.90878999 0.346948 -0.312774
0.91069299 0.34884 -0.311465
0.91843599 0.34799099 -0.314895
0.9278295 0.3468225 -0.31188801
0.932212 0.347368 -0.314502
0.958215 0.34776402 -0.31293201
0.88373297 0.35126299 -0.31331399
0.90615797 0.35241601 -0.31069699
0.905765 0.357108 -0.31398001
0.97567499 0.356397 -0.31467199
0.879807 0.36516801 -0.31244999
0.916152 0.365637 -0.31090799
0.93678802 0.367962 -0.31109899
0.918778 0.37004399 -0.31494701
0.93028802 0.34180099 -0.30790901
0.956833 0.34472001 -0.309697
0.95222902 0.34717 -0.306642
0.90567303 0.35086399 -0.306826
0.93915403 0.35021901 -0.306081
0.89139801 0.35732299 -0.30589899
0.80344498 0.36319199 -0.30861399
0.88525301 0.36212701 -0.305922
0.92753899 0.368918 -0.30511799
0.93457299 0.36914799 -0.30726799
0.88187099 0.37119901 -0.309598
0.97355598 0.339701 -0.301651
0.97033602 0.342632 -0.30034599
0.90907198 0.349011 -0.302562
0.883192 0.35495901 -0.304847
0.94867897 0.353387 -0.30384901
0.90064597 0.36467201 -0.30116901
0.92579597 0.36024499 -0.301761
0.91297698 0.36849099 -0.304867
0.92982602 0.368166 -0.304492
0.958987 0.367937 -0.304878
0.954871 0.37453899 -0.302407
0.94054002 0.33486301 -0.297658
0.93660152 0.33582401 -0.2959975
0.97088599 0.33794999 -0.29798901
0.91676098 0.34109899 -0.29722801
0.944839 0.34296101 -0.29974499
0.91066599 0.34932101 -0.29945999
0.91595298 0.34529901 -0.296664
0.91487402 0.35869601 -0.299685
0.92530298 0.355131 -0.29617801
0.952268 0.35760802 -0.296821
0.87416297 0.360504 -0.29730001
0.88674003 0.36346301 -0.29517299
0.97068298 0.36748299 -0.299606
0.92587698 0.33490601 -0.29498801
0.93785799 0.33410299 -0.293634
0.95574403 0.334108 -0.29184401
0.98855197 0.33331099 -0.290941
0.96118999 0.33809799 -0.290896
0.93555701 0.34014601 -0.29286999
0.94822598 0.34121799 -0.29348299
0.96486002 0.34089699 -0.29311299
0.98149401 0.34057599 -0.292743
0.998128 0.34025601 -0.29237199
0.88797802 0.34571499 -0.29100201
0.89905298 0.349803 -0.29172701
0.92851102 0.34816 -0.29458401
0.93900502 0.35898 -0.291807
0.94328398 0.33169299 -0.28865099
0.98493999 0.33118001 -0.28628001
0.98280299 0.33582601 -0.28718999
0.914047 0.341223 -0.28793201
0.93817002 0.35349 -0.28870201
0.968283 0.351632 -0.28715
0.90900803 0.35817501 -0.28528601
0.93398798 0.329707 -0.28435099
0.96069098 0.32848001 -0.282314
0.95560902 0.331893 -0.28385901
0.92574799 0.338182 -0.28263199
0.954669 0.33891699 -0.28198999
0.87829602 0.34006101 -0.28051201
0.93432802 0.34476 -0.281638
0.93594599 0.346324 -0.28058901
0.96239102 0.352433 -0.281991
0.96530199 0.35042399 -0.284073
0.960904 0.35984701 -0.28045201
0.945427 0.32640499 -0.27936
0.97809899 0.32526699 -0.275978
1.089366 0.329734 -0.27803501
0.94166499 0.332353 -0.27853799
1.006725 0.33132699 -0.279874
1.039781 0.33068901 -0.279138
1.0728379 0.33005199 -0.27840301
0.89812601 0.339771 -0.27668399
0.94859999 0.339228 -0.279746
0.93344498 0.340321 -0.27996701
0.92234099 0.345534 -0.27988699
0.94807798 0.34992301 -0.27930099
0.95054501 0.346735 -0.27564299
0.956478 0.34931999 -0.27602401
0.96471202 0.34960201 -0.27893099
0.9823125 0.34726149 -0.2775
0.99798 0.348961 -0.27818999
0.974877 0.35193199 -0.276932
0.93885601 0.36774099 -0.27753401
0.95559698 0.36741799 -0.27716199
0.96400702 0.322577 -0.27494001
0.98164099 0.320539 -0.27117199
0.97096199 0.32616499 -0.27409399
0.91902202 0.33343399 -0.27330199
0.97131401 0.334481 -0.27379301
0.939749 0.34232101 -0.27355
0.97935599 0.34365401 -0.272365
0.97633803 0.34879801 -0.27435401
0.91880202 0.35105699 -0.27125299
0.99062002 0.317633 -0.26760399
0.95679402 0.321762 -0.26574501
0.96239698 0.32212499 -0.26633599
0.966465 0.32342899 -0.26873201
0.99550599 0.322054 -0.26964101
1.015227 0.32252499 -0.267555
0.894315 0.33471701 -0.267138
0.93837899 0.33248299 -0.26535001
0.94328499 0.334584 -0.267369
0.95846498 0.332059 -0.26561299
0.938568 0.33916 -0.26884401
0.957156 0.33910799 -0.26721299
0.99827498 0.33885199 -0.26572901
1.006578 0.33997601 -0.265782
1.039634 0.33933899 -0.265046
0.985708 0.31539199 -0.26233199
1.013047 0.31764001 -0.26286301
0.94777298 0.324561 -0.26420599
0.98171097 0.32034799 -0.26226601
0.90559298 0.33217701 -0.26260301
0.94434702 0.33470801 -0.26376399
0.95644099 0.33115801 -0.26014999
0.974563 0.335895 -0.26087701
0.99340898 0.33688399 -0.260656
1.056163 0.339021 -0.26467901
1.072691 0.33870199 -0.26431099
1.089219 0.33838299 -0.26394299
0.988805 0.341993 -0.26119801
0.997832 0.35766599 -0.26400799
1.014467 0.35734501 -0.26363799
1.005504 0.31129101 -0.256973
0.97234398 0.31618199 -0.25648701
0.982696 0.318602 -0.25994799
0.92399597 0.32564601 -0.25867301
0.95532501 0.33487999 -0.25574899
0.961981 0.33267 -0.259996
0.97961497 0.33063099 -0.256228
1.013271 0.33246201 -0.25501901
0.96569598 0.33711699 -0.25938901
1.002309 0.30921799 -0.25015801
0.97420198 0.31116799 -0.25173399
1.0271 0.31086901 -0.25115401
0.94220501 0.324146 -0.253122
0.97711498 0.32027099 -0.25233501
0.90191799 0.32724801 -0.25306201
0.96178901 0.33456901 -0.25396901
1.015081 0.33112001 -0.25355199
0.956846 0.349581 -0.252794
0.97337401 0.34926301 -0.252426
1.022959 0.34830701 -0.251322
1.039487 0.34798899 -0.25095499
0.98789299 0.31060299 -0.247228
0.99408603 0.313593 -0.24920601
0.95388103 0.31676799 -0.24987499
0.97313499 0.315689 -0.245232
1.007463 0.33011401 -0.24894699
0.94231999 0.34480101 -0.24881899
0.98839051 0.30594897 -0.24236149
1.019592 0.30602801 -0.243866
0.94378901 0.31563801 -0.240963
0.95513302 0.31683001 -0.24053501
0.99363798 0.31586701 -0.24419799
0.91627699 0.320039 -0.24280199
0.93325198 0.32418001 -0.244441
0.98151702 0.32295901 -0.241456
0.96308601 0.32725599 -0.241381
0.98779601 0.304198 -0.23819201
1.0368741 0.302838 -0.23757499
1.041154 0.30409899 -0.239445
1.003443 0.305024 -0.23796999
1.006461 0.30683801 -0.236147
0.96074098 0.31451699 -0.239233
0.97769302 0.31339499 -0.23750301
0.99464601 0.31227401 -0.235773
1.010162 0.31146401 -0.23606101
0.90952098 0.31977901 -0.238987
0.948246 0.31680501 -0.23611701
0.98769599 0.319244 -0.239741
0.99879903 0.319769 -0.235165
1.005209 0.31722 -0.235999
0.96897399 0.32203999 -0.237137
1.021516 0.32334399 -0.237239
0.98766899 0.32646999 -0.23646501
1.0477819 0.339082 -0.238818
1.064206 0.33876601 -0.238452
1.004686 0.29979399 -0.232346
0.97928399 0.30784401 -0.230804
0.94076997 0.31653401 -0.23026399
0.96704 0.32004899 -0.232256
0.94559997 0.32572401 -0.232557
1.003909 0.29940599 -0.229471
1.055207 0.29732901 -0.22773699
0.96492797 0.30971199 -0.226502
0.998833 0.306692 -0.225995
0.93394601 0.31007001 -0.229413
0.97084701 0.31963199 -0.22701301
0.98421502 0.31635401 -0.227442
1.016081 0.31657901 -0.228874
1.03557 0.31657401 -0.22553
0.98916203 0.32663801 -0.229278
1.072312 0.32999101 -0.226495
1.020022 0.29461399 -0.220751
1.009182 0.29600099 -0.222003
1.002987 0.30245599 -0.22201
1.0193319 0.30071253 -0.22169
0.95270002 0.30871648 -0.22258399
1.0186369 0.30552 -0.221113
1.0333641 0.313389 -0.222582
0.998559 0.31586799 -0.223233
1.000044 0.31971401 -0.223406
0.96200502 0.32135099 -0.224479
1.005685 0.322234 -0.221141
1.026204 0.321578 -0.22172999
0.98568302 0.329267 -0.22489899
1.003196 0.327243 -0.221157
1.043364 0.29025501 -0.218494
1.069261 0.29055899 -0.216028
0.99665999 0.29503 -0.21798
1.015663 0.29754201 -0.215056
1.030378 0.30392101 -0.215951
0.954162 0.30778199 -0.21663401
1.00225 0.30765501 -0.21978299
1.0129859 0.305931 -0.219667
0.97158402 0.31210199 -0.21998
0.999457 0.31066701 -0.217748
1.011564 0.311432 -0.219909
1.0506459 0.31019899 -0.216291
1.036135 0.289821 -0.21203101
1.0312099 0.29332799 -0.21002901
1.035223 0.29609901 -0.21092001
0.97472203 0.30259499 -0.21247
0.97186649 0.30566701 -0.210721
0.98983097 0.30602601 -0.210501
1.002813 0.30925301 -0.212879
1.049623 0.30980399 -0.21382099
0.95159602 0.31482899 -0.21283001
0.96843803 0.31371501 -0.21111099
0.99926603 0.31046399 -0.214816
1.014109 0.310289 -0.213974
1.022209 0.31783 -0.21300399
1.029986 0.32904801 -0.211615
1.072167 0.338532 -0.212579
1.013234 0.287826 -0.20729899
0.99343997 0.29162899 -0.208865
1.005839 0.293378 -0.209764
1.0279599 0.29166499 -0.206727
1.032068 0.29317001 -0.20697799
1.024871 0.29756799 -0.206488
0.93546098 0.301801 -0.206277
0.95767105 0.300877 -0.207912
1.014699 0.30498001 -0.20805299
0.98527998 0.312601 -0.209392
1.002121 0.31148601 -0.207673
1.018963 0.31037199 -0.205955
1.038671 0.31477201 -0.208574
1.050411 0.28273401 -0.203262
1.0833139 0.28378901 -0.204319
1.052248 0.28502899 -0.203311
1.014544 0.29134801 -0.204587
1.051363 0.29343101 -0.2042
1.029658 0.30470899 -0.204716
1.063677 0.30303401 -0.202113
1.028379 0.31387499 -0.201212
1.038733 0.31342599 -0.20486701
1.010987 0.31588501 -0.204928
1.0435849 0.28657299 -0.19697
1.048473 0.288798 -0.198899
1.070068 0.28819099 -0.195098
1.00415 0.29236799 -0.197273
1.037976 0.292844 -0.199927
1.055249 0.290847 -0.196236
0.99475199 0.29732499 -0.197127
1.029941 0.29929301 -0.198359
1.031801 0.29506299 -0.198678
1.045208 0.29912999 -0.195457
1.057039 0.297564 -0.19736101
1.031492 0.30088001 -0.197375
1.0177881 0.31043401 -0.196474
1.097368 0.27701899 -0.19261099
1.0223579 0.28367099 -0.19012
1.064878 0.284426 -0.19082101
1.096962 0.289841 -0.19321001
0.962237 0.292786 -0.194214
0.95263702 0.29716399 -0.192526
1.004233 0.29624301 -0.19356801
1.00779 0.29621801 -0.194949
1.0777299 0.29626301 -0.190404
1.01183 0.31311399 -0.194943
1.072488 0.27732199 -0.185133
1.053728 0.28533801 -0.189605
0.963323 0.29359701 -0.187731
0.981273 0.291704 -0.18658
1.0451829 0.293607 -0.188665
0.97320902 0.29694599 -0.188223
1.047605 0.296087 -0.188655
1.043941 0.27271 -0.18015601
1.033152 0.27877399 -0.184616
1.062618 0.27992499 -0.18044201
1.017406 0.282998 -0.18241701
1.081282 0.28005299 -0.182742
0.99982798 0.289379 -0.1822
1.017655 0.28905001 -0.18081599
0.99983001 0.29013801 -0.180875
1.0185159 0.292135 -0.18089201
1.044028 0.29949 -0.18408699
1.026605 0.30681801 -0.18439101
1.060461 0.271617 -0.17847
1.033484 0.27986801 -0.176323
1.056093 0.277244 -0.175009
1.0186321 0.28854701 -0.175087
1.041373 0.289772 -0.177204
1.0618685 0.2865015 -0.17881799
1.091784 0.28949299 -0.17869499
1.07283 0.266233 -0.173489
1.040827 0.270969 -0.17014299
1.082496 0.27004999 -0.17079499
1.096931 0.27595901 -0.17310999
1.048772 0.28440601 -0.17402101
1.079831 0.28650299 -0.171215
1.026333 0.29370999 -0.173234
1.097302 0.26163301 -0.169358
1.048151 0.273619 -0.165848
1.095001 0.27458 -0.168786
1.023597 0.27509999 -0.167891
1.0761271 0.27617601 -0.16701999
1.004904 0.281432 -0.167274
1.026572 0.28266099 -0.16778
1.043092 0.28156799 -0.16609401
1.052223 0.28196999 -0.167596
1.0606461 0.28974399 -0.165902
1.0434901 0.29172701 -0.169568
1.076838 0.290746 -0.16793001
1.103009 0.29605401 -0.167024
1.117395 0.259029 -0.160367
1.084566 0.26120099 -0.163718
1.088827 0.261475 -0.164832
1.100981 0.260115 -0.16204201
1.037987 0.26831701 -0.161185
1.0493211 0.265349 -0.163672
1.058458 0.269151 -0.160413
1.0698791 0.269142 -0.16485
1.086199 0.26642701 -0.16223
1.0695339 0.272809 -0.160274
1.0642101 0.27886599 -0.16483
1.076131 0.27938199 -0.16272201
1.023665 0.28054899 -0.160174
1.051309 0.282552 -0.16296899
1.059612 0.28047499 -0.164408
1.095944 0.28171 -0.162494
1.0492131 0.285725 -0.16356499
1.077803 0.287761 -0.16223601
1.111251 0.254913 -0.157737
1.1048239 0.256717 -0.156174
1.13381 0.257943 -0.158692
1.048501 0.26316401 -0.155669
1.092504 0.262777 -0.15645701
1.090902 0.26988 -0.156468
1.1074671 0.267775 -0.15563001
1.063022 0.27332601 -0.157483
1.0796469 0.27332699 -0.15563799
1.080399 0.27044499 -0.155285
1.091759 0.27401501 -0.15554599
1.0619169 0.28593901 -0.15810999
1.094101 0.28607601 -0.15921101
1.115371 0.25148201 -0.151885
1.070213 0.262321 -0.15082701
1.102486 0.262086 -0.154209
1.029788 0.26720199 -0.153365
1.086454 0.26968601 -0.15411501
1.00998 0.27348599 -0.152347
1.0427459 0.27887699 -0.15419801
1.015484 0.28269699 -0.15063199
1.058763 0.28933299 -0.150345
1.115569 0.28919801 -0.15377
1.042243 0.29042599 -0.152031
1.1252 0.248193 -0.14611501
1.141005 0.24877299 -0.145842
1.120821 0.251959 -0.147517
1.0939651 0.256542 -0.145844
1.045802 0.26064101 -0.146718
1.060823 0.261058 -0.145818
1.049803 0.26576 -0.14798801
1.078154 0.26767999 -0.14785901
1.095085 0.26778799 -0.146446
1.101755 0.26774001 -0.148013
1.0837229 0.27000201 -0.149745
1.075282 0.28823999 -0.14866
1.102512 0.255505 -0.14211901
1.070079 0.26429099 -0.142527
1.119934 0.26097 -0.142474
1.100214 0.26769599 -0.141624
1.105708 0.267295 -0.143925
1.057831 0.28411999 -0.14299101
1.0747989 0.28409401 -0.14100701
1.166273 0.242493 -0.139869
1.077942 0.25446099 -0.136252
1.1075439 0.25967601 -0.135286
1.127183 0.255983 -0.13815901
1.093286 0.262034 -0.138234
1.110522 0.26224899 -0.137254
1.015056 0.26554 -0.13742
1.047814 0.27082399 -0.139183
1.054473 0.27425399 -0.13747101
1.098074 0.27270201 -0.139503
1.083017 0.28001601 -0.139438
1.148128 0.239733 -0.133176
1.164337 0.23866101 -0.131522
1.139149 0.241473 -0.13449299
1.107249 0.24870899 -0.13407899
1.053617 0.25296399 -0.13225
1.063188 0.25296399 -0.13122199
1.092152 0.25487 -0.134422
1.067463 0.257649 -0.133863
1.123855 0.25859699 -0.13362201
1.140166 0.25751799 -0.13195699
1.009189 0.26273701 -0.131376
1.1179345 0.26175648 -0.132635
1.09202 0.26622999 -0.13149901
1.114361 0.268361 -0.131483
1.072327 0.27278799 -0.130714
1.072963 0.278474 -0.133366
1.0902359 0.27855399 -0.131815
1.100482 0.27533901 -0.13162801
1.115708 0.27663201 -0.132421
1.180546 0.237589 -0.129868
1.1967551 0.236517 -0.128214
1.212963 0.23544399 -0.126559
1.078899 0.247339 -0.127434
1.0846519 0.247177 -0.12821101
1.0753469 0.25244099 -0.12744799
1.082458 0.254648 -0.12606201
1.109251 0.254484 -0.12988199
1.1324 0.25416499 -0.129318
1.108418 0.25638801 -0.128609
1.12596 0.25670901 -0.12806299
1.159761 0.25556099 -0.126938
1.044605 0.270289 -0.129833
1.116855 0.27377 -0.12712
1.1530989 0.234753 -0.122871
1.08567 0.246601 -0.121677
1.106819 0.24862 -0.123947
1.137265 0.248657 -0.123716
1.07963 0.25000399 -0.123948
1.126052 0.25138301 -0.123766
1.133607 0.25385499 -0.120681
1.135228 0.250992 -0.12481
1.020131 0.25759301 -0.122494
1.132208 0.25817999 -0.124309
1.052882 0.26277199 -0.124168
1.115258 0.269043 -0.121075
1.0880949 0.27282801 -0.123742
1.105674 0.27301499 -0.122623
1.06227 0.249856 -0.118738
1.163504 0.247352 -0.117724
1.179713 0.24628 -0.11607
1.097567 0.25158101 -0.118123
1.1235501 0.25074199 -0.118985
1.141397 0.25117001 -0.118871
1.148205 0.25342199 -0.115652
1.039435 0.255631 -0.115947
1.099046 0.25573 -0.116505
1.123017 0.26734301 -0.119737
1.139328 0.26626399 -0.118072
1.149171 0.27091801 -0.115911
1.083216 0.24471 -0.11288
1.21213 0.24413501 -0.112761
1.17232 0.248705 -0.113684
1.1959209 0.245208 -0.114416
1.1190391 0.25494 -0.111514
1.130033 0.26274699 -0.110522
1.103228 0.26718199 -0.114117
1.121112 0.26747599 -0.113432
1.093399 0.238741 -0.107102
1.107733 0.236063 -0.106172
1.131779 0.23953 -0.106032
1.08201 0.24185801 -0.109257
1.138249 0.240528 -0.108625
1.147347 0.241331 -0.109273
1.103343 0.24671 -0.10738
1.138682 0.245097 -0.10936
1.156835 0.24563099 -0.109679
1.05795 0.25472 -0.109153
1.203952 0.22192501 -0.100106
1.098693 0.23881 -0.101797
1.136153 0.23612 -0.102996
1.068503 0.24190401 -0.104112
1.098603 0.243632 -0.103418
1.105915 0.245313 -0.101634
1.072988 0.25342801 -0.101488
1.178879 0.254971 -0.102272
1.195088 0.25389901 -0.100618
1.162671 0.25604299 -0.103926
1.11836 0.26153699 -0.104492
1.138402 0.260331 -0.103326
1.091086 0.23698001 -0.098311
1.133289 0.23876201 -0.098141998
1.148465 0.23645 -0.099958003
1.161505 0.24041501 -0.097438
1.111704 0.25279599 -0.097631
1.211297 0.25282699 -0.098963998
1.1448081 0.25645101 -0.099969998
1.151987 0.25639701 -0.095048003
1.111378 0.2276185 -0.090560004
1.15082 0.229871 -0.092520997
1.101128 0.23088101 -0.092527002
1.157428 0.234006 -0.094829999
1.115604 0.235724 -0.094242997
1.123621 0.241684 -0.091796003
1.063018 0.246667 -0.094137996
1.12839 0.249717 -0.091557004
1.137421 0.249166 -0.094912998
1.1508681 0.253526 -0.090170003
1.133492 0.255891 -0.094867997
1.123333 0.22979 -0.087185003
1.140659 0.230886 -0.088489003
1.1595351 0.23136701 -0.088973001
1.169799 0.23375 -0.089849003
1.175454 0.233695 -0.085816003
1.19744 0.234993 -0.087174997
1.09964 0.23568299 -0.088712998
1.1126961 0.235034 -0.086960003
1.084065 0.243531 -0.087369002
1.159584 0.250155 -0.089417003
1.153914 0.224713 -0.082420997
1.1654871 0.223621 -0.082046002
1.098955 0.229249 -0.083742
1.16751 0.22668 -0.080387004
1.1840791 0.228159 -0.080486
1.095183 0.23226599 -0.083625004
1.1292911 0.233116 -0.083414003
1.140069 0.23085199 -0.083662003
1.139678 0.237405 -0.083889
1.1032245 0.2421155 -0.0807705
1.118016 0.22747 -0.079357997
1.155761 0.225721 -0.077030495
1.174862 0.225867 -0.079847001
1.155735 0.233125 -0.075981997
1.068086 0.23861501 -0.079122998
1.163756 0.244599 -0.075617999
1.182862 0.24531899 -0.076664001
1.1351711 0.224289 -0.071604997
1.190189 0.220368 -0.070721999
1.136958 0.228834 -0.071673997
1.133978 0.23788901 -0.074078001
1.1107889 0.244532 -0.072897002
1.122259 0.24083 -0.074446999
1.135506 0.241602 -0.074101001
1.154722 0.242056 -0.074446999
1.1593421 0.21317799 -0.065177999
1.1365989 0.21712101 -0.067648001
1.177591 0.219355 -0.065944001
1.101459 0.224259 -0.068899997
1.106825 0.22151799 -0.069173001
1.13588 0.22298799 -0.068961002
1.152367 0.221083 -0.065438002
1.171608 0.221472 -0.066592999
1.109375 0.233238 -0.065066002
1.178888 0.23895299 -0.065994002
1.166208 0.209071 -0.060720999
1.174829 0.218751 -0.063533001
1.203024 0.21958201 -0.061409999
1.194732 0.220139 -0.063537002
1.167119 0.23177201 -0.062013999
1.1758 0.210141 -0.059186999
1.18573 0.21407001 -0.059822999
1.137599 0.21597999 -0.056621999
1.187378 0.216782 -0.058058999
1.160068 0.220146 -0.056690998
1.139541 0.226264 -0.056892
1.146528 0.226859 -0.057039998
1.185375 0.231057 -0.056194998
1.180768 0.202867 -0.050322
1.141853 0.208896 -0.052198
1.192258 0.207103 -0.053196002
1.1393189 0.21058001 -0.053461999
1.158772 0.21110401 -0.051201999
1.188676 0.21208 -0.051996998
1.207199 0.21333399 -0.050381001
1.1751519 0.20921101 -0.047702
1.2131799 0.212202 -0.046859998
1.176013 0.21589699 -0.048838999
1.161088 0.22065499 -0.046641
1.140027 0.207672 -0.041638002
1.162668 0.20651101 -0.044909999
1.191957 0.211647 -0.040987
1.172457 0.22018801 -0.044909999
1.196353 0.196209 -0.038089499
1.169421 0.20479199 -0.037453
1.190876 0.20349599 -0.038332
1.2196651 0.20652901 -0.037225001
1.175648 0.21445 -0.036242001
1.188915 0.217151 -0.038919002
1.213724 0.19273899 -0.030305
1.18138 0.19938099 -0.033682998
1.1878999 0.19737101 -0.030083001
1.192446 0.203504 -0.031647999
1.2052619 0.201662 -0.030055
1.207902 0.207397 -0.033135999
1.2098891 0.190458 -0.029524
1.167959 0.198228 -0.029351
1.206533 0.19883899 -0.029858001
1.1560481 0.20448101 -0.026883001
1.215845 0.202217 -0.025784001
1.1974241 0.189088 -0.021814
1.23007 0.189722 -0.024355
1.183134 0.193212 -0.022786001
1.207836 0.19737799 -0.022614
1.232131 0.199724 -0.024069
1.224449 0.18425401 -0.019125
1.203084 0.18515401 -0.015249
1.1701699 0.191816 -0.015701
1.201645 0.190749 -0.018631
1.230215 0.19206899 -0.017387999
1.176319 0.20008899 -0.015423
1.1971951 0.20527899 -0.015709
1.2511621 0.183111 -0.011182
1.209915 0.185801 -0.010506
1.210629 0.193261 -0.014274
1.244598 0.192919 -0.010913
1.141461 0.199994 -0.013617
1.182886 0.197465 -0.01136
1.22675 0.19970199 -0.010174
1.234892 0.178562 -0.0077140001
1.187384 0.18463901 -0.0073660002
1.19093 0.189447 -0.0084800003
1.2440619 0.185399 -0.0058519999
1.190775 0.193929 -0.0050989999
1.199122 0.19446801 -0.0054500001
1.217918 0.190052 -0.0081709996
1.227651 0.190449 -0.0064559998
1.185684 0.19894201 -0.0061519998
1.169513 0.200811 -0.0096079996
1.251129 0.175565 -0.001804
1.225463 0.18117601 -0.0020910001
1.253507 0.18486799 -0.004437
1.200004 0.186343 -0.003421
1.2120399 0.18706501 -0.0011849999
1.2730989 0.186656 -0.0044630002
1.150478 0.192102 -0.0038709999
1.1561691 0.194506 -0.0042619999
1.2018549 0.197073 -0.002697
1.241776 0.174501 0.004152
1.211054 0.17693301 0.001853
1.225708 0.176358 0.000718
1.215995 0.18485899 0.001508
1.192786 0.189527 0.003419
1.243484 0.18622901 0.001341
1.257064 0.186114 0.0022430001
1.198732 0.191551 0.0042039999
1.218027 0.195204 0.00075900002
1.257844 0.172644 0.0075849998
1.241001 0.17724 0.005479
1.237854 0.18227001 0.0093120001
1.231595 0.188475 0.0063709999
1.250368 0.191466 0.007669
1.25656 0.171928 0.014738
1.207791 0.18414301 0.012353
1.223861 0.185555 0.014336
1.247831 0.185478 0.012282
1.247177 0.17377099 0.019809
1.271755 0.172058 0.017221
1.212604 0.17550901 0.015601
1.269531 0.179309 0.015399
1.275152 0.177789 0.016935
1.219686 0.18161 0.015549
1.2634079 0.163211 0.021015
1.279374 0.161366 0.024427
1.240299 0.16888 0.020354001
1.272108 0.167303 0.023153
1.2002929 0.17804401 0.023801999
1.238731 0.17617799 0.022004001
1.2564299 0.18242851 0.021722
1.255028 0.19233 0.023435
1.255224 0.164777 0.029782001
1.285602 0.165387 0.028757
1.2524951 0.17441601 0.028572001
1.2341419 0.17545 0.025874
1.288133 0.17812601 0.028069001
1.238858 0.16102099 0.033948001
1.2876559 0.162679 0.031567
1.226728 0.16805699 0.033070002
1.215 0.172556 0.033156998
1.261573 0.17235 0.034547001
1.27178 0.177452 0.03173
1.284791 0.152079 0.037647001
1.303185 0.15313999 0.035890002
1.277685 0.156179 0.037482999
1.303205 0.15805399 0.039981999
1.278627 0.165389 0.035296001
1.316524 0.14841101 0.044427998
1.254517 0.156362 0.044755001
1.255994 0.157139 0.043450002
1.299448 0.15871701 0.040293001
1.232621 0.160964 0.044278
1.224979 0.16537 0.040488001
1.293985 0.16717851 0.0415405
1.337368 0.171846 0.044929001
1.232095 0.159655 0.048852
1.257432 0.157297 0.048397999
1.234345 0.16144501 0.046131
1.239879 0.160024 0.049359001
1.2630531 0.163131 0.046521999
1.255095 0.16974699 0.047711998
1.274367 0.17563801 0.049493998
1.311253 0.144935 0.051105
1.28584 0.148168 0.052581001
1.28196 0.15309601 0.053484999
1.326733 0.15367 0.050062999
1.245793 0.155716 0.054653
1.27299 0.162258 0.050861001
1.298725 0.168725 0.054124001
1.321701 0.13928001 0.057418
1.25381 0.147946 0.059726998
1.257094 0.148702 0.059057001
1.305864 0.145374 0.058736
1.277508 0.15697099 0.056846
1.282814 0.157223 0.057023
1.289212 0.157638 0.056246001
1.270535 0.16515499 0.056067999
1.36111 0.173103 0.058975998
1.32811 0.139423 0.063265003
1.353238 0.135635 0.064157002
1.29786 0.144399 0.061530001
1.284858 0.147853 0.064222999
1.268326 0.15342399 0.064044997
1.288352 0.15195 0.064043
1.319193 0.16727 0.061353002
1.319321 0.13673 0.066320002
1.28389 0.14136 0.065606996
1.321304 0.140781 0.067092001
1.241984 0.14689 0.068190999
1.335009 0.14554 0.065384001
1.2931964 0.151988 0.068354502
1.297819 0.151839 0.065957002
1.304121 0.15012699 0.067411996
1.29255 0.139109 0.074166998
1.311605 0.137777 0.072981998
1.275396 0.144131 0.073462002
1.293539 0.14690299 0.072034001
1.273832 0.15060601 0.070575997
1.301415 0.15597001 0.072779998
1.338342 0.131988 0.077923
1.3008161 0.136875 0.079014003
1.336744 0.136189 0.075447999
1.306419 0.14465199 0.077494003
1.351426 0.14466 0.077519998
1.276574 0.14811701 0.077267997
1.28854 0.145119 0.079930998
1.265594 0.15525199 0.077743001
1.32535 0.131156 0.084432997
1.3521841 0.131597 0.083803996
1.365311 0.131543 0.083628997
1.275563 0.136209 0.084517002
1.29948 0.138638 0.084847003
1.324962 0.13919599 0.083575003
1.343285 0.13741 0.080705002
1.309291 0.14100701 0.080227003
1.316855 0.15137801 0.081136003
1.360477 0.161072 0.081491999
1.316326 0.132742 0.086652003
1.287261 0.136158 0.088674001
1.297812 0.13631199 0.087613001
1.303247 0.139632 0.089285001
1.320875 0.138493 0.087819003
1.3320349 0.14181601 0.088990003
1.331087 0.145438 0.089809
1.36326 0.118701 0.094655
1.283425 0.130797 0.094567999
1.3140011 0.1333425 0.0935435
1.288489 0.13877299 0.092931002
1.2966141 0.14698499 0.093019001
1.337276 0.122427 0.096317001
1.3756191 0.124053 0.098397002
1.3045371 0.126174 0.098801002
1.36044 0.118394 0.103686
1.319404 0.120866 0.104208
1.320107 0.122116 0.103797
1.334875 0.122648 0.104568
1.291633 0.12734 0.104535
1.329281 0.12794501 0.10259
1.341318 0.13800301 0.104466
1.3757271 0.111896 0.107811
1.3182111 0.122262 0.108824
1.320456 0.124752 0.107632
1.3326631 0.128657 0.107995
1.349786 0.126173 0.108467
1.275907 0.134974 0.10516
1.306694 0.130992 0.109316
1.334789 0.134304 0.107733
1.3348089 0.116761 0.111794
1.385927 0.116563 0.113164
1.3131649 0.123611 0.113536
1.33345 0.120063 0.114421
1.3441809 0.122598 0.111462
1.3494509 0.12073 0.114656
1.299826 0.135013 0.110532
1.32883 0.114874 0.11804
1.350214 0.112655 0.11938
1.3685679 0.110128 0.119013
1.347371 0.123169 0.11735
1.31523 0.130907 0.118118
1.3121819 0.119325 0.120555
1.349158 0.117164 0.120139
1.359081 0.117252 0.120334
1.368963 0.104445 0.12966301
1.3656189 0.108549 0.126966
1.396235 0.109073 0.127931
1.3175679 0.114729 0.129511
1.342324 0.110071 0.128749
1.3482964 0.112324 0.1288995
1.368111 0.113021 0.12666699
1.373981 0.111905 0.129206
1.362079 0.117682 0.12670401
1.33715 0.121933 0.125798
1.330635 0.126802 0.12570401
1.381024 0.104444 0.134552
1.373993 0.10836 0.134803
1.3927439 0.101143 0.13873599
1.353029 0.106911 0.13519301
1.356004 0.105207 0.139598
1.363511 0.106406 0.138382
1.388881 0.106559 0.138078
1.3466949 0.112644 0.13590001
1.3454159 0.103521 0.144678
1.376387 0.104892 0.14198799
1.3964289 0.100338 0.142138
1.406543 0.101583 0.142699
1.339541 0.109769 0.143571
1.371117 0.105375 0.14113501
1.361445 0.11859 0.140876
1.362464 0.104766 0.14533401
1.377863 0.100291 0.148632
1.37685 0.114485 0.148462
1.3533829 0.096759997 0.154338
1.380682 0.099826999 0.150498
1.3459589 0.103882 0.151489
1.385287 0.100452 0.151923
1.354665 0.10527 0.151756
1.398937 0.088753998 0.15921099
1.3899601 0.093792997 0.156299
1.392215 0.094175003 0.15888201
1.398351 0.092364997 0.15522601
1.416851 0.094093002 0.15746599
