# .PCD v0.7 - Point Cloud Data file format
VERSION 0.7
FIELDS x y z
SIZE 4 4 4
TYPE F F F
COUNT 1 1 1
WIDTH 1523
HEIGHT 1
VIEWPOINT 0 0 0 1 0 0 0
POINTS 1523
DATA ascii
0.41997501 -0.58378798 2.0031581
0.43157199 -0.58171499 2.004379
0.43580401 -0.58182001 2.0014751
0.44091001 -0.58034003 2.0011301
0.44883499 -0.58434802 2.0032411
0.474383 -0.58422101 2.0013189
0.40575799 -0.57808 2.0023761
0.41514999 -0.578628 2.0040259
0.42446148 -0.57709205 2.002965
0.425064 -0.57542998 2.000942
0.43335 -0.57961202 2.003047
0.44054601 -0.57551098 2.0020289
0.40550199 -0.57468599 2.001524
0.41437 -0.57288599 2.002404
0.42195749 -0.57246351 2.0013752
0.43716449 -0.57434452 2.0014834
0.43155199 -0.60722899 2.0050001
0.43910348 -0.60649252 2.008785
0.45150399 -0.605573 2.007545
0.45883399 -0.60580099 2.006031
0.46784768 -0.60580665 2.0071347
0.476356 -0.60607803 2.0081539
0.48809299 -0.60914302 2.008415
0.49129301 -0.60949099 2.009022
0.506845 -0.606686 2.0069349
0.67597097 -0.60722899 2.0050001
0.42109799 -0.60478097 2.0063801
0.42834899 -0.60476702 2.0061059
0.44655499 -0.60499501 2.009624
0.45436299 -0.60472798 2.0080199
0.457818 -0.60496598 2.00769
0.470882 -0.60026002 2.0089209
0.48711401 -0.60095501 2.0074329
0.515522 -0.60142201 2.0056369
0.41179198 -0.59654546 2.0081038
0.41834599 -0.59528202 2.0079081
0.42793432 -0.59693336 2.0077639
0.43475801 -0.59696746 2.0077105
0.43777198 -0.59791148 2.0078745
0.46201098 -0.59738332 2.0071466
0.49962601 -0.59750003 2.008919
0.41627601 -0.59195203 2.0050001
0.42774099 -0.59057802 2.0074511
0.43379301 -0.59105802 2.0075581
0.43831801 -0.59346199 2.007844
0.443737 -0.594401 2.006417
0.51671797 -0.59250599 2.007282
0.41570899 -0.58516699 2.006079
0.42619699 -0.58778298 2.006835
0.433514 -0.58985001 2.0056031
0.4380675 -0.58794796 2.0081265
0.451251 -0.58942997 2.008738
0.46271801 -0.58913201 2.0054209
0.47785801 -0.58844101 2.0060959
0.42621851 -0.58046448 2.0074701
0.43470901 -0.581222 2.0074511
0.43939799 -0.58107799 2.0068491
0.44218501 -0.58446598 2.009901
0.39905101 -0.57893401 2.009887
0.409044 -0.57946199 2.0085371
0.41088501 -0.57890701 2.009861
0.417979 -0.57823503 2.0059047
0.422326 -0.57710898 2.005244
0.43651199 -0.57761252 2.0062575
0.45197901 -0.57393998 2.0061619
0.423244 -0.61231798 2.0139589
0.43384001 -0.61121702 2.013175
0.447272 -0.61160702 2.0106339
0.45961899 -0.61241001 2.0138061
0.46737099 -0.61171299 2.014163
0.490908 -0.610686 2.013046
0.49864 -0.610906 2.0130119
0.518484 -0.61364001 2.0131731
0.53493202 -0.61462998 2.0145631
0.67880899 -0.61346102 2.0140629
0.400655 -0.606727 2.013643
0.42260301 -0.60534298 2.0104599
0.446473 -0.60953897 2.01055
0.46108699 -0.609258 2.0136471
0.465951 -0.60728401 2.0120051
0.47414699 -0.60715902 2.0131431
0.490289 -0.60590303 2.013201
0.50328898 -0.60559201 2.014812
0.51071203 -0.60565603 2.0149961
0.414253 -0.60302401 2.014606
0.41685 -0.60139602 2.0122709
0.42069799 -0.60099798 2.010102
0.427524 -0.602283 2.0130551
0.439345 -0.60244298 2.0137391
0.45841199 -0.60301799 2.010139
0.46474499 -0.60379601 2.011503
0.50233102 -0.601551 2.0123129
0.67079699 -0.60196602 2.0141389
0.41367799 -0.59547597 2.0138781
0.42279601 -0.597004 2.0142519
0.44668001 -0.59841102 2.014426
0.453881 -0.59682697 2.0106871
0.67918199 -0.59801197 2.0144
0.40102899 -0.591277 2.0139799
0.412101 -0.59324849 2.012646
0.41669601 -0.593687 2.0121479
0.4237 -0.59238601 2.011879
0.429625 -0.59451598 2.0125959
0.44612998 -0.59419346 2.0120184
0.45008701 -0.59453398 2.0146241
0.46446899 -0.59050298 2.012234
0.38751 -0.58722103 2.010988
0.40430099 -0.58919603 2.011246
0.40647301 -0.58974099 2.012434
0.41096199 -0.58983499 2.0147779
0.41612899 -0.58703297 2.014904
0.422353 -0.58943301 2.011214
0.426384 -0.58746749 2.0113344
0.43024951 -0.58649552 2.0131495
0.45449001 -0.58887798 2.0109439
0.393556 -0.582201 2.0125279
0.40444699 -0.58197802 2.011786
0.41207898 -0.5818435 2.011641
0.422317 -0.58414602 2.0130479
0.42590401 -0.58313298 2.0106721
0.432248 -0.582133 2.013392
0.391886 -0.57712299 2.010236
0.41277701 -0.57949197 2.014643
0.44139701 -0.61572403 2.019285
0.467224 -0.61630899 2.01792
0.48008999 -0.61659098 2.0180669
0.39076099 -0.613796 2.0189209
0.40336001 -0.61080199 2.0167999
0.40630701 -0.614003 2.0186429
0.41070399 -0.613469 2.019665
0.4182595 -0.61264372 2.0174055
0.42296401 -0.61304301 2.0181389
0.44812801 -0.61275166 2.0189011
0.45914501 -0.61152202 2.018836
0.47408199 -0.61375898 2.016794
0.482932 -0.613608 2.015465
0.50153702 -0.61404401 2.0192249
0.40680301 -0.607135 2.0171111
0.41064101 -0.60667902 2.019371
0.42495301 -0.60799003 2.016731
0.434697 -0.60922998 2.0180509
0.444181 -0.60952401 2.016279
0.44762301 -0.60521001 2.015759
0.45088899 -0.60956001 2.0150831
0.51627898 -0.60566902 2.016263
0.529378 -0.60905099 2.01689
0.67480701 -0.605838 2.0168531
0.39894101 -0.60413098 2.019793
0.41128799 -0.60224998 2.0194099
0.424018 -0.60099399 2.0158601
0.66408098 -0.60363501 2.019057
0.39097199 -0.59824902 2.0191469
0.39777699 -0.59767199 2.0156879
0.40336001 -0.59543598 2.0167999
0.40690801 -0.59899402 2.0181408
0.41252053 -0.59842098 2.017643
0.42115301 -0.59712398 2.0173421
0.43648201 -0.59992301 2.0186999
0.44966301 -0.59960502 2.015945
0.46096101 -0.599087 2.0183029
0.37843299 -0.59301299 2.016207
0.38637999 -0.59073198 2.017735
0.394375 -0.59496897 2.0160711
0.397751 -0.592619 2.0166221
0.41892701 -0.5923 2.019398
0.466095 -0.59449399 2.015841
0.47968701 -0.59478801 2.0187211
0.39862099 -0.5873 2.0153999
0.40716401 -0.58883703 2.017787
0.41124099 -0.58698499 2.0172729
0.423877 -0.587533 2.0180621
0.42556599 -0.58563399 2.01512
0.37563601 -0.58249599 2.0196519
0.382081 -0.58292902 2.0150459
0.39118201 -0.58270299 2.0193729
0.39682999 -0.58045202 2.0159249
0.40336001 -0.58007002 2.0167999
0.406728 -0.58290899 2.0190949
0.41891199 -0.58487201 2.017329
0.43273199 -0.58237398 2.0179231
0.44212601 -0.58018398 2.01701
0.40097949 -0.61655545 2.0218959
0.410151 -0.61708498 2.0230401
0.42414901 -0.61738402 2.0235181
0.43055001 -0.615619 2.0246339
0.44260699 -0.61862004 2.023761
0.45881999 -0.615821 2.0215161
0.4829385 -0.61832595 2.021255
0.35774401 -0.61103898 2.0236909
0.38124299 -0.61030501 2.0217509
0.396864 -0.61281598 2.0219049
0.43239951 -0.6139645 2.0246515
0.43941399 -0.61204499 2.021261
0.45422 -0.611081 2.021682
0.457553 -0.61398602 2.023504
0.46143499 -0.61259502 2.022404
0.478452 -0.61199498 2.0230081
0.49410799 -0.61102301 2.023041
0.52236098 -0.61075801 2.020772
0.386749 -0.609905 2.0236709
0.397993 -0.60659367 2.0218379
0.41123348 -0.60828799 2.022759
0.42602599 -0.60596102 2.023869
0.4324345 -0.60745597 2.022212
0.398191 -0.60154402 2.022779
0.400316 -0.60068297 2.0230861
0.40669399 -0.600115 2.024627
0.43628848 -0.602633 2.0239205
0.448935 -0.60312098 2.0213399
0.66953599 -0.60432601 2.0217509
0.40873849 -0.59678298 2.022732
0.437455 -0.599935 2.0238259
0.39657801 -0.590837 2.023875
0.412595 -0.59189349 2.0232639
0.41963899 -0.59273201 2.021661
0.39304301 -0.58590299 2.0215321
0.39649966 -0.58577198 2.0236213
0.40663499 -0.58597797 2.0216041
0.405049 -0.58407998 2.0218661
0.411071 -0.58263201 2.021019
0.50435001 -0.62063497 2.0257261
0.53438097 -0.62118602 2.026228
0.68647099 -0.62228101 2.029752
0.349298 -0.61843199 2.0270021
0.35749501 -0.61556202 2.0299771
0.384361 -0.61786503 2.0263031
0.39487499 -0.61562502 2.0256939
0.40583801 -0.61973298 2.029608
0.41033199 -0.61577302 2.0258191
0.419801 -0.61898702 2.029721
0.42165199 -0.619847 2.028832
0.46007001 -0.618375 2.0251729
0.52869701 -0.61743599 2.0294635
0.384927 -0.61072701 2.0278101
0.40180999 -0.61122501 2.028702
0.41690052 -0.61337 2.0273194
0.42015901 -0.611067 2.0254321
0.49238601 -0.61194497 2.0253351
0.69176102 -0.61051702 2.0284619
0.33770099 -0.60587603 2.0254641
0.374845 -0.606341 2.025589
0.387519 -0.60987598 2.02565
0.394041 -0.60930502 2.0253501
0.41751799 -0.60852402 2.026248
0.43172801 -0.60955799 2.0281661
0.45019299 -0.60535997 2.0286961
0.67513299 -0.60853201 2.0250211
0.690534 -0.605636 2.025938
0.34575 -0.60359001 2.0292671
0.38260001 -0.60453701 2.026134
0.38521001 -0.60066199 2.029074
0.392333 -0.60154998 2.027555
0.39589149 -0.60199153 2.0270824
0.42178699 -0.60402101 2.0292699
0.51845598 -0.60419101 2.0260279
0.376928 -0.59943098 2.0274041
0.38217601 -0.59772497 2.02935
0.39165202 -0.59901333 2.0282509
0.39739332 -0.59672195 2.0291216
0.40229398 -0.59887397 2.0286155
0.367066 -0.59138399 2.028991
0.37235001 -0.59395802 2.0259659
0.38789499 -0.59433502 2.0259891
0.3926965 -0.59376299 2.0264716
0.40788099 -0.59361601 2.0261979
0.41147599 -0.59317797 2.0267
0.43000001 -0.59344798 2.026345
0.37988701 -0.58861798 2.02773
0.38081565 -0.58752769 2.0270307
0.390912 -0.58740097 2.027487
0.41379201 -0.587439 2.0252509
0.43227199 -0.58642697 2.027858
0.39516899 -0.58471298 2.026022
0.39798 -0.62238199 2.034277
0.43154401 -0.62196702 2.030133
0.44605699 -0.62299103 2.033551
0.45578 -0.62201798 2.032958
0.51409 -0.62456298 2.0329421
0.54274702 -0.62066799 2.030417
0.54565299 -0.62347299 2.0326381
0.680071 -0.62448299 2.030736
0.379738 -0.616723 2.0329471
0.394822 -0.61939597 2.03339
0.40622002 -0.61861646 2.0338559
0.41690901 -0.61864001 2.033458
0.421334 -0.61985898 2.0338769
0.43729699 -0.61819899 2.0322969
0.448722 -0.61803198 2.031666
0.66953099 -0.61831999 2.030411
0.37794799 -0.61131299 2.0307319
0.38773298 -0.61422151 2.0321321
0.404201 -0.61416203 2.032691
0.405543 -0.613747 2.031177
0.41918901 -0.61396903 2.031147
0.42330101 -0.61044198 2.0337951
0.367874 -0.60512799 2.0324559
0.37967101 -0.60528499 2.0318091
0.385892 -0.60948497 2.032727
0.39302701 -0.605542 2.0332041
0.40507999 -0.608316 2.0305631
0.42332202 -0.60705698 2.0328116
0.426981 -0.607319 2.03442
0.677885 -0.60765898 2.032692
0.68555301 -0.60599703 2.0305309
0.37434599 -0.60368001 2.031599
0.377758 -0.60148197 2.0315371
0.385869 -0.60070699 2.0336399
0.39165199 -0.60421848 2.0319924
0.405974 -0.60390699 2.030046
0.41269001 -0.60261297 2.0322969
0.666731 -0.60188901 2.032058
0.37035999 -0.59518999 2.0311799
0.38352099 -0.59803802 2.0321219
0.409004 -0.59892899 2.0319259
0.341602 -0.59244102 2.0349619
0.36429599 -0.59161103 2.031086
0.36679199 -0.59014797 2.0329969
0.381372 -0.59403002 2.0314589
0.38703501 -0.59287202 2.0331759
0.39246699 -0.59197998 2.0340049
0.40123999 -0.59280699 2.0343959
0.37354749 -0.58820552 2.032547
0.390295 -0.58796698 2.031261
0.40610901 -0.58807999 2.0304849
0.514256 -0.62504601 2.0352299
0.52489299 -0.628685 2.0393059
0.554784 -0.62703198 2.03807
0.37066999 -0.62233299 2.037971
0.37931901 -0.62485498 2.037977
0.38942301 -0.62326097 2.037096
0.39514199 -0.62368202 2.0389199
0.43997401 -0.62473601 2.035428
0.46260899 -0.62247097 2.035305
0.38170701 -0.61910701 2.0376511
0.40497199 -0.618348 2.038841
0.4070175 -0.618083 2.039865
0.421027 -0.61579198 2.0384951
0.481482 -0.61829698 2.0358591
0.35857999 -0.61267197 2.0377331
0.36671701 -0.61084402 2.035126
0.37421799 -0.613051 2.0377569
0.38207251 -0.61221647 2.0386779
0.392528 -0.613684 2.0397069
0.42396101 -0.61440599 2.0353041
0.389119 -0.60602802 2.0397379
0.39863801 -0.60659599 2.0372577
0.403768 -0.60548598 2.036108
0.43737701 -0.60874802 2.0364001
0.67748648 -0.6074115 2.0383625
0.35075799 -0.60326099 2.0375659
0.359492 -0.60382497 2.03881
0.360778 -0.60084701 2.0358491
0.36630601 -0.60341001 2.0376911
0.38290301 -0.6034615 2.037936
0.38769501 -0.601174 2.0392201
0.340931 -0.59537399 2.0381031
0.35895801 -0.59703797 2.038074
0.37202448 -0.598831 2.0366831
0.38161999 -0.59771299 2.0383949
0.39985901 -0.59915698 2.036325
0.357568 -0.59165299 2.036252
0.363581 -0.59430802 2.0380809
0.55989403 -0.63047802 2.042886
0.71280199 -0.63360298 2.043921
0.39862001 -0.62748802 2.043088
0.432046 -0.62760699 2.04193
0.51930398 -0.62829798 2.0433691
0.35539699 -0.622127 2.041301
0.36104399 -0.62293202 2.0444281
0.37843502 -0.62187803 2.043632
0.38234699 -0.62144399 2.044543
0.38960201 -0.62016201 2.041126
0.39286399 -0.62316 2.042866
0.395953 -0.620745 2.0439861
0.403272 -0.62319797 2.042047
0.412799 -0.62208903 2.0402889
0.420439 -0.621387 2.0428841
0.43601 -0.62346798 2.0409279
0.36322901 -0.61842197 2.041595
0.37197399 -0.61824298 2.042311
0.38283199 -0.61618298 2.0443339
0.39190999 -0.61861432 2.0428503
0.411612 -0.616458 2.0434799
0.3428905 -0.6117925 2.042227
0.346935 -0.61280602 2.0415471
0.35266101 -0.61431998 2.0414901
0.366164 -0.61098599 2.0441475
0.371005 -0.61025399 2.042078
0.40789899 -0.61336303 2.0409191
0.35130301 -0.60644901 2.0404799
0.36118001 -0.60700798 2.0448689
0.36901748 -0.60806602 2.040282
0.373436 -0.60880202 2.0437801
0.398368 -0.60512501 2.042191
0.347655 -0.60323149 2.0424085
0.36153099 -0.60255098 2.0409
0.36930901 -0.60118502 2.041048
0.37167501 -0.60416305 2.0429306
0.37752652 -0.60363495 2.0409319
0.34435999 -0.59672099 2.0437019
0.362838 -0.59710097 2.042762
0.388688 -0.59817398 2.04354
0.404495 -0.59717202 2.0441451
0.36947599 -0.62834001 2.0466089
0.39398849 -0.62777996 2.0478916
0.451774 -0.628784 2.045763
0.55882001 -0.62791401 2.0451751
0.34133399 -0.62189198 2.047389
0.35323599 -0.62320197 2.047889
0.35831249 -0.62295699 2.0469065
0.36837301 -0.62261802 2.0497069
0.3776395 -0.62300551 2.0479999
0.390755 -0.62272698 2.046535
0.407103 -0.62468004 2.0483301
0.410326 -0.62202698 2.0488241
0.52547598 -0.62440801 2.046052
0.53983003 -0.62445098 2.045027
0.357434 -0.61712402 2.0485549
0.36170301 -0.61779499 2.046736
0.374152 -0.61962098 2.046277
0.37778449 -0.61806649 2.0479803
0.393978 -0.61794901 2.049243
0.399708 -0.61771703 2.0455091
0.53934598 -0.61973202 2.045011
0.69490403 -0.618958 2.0461941
0.329952 -0.61050397 2.04689
0.36688399 -0.61215401 2.0487781
0.417128 -0.613563 2.0452681
0.35574901 -0.60635102 2.0497191
0.38824201 -0.60513502 2.045949
0.337935 -0.60193402 2.0494699
0.34817299 -0.60059899 2.046207
0.362084 -0.600694 2.049221
0.37145171 -0.60281128 2.0484159
0.339515 -0.59897202 2.0462289
0.35160899 -0.59787405 2.047308
0.35420701 -0.63152099 2.052103
0.34254 -0.62505698 2.0512149
0.35330001 -0.62869102 2.0526249
0.366317 -0.62952697 2.0506029
0.37711832 -0.62812001 2.0529649
0.38017401 -0.627698 2.0547271
0.38970599 -0.62778801 2.053941
0.55804801 -0.626966 2.0501881
0.71382999 -0.62831402 2.0545399
0.34455699 -0.62078702 2.052587
0.36247849 -0.6232425 2.0533986
0.37933499 -0.62179601 2.0531001
0.3979395 -0.62369001 2.0519114
0.69809502 -0.62100703 2.0531421
0.340799 -0.616355 2.0524015
0.34503299 -0.61589801 2.0500381
0.36823401 -0.61678201 2.0533171
0.34930101 -0.61289698 2.051733
0.35355201 -0.61071599 2.050324
0.35933399 -0.61365199 2.0536721
0.3619515 -0.61241746 2.0509496
0.37539601 -0.61198097 2.0520821
0.38702053 -0.61149395 2.0531735
0.39145899 -0.61031097 2.050493
0.69032598 -0.61411899 2.0525019
0.33994299 -0.60906899 2.0521879
0.35316199 -0.60635799 2.054152
0.35683599 -0.60651898 2.0501349
0.374823 -0.60582799 2.050992
0.33864999 -0.60114849 2.0525794
0.347471 -0.60212749 2.052192
0.36797899 -0.60057497 2.054085
0.38415501 -0.60026199 2.0528419
0.39057299 -0.601758 2.052469
0.32574299 -0.599895 2.0524061
0.44093901 -0.63509601 2.056221
0.553352 -0.63549501 2.0578361
0.343638 -0.63433403 2.057373
0.35203952 -0.63042498 2.0570154
0.35578799 -0.631998 2.056587
0.364391 -0.63049001 2.058794
0.381605 -0.63229799 2.05847
0.34664702 -0.62682152 2.058049
0.37273401 -0.62798101 2.0564201
0.37533 -0.628371 2.0559781
0.387705 -0.62732702 2.0552809
0.399625 -0.62826103 2.0591519
0.54181802 -0.62964702 2.0553119
0.559816 -0.629987 2.0563209
0.339122 -0.62002301 2.0552869
0.34989399 -0.623052 2.059875
0.35668901 -0.62474602 2.0583451
0.36695999 -0.62428349 2.0572019
0.37686801 -0.62458301 2.0553501
0.38005599 -0.62253499 2.0575681
0.38991499 -0.623923 2.0562921
0.33814451 -0.6184625 2.0580182
0.35927299 -0.61605 2.058253
0.36176899 -0.617414 2.056251
0.34434301 -0.610825 2.0554631
0.34784001 -0.61036199 2.0582471
0.37313101 -0.61096501 2.057121
0.38709801 -0.611498 2.056124
0.33742899 -0.60550302 2.0574961
0.34188199 -0.60620797 2.0580826
0.35088 -0.60810697 2.056921
0.35942602 -0.60883796 2.0565131
0.36671001 -0.60831702 2.056638
0.33532101 -0.60326999 2.0582299
0.35780501 -0.60481697 2.056438
0.346775 -0.63538498 2.0622211
0.36237001 -0.6361255 2.0622001
0.55056602 -0.63586098 2.0619431
0.343995 -0.63017899 2.061564
0.34860799 -0.63328201 2.062861
0.396467 -0.63038898 2.062984
0.55050701 -0.63441098 2.0624771
0.70257902 -0.634166 2.0631261
0.71162999 -0.63132799 2.0604849
0.322593 -0.62795001 2.0612359
0.33780199 -0.62664497 2.0627589
0.347112 -0.62900299 2.064508
0.38823399 -0.62848902 2.062849
0.33436698 -0.62229347 2.062716
0.33949 -0.62318403 2.0630679
0.34608001 -0.62483501 2.0603981
0.35594299 -0.62023997 2.0631249
0.33562899 -0.61752301 2.0639081
0.34622401 -0.61703002 2.064764
0.351307 -0.61761397 2.060796
0.35891399 -0.61534399 2.064815
0.37267199 -0.616225 2.06248
0.37709799 -0.61751699 2.062721
0.30878901 -0.61392301 2.063473
0.324597 -0.61398602 2.0649121
0.33930099 -0.6103 2.062001
0.34347501 -0.61097002 2.060189
0.36200699 -0.61423802 2.0606971
0.32314849 -0.60739499 2.0621219
0.33493799 -0.60849398 2.060838
0.33552399 -0.60742801 2.061779
0.34304801 -0.608693 2.063082
0.38538 -0.60936397 2.0605519
0.71712601 -0.64636397 2.066685
0.58318603 -0.6426875 2.066859
0.31305799 -0.635562 2.068881
0.33246949 -0.63626552 2.0680311
0.33905599 -0.63720101 2.067997
0.35533401 -0.636886 2.066746
0.36718351 -0.63519752 2.0685134
0.3712905 -0.63753247 2.0671153
0.57699603 -0.63947701 2.068989
0.307596 -0.63334399 2.0696249
0.313261 -0.63351601 2.0659001
0.33022499 -0.63084197 2.066494
0.34827501 -0.634776 2.067533
0.364438 -0.63309503 2.0659339
0.57216299 -0.63373202 2.066983
0.320822 -0.62816501 2.067101
0.331323 -0.62871099 2.0670421
0.33655 -0.62699103 2.0681195
0.35264134 -0.62764931 2.0673141
0.36398101 -0.62906802 2.0697851
0.366135 -0.62712097 2.065892
0.32107899 -0.62169498 2.065259
0.33048999 -0.62022299 2.069793
0.33880001 -0.620893 2.068769
0.355077 -0.62057799 2.067518
0.36611 -0.62350398 2.0665851
0.332041 -0.6182335 2.0689363
0.33935699 -0.617737 2.067009
0.346652 -0.61854202 2.068193
0.36500901 -0.61709201 2.0651979
0.32795101 -0.61366153 2.0685995
0.331965 -0.61353397 2.0684021
0.3362655 -0.611754 2.0692902
0.34536999 -0.61100399 2.0654919
0.36273 -0.61093003 2.069119
0.383775 -0.61331099 2.066895
0.3322905 -0.6085965 2.0653324
0.35486901 -0.606911 2.066283
0.55761302 -0.64292902 2.071393
0.58267701 -0.641747 2.0721819
0.29978701 -0.63981903 2.0723319
0.31574601 -0.63773203 2.0727196
0.33349651 -0.6371485 2.0748525
0.33900899 -0.63709098 2.0731101
0.35016501 -0.638147 2.073034
0.357824 -0.63815397 2.070802
0.3270635 -0.63285148 2.0727396
0.34763199 -0.63005197 2.0711
0.35221401 -0.63170701 2.0742171
0.36819601 -0.63409102 2.0747709
0.37654501 -0.63450497 2.0725329
0.38274199 -0.63497698 2.071629
0.31440401 -0.62855601 2.0732501
0.325414 -0.62966198 2.074285
0.33455151 -0.62832248 2.0722084
0.34735051 -0.6285485 2.0729294
0.71989501 -0.62979102 2.072407
0.302948 -0.62069899 2.074795
0.30779135 -0.62330407 2.0720627
0.314493 -0.62225902 2.072145
0.32231501 -0.62172401 2.0713248
0.34740201 -0.621925 2.0746601
0.35339299 -0.62307 2.0748219
0.36646199 -0.62371302 2.0729871
0.322469 -0.617374 2.0720251
0.3272855 -0.61763251 2.073216
0.32126299 -0.61126101 2.070102
0.32556501 -0.61382997 2.0744531
0.33235198 -0.61420953 2.0725145
0.33675799 -0.61219698 2.070164
0.34670901 -0.61366498 2.071883
0.351033 -0.61427701 2.0709751
0.57063502 -0.64782 2.0766749
0.59671402 -0.64851099 2.0755551
0.30541599 -0.64261699 2.078681
0.318389 -0.644247 2.0798719
0.322469 -0.64100403 2.07844
0.3273555 -0.64150798 2.0761375
0.334277 -0.64119703 2.076453
0.336436 -0.64425999 2.0778921
0.35326499 -0.64031702 2.077853
0.3608155 -0.64345801 2.0789239
0.374529 -0.64243603 2.07688
0.282895 -0.63754302 2.0766881
0.31120601 -0.63994998 2.0769989
0.34232101 -0.63515401 2.076287
0.58019203 -0.63826299 2.0750179
0.3343845 -0.63242102 2.0761518
0.724208 -0.63319701 2.0797949
0.28995001 -0.62590402 2.077332
0.29988399 -0.62809002 2.076035
0.31062001 -0.62775898 2.076097
0.32062101 -0.62936699 2.0781
0.336454 -0.62936699 2.0781
0.34539899 -0.625341 2.079659
0.280779 -0.62125301 2.078582
0.317449 -0.62247998 2.075145
0.3227385 -0.62025654 2.0778594
0.33308667 -0.62416363 2.0772676
0.309816 -0.61624998 2.0786359
0.312271 -0.61550498 2.075268
0.332095 -0.61619401 2.0778451
0.348809 -0.61551601 2.0774429
0.30478799 -0.61353397 2.0781
0.32112399 -0.61260396 2.076474
0.34429801 -0.613069 2.0764849
0.59070098 -0.65051597 2.0811729
0.73024797 -0.65002197 2.0839429
0.74315298 -0.65163702 2.083663
0.30190501 -0.64542001 2.081496
0.31097901 -0.646424 2.081876
0.33687234 -0.64763266 2.0836613
0.56289899 -0.648013 2.0842531
0.57308102 -0.64925897 2.083323
0.301754 -0.64012098 2.0809469
0.3062 -0.64233297 2.080056
0.31287399 -0.64379102 2.0815849
0.321071 -0.64172399 2.084125
0.32564101 -0.641159 2.082412
0.34620801 -0.64413202 2.080426
0.58118302 -0.64312202 2.083045
0.29898199 -0.63780302 2.0821791
0.30947199 -0.63539302 2.084671
0.317763 -0.63670599 2.0819969
0.338292 -0.63629299 2.0825419
0.35388699 -0.63849801 2.082515
0.36901799 -0.63956398 2.0802741
0.30129701 -0.63126397 2.084146
0.31538299 -0.63386703 2.08216
0.323228 -0.63179249 2.0825896
0.33820799 -0.633919 2.0824621
0.58798701 -0.63331801 2.080488
0.72145498 -0.63226098 2.082289
0.726596 -0.63078201 2.0815899
0.31140101 -0.62591499 2.0802
0.31562501 -0.628025 2.0814979
0.331956 -0.62987602 2.0821021
0.355827 -0.62990898 2.083252
0.297555 -0.62163502 2.0816629
0.30877 -0.62457597 2.080631
0.31490999 -0.62208802 2.0812891
0.31513301 -0.62051702 2.0829821
0.36566901 -0.62337101 2.083549
0.30616799 -0.61590302 2.081625
0.31632099 -0.61878198 2.082473
0.33848101 -0.61964399 2.0801189
0.54633099 -0.65327603 2.086674
0.55824703 -0.65419501 2.0869391
0.56424803 -0.65267599 2.0867879
0.60470802 -0.65414101 2.0854101
0.29750699 -0.64699203 2.0871141
0.3033345 -0.649315 2.0876966
0.27694401 -0.64398801 2.086355
0.30300301 -0.64182699 2.087497
0.305181 -0.64459002 2.0875955
0.31902599 -0.64221501 2.087522
0.32024601 -0.64018798 2.0858779
0.35529301 -0.64415097 2.088918
0.28512701 -0.63757902 2.0897231
0.291302 -0.63656002 2.0880611
0.32155499 -0.63520801 2.0866449
0.271927 -0.63309997 2.087559
0.287633 -0.634305 2.086899
0.29489899 -0.63070202 2.0892971
0.29783899 -0.63449198 2.0870781
0.304342 -0.63333303 2.085968
0.30652699 -0.63456798 2.087404
0.31150001 -0.63331598 2.086834
0.32054901 -0.63344902 2.0851729
0.33448499 -0.63460797 2.0857539
0.29262301 -0.62538302 2.085706
0.30207035 -0.62732267 2.0863657
0.31626201 -0.62848097 2.0878971
0.32592899 -0.62501198 2.0892639
0.331763 -0.62989902 2.088248
0.28026101 -0.62417102 2.0862751
0.29472649 -0.62251496 2.085722
0.30054599 -0.621369 2.0871
0.35045901 -0.622253 2.0854261
0.29717699 -0.61991203 2.089612
0.3112905 -0.618478 2.0866735
0.3178035 -0.61903548 2.0886064
0.320687 -0.61722898 2.0856221
0.333727 -0.61922699 2.086688
0.334591 -0.65011001 2.0900509
0.55968499 -0.65498698 2.0930829
0.29762751 -0.648 2.0917516
0.31721801 -0.64588898 2.0945759
0.32258099 -0.64914399 2.0908
0.28942099 -0.643861 2.092705
0.29525501 -0.64000797 2.0908549
0.32437101 -0.64087898 2.0908661
0.32763699 -0.64007699 2.092665
0.339578 -0.642905 2.0902579
0.271718 -0.63724101 2.0941269
0.30670401 -0.63910902 2.0933321
0.32268801 -0.63796997 2.0937359
0.290721 -0.633214 2.0908
0.30071199 -0.631006 2.0916641
0.306651 -0.633214 2.0908
0.28932399 -0.62731397 2.09428
0.29265001 -0.62843603 2.0930221
0.30278799 -0.628178 2.090133
0.33614999 -0.62665999 2.093169
0.28359401 -0.6212045 2.0912137
0.293773 -0.62356299 2.0926609
0.57111001 -0.66005999 2.0975759
0.3225435 -0.65595651 2.0997505
0.29022849 -0.65332747 2.0997028
0.29725501 -0.65302402 2.0993121
0.30751902 -0.65044999 2.0960464
0.324974 -0.650769 2.095259
0.32968599 -0.65421498 2.09707
0.57504398 -0.65153003 2.098335
0.279093 -0.64581299 2.099571
0.292308 -0.647475 2.0990231
0.29557699 -0.64549398 2.098304
0.31125501 -0.64532 2.0981145
0.32526901 -0.647313 2.098002
0.28081399 -0.64103699 2.098012
0.288367 -0.64298803 2.0991981
0.29579401 -0.640894 2.0981219
0.30454001 -0.64222997 2.096091
0.30598149 -0.64161301 2.0980585
0.33640301 -0.64314902 2.0974491
0.2904 -0.63691902 2.09987
0.297407 -0.636998 2.0994821
0.27848101 -0.63210547 2.0985065
0.28864899 -0.63333499 2.0950241
0.29126501 -0.63425201 2.09744
0.30340499 -0.63401997 2.0981829
0.30906999 -0.63443202 2.095782
0.31337801 -0.63037997 2.0984089
0.31812701 -0.63445699 2.096837
0.268998 -0.626544 2.0963559
0.28480601 -0.62936848 2.0969675
0.29082701 -0.628214 2.096354
0.302504 -0.62636 2.0987151
0.31180099 -0.62865901 2.09782
0.32315701 -0.625386 2.0968909
0.30365199 -0.62286502 2.0960331
0.30740401 -0.62364799 2.0961571
0.74660301 -0.66398901 2.100606
0.29248399 -0.65587401 2.1024079
0.29951501 -0.65553701 2.101068
0.58372498 -0.65785903 2.101769
0.61058003 -0.655644 2.1027651
0.27337101 -0.65007901 2.102071
0.29007101 -0.65367299 2.1035919
0.299759 -0.65011197 2.1019161
0.30466601 -0.65125698 2.1037209
0.30852801 -0.65311801 2.1036
0.31424001 -0.65469301 2.1011751
0.75486302 -0.65259498 2.103863
0.263118 -0.64626497 2.1045871
0.27985999 -0.64991999 2.1032319
0.28918532 -0.64636832 2.1003621
0.31706601 -0.64623499 2.1028681
0.604289 -0.64973801 2.102973
0.27150199 -0.64221901 2.104614
0.291852 -0.64301097 2.100019
0.30244049 -0.64240253 2.1018391
0.31854299 -0.64100498 2.1036961
0.595568 -0.64180797 2.1011209
0.257783 -0.63668501 2.1014709
0.28758001 -0.63616252 2.1030021
0.29265499 -0.63743502 2.1026969
0.32117599 -0.63922799 2.10062
0.288095 -0.63193601 2.10112
0.253223 -0.62913102 2.1009829
0.25728601 -0.62607402 2.100589
0.277502 -0.62867498 2.101691
0.28812069 -0.6283617 2.1015661
0.30704501 -0.62927502 2.102417
0.570934 -0.66167599 2.1090751
0.618756 -0.66017699 2.108598
0.28906101 -0.65750599 2.10904
0.60419899 -0.65911001 2.1091909
0.26220101 -0.65382302 2.1095281
0.27920049 -0.65307653 2.107307
0.29390201 -0.65225601 2.1072674
0.29652801 -0.650051 2.1075161
0.30403799 -0.65312201 2.108073
0.31095999 -0.65171999 2.105746
0.32784501 -0.65332597 2.1062081
0.60867703 -0.65341198 2.1071441
0.273994 -0.64776999 2.1091249
0.27506101 -0.64578199 2.107708
0.25763801 -0.64435202 2.1062479
0.27566299 -0.64048898 2.107245
0.28542301 -0.64102799 2.108762
0.26242101 -0.63759899 2.1097651
0.27703798 -0.63676047 2.1084325
0.29486701 -0.63802999 2.109184
0.30265802 -0.63738048 2.1064901
0.30753201 -0.63547498 2.1086569
0.258706 -0.63278002 2.1092241
0.29074201 -0.633798 2.1075139
0.31258601 -0.63154399 2.107094
0.25973701 -0.65686601 2.1143301
0.261186 -0.65591401 2.113826
0.270298 -0.65597898 2.1137581
0.275323 -0.65942502 2.113214
0.28299299 -0.65686297 2.1121559
0.28925201 -0.65623301 2.112057
0.2931475 -0.65814251 2.1118131
0.29665101 -0.65612799 2.1134889
0.31411999 -0.65791303 2.1148529
0.62487298 -0.65950799 2.1116409
0.26031399 -0.65266401 2.1107581
0.28740299 -0.654275 2.1103821
0.259186 -0.648386 2.112365
0.26513299 -0.64989102 2.114424
0.27344799 -0.6474815 2.1123025
0.26952401 -0.64385599 2.1137481
0.275572 -0.64038199 2.110846
0.28387201 -0.6423015 2.1130285
0.29085401 -0.64357197 2.1140161
0.2433175 -0.63762748 2.112464
0.25327799 -0.63274097 2.111661
0.26935101 -0.634785 2.1141419
0.274766 -0.63262397 2.113847
0.29312301 -0.63386101 2.1107421
0.25862601 -0.66360003 2.1188209
0.26485801 -0.66409302 2.119745
0.24344499 -0.65702999 2.1188951
0.245929 -0.65715402 2.1166
0.25959849 -0.65762198 2.118046
0.27727434 -0.65853304 2.1166623
0.29256302 -0.65648401 2.117882
0.25363001 -0.65101999 2.117321
0.255153 -0.65262097 2.115494
0.276173 -0.65146703 2.1162081
0.28260699 -0.65463698 2.11584
0.750539 -0.65010399 2.1163881
0.249835 -0.64562303 2.1176879
0.25768501 -0.64689702 2.1196201
0.267764 -0.64550197 2.1151831
0.27078399 -0.64725202 2.118542
0.281773 -0.64964497 2.1199789
0.24201751 -0.64258146 2.1184859
0.245929 -0.64102697 2.1166
0.26205501 -0.64102697 2.1166
0.26587099 -0.641765 2.117918
0.27491501 -0.64316398 2.11847
0.278182 -0.64102697 2.1166
0.28827399 -0.64111501 2.116698
0.2575075 -0.63895875 2.1172938
0.27412248 -0.63606453 2.1167564
0.27920201 -0.63844699 2.119066
0.28431499 -0.63553101 2.1152871
0.29322299 -0.63988203 2.1164
0.60613501 -0.67259502 2.124016
0.627321 -0.67163402 2.124052
0.27044401 -0.66618901 2.124511
0.63180703 -0.666201 2.1243429
0.232078 -0.66142601 2.1235919
0.260737 -0.66203701 2.124285
0.279154 -0.66217303 2.1221042
0.28234199 -0.66053498 2.121233
0.60101599 -0.66006601 2.1224501
0.241687 -0.65581596 2.1223264
0.24760599 -0.657547 2.123035
0.25353301 -0.65935898 2.121809
0.26868501 -0.65922302 2.1241651
0.275253 -0.65905601 2.124764
0.280976 -0.65606099 2.123199
0.26671201 -0.65285999 2.1223719
0.29530999 -0.65296203 2.1229451
0.25490299 -0.64502901 2.122798
0.27721801 -0.64813 2.1226051
0.23627 -0.64350897 2.1209321
0.24782699 -0.641222 2.1232729
0.27276999 -0.64147198 2.1248519
0.278914 -0.64428997 2.1241441
0.288176 -0.63931298 2.1213739
0.60834497 -0.67507303 2.1294751
0.218492 -0.66746002 2.1279881
0.22393601 -0.66759002 2.1295841
0.247806 -0.66583198 2.1283331
0.21500801 -0.66125202 2.1298001
0.231986 -0.66224402 2.1284831
0.245345 -0.66066402 2.128648
0.25233299 -0.66060698 2.1250679
0.26368999 -0.66125202 2.1298001
0.2682955 -0.66285205 2.1270881
0.247188 -0.65897697 2.1264009
0.235502 -0.65133601 2.1283939
0.25097999 -0.65399897 2.129391
0.25978401 -0.65240198 2.126689
0.2663655 -0.65379405 2.128274
0.21500801 -0.64502501 2.1298001
0.231235 -0.64502501 2.1298001
0.242625 -0.64548701 2.1293991
0.249377 -0.64535201 2.1297369
0.228971 -0.64401603 2.129916
0.23845901 -0.64469898 2.1258559
0.245487 -0.644135 2.129106
0.25341302 -0.64234197 2.1259241
0.26209 -0.64028502 2.1275139
0.2669965 -0.64378452 2.1263809
0.27261099 -0.642555 2.1269741
0.27854601 -0.639494 2.125138
0.59219903 -0.67953402 2.134562
0.60449702 -0.67820603 2.13307
0.60741001 -0.675906 2.134872
0.64392102 -0.67992002 2.133734
0.233349 -0.670834 2.134423
0.235227 -0.67179799 2.1344819
0.26082999 -0.67079502 2.1308751
0.30641001 -0.67059898 2.130641
0.228111 -0.66802502 2.134551
0.24464101 -0.66845101 2.1340351
0.246751 -0.66605401 2.1328599
0.251176 -0.66809499 2.1348121
0.267625 -0.66791749 2.131747
0.28667101 -0.66708797 2.1321421
0.628452 -0.66570002 2.13188
0.22969601 -0.66232598 2.134217
0.230198 -0.66143101 2.134202
0.24780199 -0.66106498 2.1331725
0.25968799 -0.66229802 2.1303639
0.200056 -0.65837598 2.133338
0.219493 -0.65567398 2.1348
0.224342 -0.655316 2.1340809
0.25293899 -0.65831804 2.132992
0.26201051 -0.65858549 2.1329694
0.28369299 -0.65894002 2.1325691
0.21413 -0.65412903 2.1325719
0.23096301 -0.650599 2.132071
0.23679499 -0.65036201 2.1319261
0.24356151 -0.6512875 2.1335716
0.247096 -0.65390801 2.1305311
0.26337552 -0.65226901 2.133091
0.22819099 -0.64775199 2.1333346
0.24636801 -0.64518601 2.13343
0.257047 -0.64579701 2.132575
0.26460499 -0.64869702 2.1318879
0.21061701 -0.67374498 2.1387711
0.228192 -0.672041 2.1396999
0.236333 -0.67173702 2.1378391
0.244618 -0.67243898 2.139725
0.26556501 -0.67295301 2.135808
0.23562101 -0.66946602 2.1379781
0.215122 -0.66142201 2.13832
0.22128101 -0.66437697 2.138077
0.2316615 -0.66225499 2.1370735
0.237608 -0.66453302 2.1382079
0.24228901 -0.664222 2.135304
0.248197 -0.66456097 2.1358221
0.22875801 -0.65799302 2.139384
0.23097199 -0.65709853 2.1369171
0.23447201 -0.65133101 2.1368711
0.246748 -0.65388203 2.1389711
0.250296 -0.65310502 2.139631
0.263787 -0.65387303 2.136539
0.22143599 -0.64805001 2.1382501
0.225798 -0.64700401 2.1383519
0.230279 -0.64803201 2.1375771
0.237763 -0.648206 2.138381
0.241482 -0.64903897 2.138175
0.26225799 -0.64932102 2.1355519
0.59757 -0.68190098 2.1413369
0.62516397 -0.68168902 2.142915
0.21648601 -0.67518401 2.144351
0.236912 -0.67500198 2.143774
0.642901 -0.67608702 2.1408789
0.21916001 -0.67421198 2.1406429
0.223175 -0.674317 2.1401
0.232683 -0.67207497 2.140866
0.239415 -0.67375702 2.144464
0.25445899 -0.67272699 2.1403
0.25773299 -0.67459601 2.1424789
0.27294701 -0.67167503 2.1407869
0.219818 -0.66747802 2.1442211
0.240842 -0.668396 2.1408141
0.64343101 -0.66961402 2.140847
0.19222599 -0.66462499 2.1440611
0.197531 -0.66427797 2.144805
0.21415301 -0.66439801 2.14399
0.21545599 -0.66277099 2.1407969
0.230774 -0.66451699 2.1431739
0.236931 -0.66142499 2.1401689
0.22922701 -0.65557849 2.1412907
0.23195601 -0.65683901 2.1418099
0.23664699 -0.65816599 2.1445711
0.245015 -0.65601599 2.1400831
0.25061899 -0.65721703 2.1441331
0.214191 -0.65087801 2.1417229
0.192839 -0.64896703 2.1414931
0.200023 -0.64905298 2.1431
0.63108402 -0.68069297 2.1482761
0.65081197 -0.68308902 2.147629
0.237023 -0.67621899 2.1470029
0.241907 -0.67809498 2.1494441
0.259222 -0.67626202 2.1494319
0.224145 -0.67462301 2.145509
0.22692101 -0.67298198 2.1491389
0.23047701 -0.67337 2.149461
0.2031925 -0.66671002 2.1487818
0.205672 -0.667409 2.1487229
0.221983 -0.66535097 2.146899
0.23625401 -0.66767102 2.1494
0.24824999 -0.66847402 2.149616
0.26047501 -0.66670197 2.1457231
0.26857701 -0.66907698 2.1476941
0.214717 -0.66229498 2.145859
0.21862701 -0.66194499 2.1451581
0.213669 -0.65864801 2.146009
0.219843 -0.65849203 2.1458621
0.23048501 -0.65796399 2.147886
0.21089 -0.650002 2.145731
0.215418 -0.65305197 2.148371
0.58679497 -0.68872797 2.1531999
0.61336797 -0.68856102 2.154299
0.63607699 -0.684003 2.1541049
0.196658 -0.67540699 2.1527205
0.21313199 -0.67581099 2.153291
0.22094101 -0.67885703 2.151721
0.225106 -0.67816502 2.1522081
0.209438 -0.67352498 2.1542399
0.213596 -0.67438698 2.1508181
0.220061 -0.67053598 2.153574
0.252276 -0.67220598 2.151202
0.25893801 -0.67222202 2.1501529
0.644921 -0.67403901 2.152035
0.20835866 -0.66897231 2.153059
0.2174675 -0.6672855 2.1522074
0.2193 -0.66263747 2.152266
0.22048201 -0.66274297 2.1513159
0.238067 -0.66258502 2.1532769
0.25587299 -0.66007 2.1527071
0.185837 -0.657112 2.152421
0.19722168 -0.65759236 2.1534047
0.2130865 -0.6583755 2.1526394
0.223517 -0.65679097 2.152365
0.229523 -0.65645099 2.15027
0.24944 -0.65556198 2.1528709
0.181504 -0.6548 2.1508839
0.20155349 -0.65393299 2.1525431
0.59581703 -0.69097602 2.1563749
0.61818302 -0.68733299 2.1589651
0.204859 -0.68149501 2.1564391
0.212091 -0.68305898 2.158401
0.22017799 -0.68122202 2.1564679
0.22944 -0.68407202 2.1581936
0.230996 -0.68022799 2.1591151
0.245498 -0.68085003 2.158077
0.213 -0.67756802 2.1574631
0.222397 -0.67933702 2.1591599
0.191659 -0.67202502 2.1585989
0.1973975 -0.67362404 2.1592705
0.203868 -0.67339998 2.157747
0.232584 -0.67173702 2.155252
0.182548 -0.66815698 2.159451
0.20128299 -0.66957301 2.1566
0.21291199 -0.66857499 2.156235
0.222672 -0.66636199 2.1569619
0.188732 -0.66283798 2.157167
0.20268799 -0.66478097 2.1583819
0.221678 -0.661919 2.1551189
0.205038 -0.65909898 2.1583891
0.185864 -0.68547398 2.1648259
0.17641351 -0.6832515 2.163341
0.182787 -0.68318999 2.1630011
0.189014 -0.68067801 2.164006
0.20337 -0.681593 2.161727
0.66187501 -0.684205 2.161484
0.18785532 -0.67833036 2.161855
0.199058 -0.679573 2.164258
0.202044 -0.67601198 2.1626539
0.205483 -0.67966402 2.16046
0.65995699 -0.67871302 2.1647539
0.19122301 -0.67286366 2.1634099
0.217693 -0.67319602 2.162369
0.202727 -0.66905701 2.1647699
0.207369 -0.666327 2.1628621
0.22551499 -0.66795301 2.1624219
0.18830401 -0.66304702 2.1625619
0.194152 -0.66199702 2.1646039
0.196126 -0.661098 2.163271
0.200535 -0.664949 2.1633959
0.207406 -0.66204798 2.1609755
0.24161699 -0.66248202 2.1611145
0.68240303 -0.69813502 2.1692071
0.594405 -0.69293898 2.1650519
0.61754298 -0.69023597 2.168704
0.156233 -0.68655097 2.168576
0.17076699 -0.68785101 2.1687441
0.216803 -0.68883002 2.1677339
0.182146 -0.68040299 2.1678331
0.187069 -0.68472201 2.165235
0.19907799 -0.682154 2.1657879
0.164608 -0.67883199 2.1670289
0.16808601 -0.676633 2.1688349
0.17656501 -0.677122 2.1655059
0.18075 -0.67856401 2.1675506
0.1948245 -0.67792797 2.1687651
0.201252 -0.67826301 2.1665261
0.207197 -0.67520499 2.1673131
0.162341 -0.67250103 2.1658189
0.172093 -0.670744 2.1672349
0.18488 -0.67488599 2.1671729
0.201674 -0.67313898 2.1655109
0.2083225 -0.6717425 2.1653171
0.178414 -0.66885 2.1671259
0.18423299 -0.66807801 2.166904
0.18609001 -0.668836 2.1650679
0.195674 -0.66596299 2.169014
0.16501001 -0.66219902 2.167392
0.18141651 -0.66298699 2.1680322
0.19803551 -0.662449 2.1681695
0.67325002 -0.69199198 2.1724141
0.16723 -0.688941 2.1738379
0.171707 -0.68932152 2.1730595
0.182344 -0.68726301 2.174875
0.64098603 -0.68748802 2.1723781
0.18558601 -0.68152601 2.172163
0.13692699 -0.67626798 2.172147
0.18693399 -0.67855799 2.172925
0.195399 -0.67547798 2.1741409
0.20345999 -0.67571598 2.1703441
0.66237199 -0.67995399 2.1707051
0.15190899 -0.67266703 2.1726389
0.16793101 -0.67120701 2.1704121
0.18602601 -0.67382598 2.1703
0.19306 -0.67073399 2.1706059
0.212963 -0.67332 2.171567
0.16704901 -0.66901702 2.173106
0.182399 -0.66533703 2.17364
0.190442 -0.66769201 2.174288
0.17222799 -0.66386497 2.170064
0.58054298 -0.69886702 2.1751511
0.686616 -0.69586802 2.1767199
0.14689299 -0.69247001 2.178859
0.17552701 -0.69314998 2.1785049
0.182179 -0.691387 2.1754389
0.192167 -0.69330901 2.1786389
0.218049 -0.69002402 2.1753659
0.68340498 -0.69496399 2.1770041
0.170407 -0.68949902 2.179044
0.176074 -0.68996698 2.1799049
0.19226199 -0.68731201 2.1751571
0.67733097 -0.68535 2.175853
0.15426001 -0.68310547 2.1790328
0.15662099 -0.68472099 2.178684
0.16879299 -0.68356705 2.1768615
0.173645 -0.68439102 2.177376
0.159045 -0.67635 2.1785469
0.16646899 -0.67726701 2.1781361
0.17721801 -0.67582548 2.1785154
0.12933899 -0.67396897 2.178761
0.170633 -0.67275399 2.179287
0.17800149 -0.67402899 2.1788859
0.19007599 -0.670488 2.1771131
0.189401 -0.66858298 2.1756051
0.190772 -0.66986299 2.1785159
0.16215099 -0.69521302 2.18292
0.16787 -0.69579399 2.183182
0.689354 -0.69610202 2.1810009
0.13140801 -0.69124198 2.1836901
0.14049 -0.69284999 2.1845241
0.17057601 -0.69478399 2.1842
0.20432401 -0.69461203 2.184011
0.139697 -0.68834603 2.1834249
0.142994 -0.68663901 2.18189
0.15185399 -0.688977 2.183111
0.167385 -0.685471 2.1837039
0.20132899 -0.68996602 2.181329
0.12764101 -0.68215299 2.1823709
0.148941 -0.68267798 2.180917
0.152925 -0.68298852 2.183532
0.17465 -0.68231899 2.1801569
0.18153149 -0.68005848 2.181793
0.192807 -0.681759 2.180474
0.153934 -0.67814201 2.1842
0.164969 -0.67921001 2.18102
0.167184 -0.67837203 2.1804459
0.17057601 -0.67814201 2.1842
0.173889 -0.67314303 2.1818609
0.137554 -0.69838798 2.189141
0.203771 -0.69565898 2.1852419
0.151859 -0.69304103 2.1888969
0.157268 -0.69438797 2.186404
0.175675 -0.693847 2.1857431
0.157447 -0.689632 2.1869431
0.160905 -0.68962002 2.1869509
0.19041499 -0.68978101 2.1876171
0.157777 -0.68087298 2.1870451
0.173048 -0.68497097 2.189755
0.18786 -0.68405497 2.1898561
0.13616601 -0.67813301 2.188447
0.15320849 -0.67685854 2.188725
0.164442 -0.67954898 2.1860931
0.16894899 -0.67620403 2.188535
0.138566 -0.67459399 2.186815
0.69134301 -0.70711899 2.1904709
0.125873 -0.69766301 2.1944189
0.159932 -0.69738901 2.1923349
0.188628 -0.699637 2.19206
0.13313501 -0.69482303 2.1941171
0.139459 -0.694278 2.192142
0.154751 -0.693582 2.193465
0.118354 -0.68803698 2.1925941
0.141387 -0.68918198 2.1945219
0.17359 -0.68787098 2.1918249
0.183302 -0.68778199 2.190938
0.168127 -0.68459302 2.191319
0.15497901 -0.67672902 2.1937101
0.15656801 -0.67636299 2.191509
0.15309601 -0.67482501 2.1908901
0.120731 -0.69927901 2.1952291
0.15399799 -0.69755304 2.1979365
0.163205 -0.69588 2.1989081
0.152429 -0.69060701 2.199789
0.157821 -0.69115502 2.197499
0.176403 -0.69439697 2.195996
0.68624097 -0.69425899 2.197156
0.133074 -0.68658 2.195003
0.147459 -0.68688399 2.1970041
0.16145501 -0.688456 2.1986411
0.175308 -0.68942302 2.1990011
0.124831 -0.68396598 2.1978381
0.12866899 -0.68233001 2.1989441
0.133001 -0.68104899 2.1976011
0.135666 -0.67896098 2.1959281
0.143592 -0.70101303 2.2043049
0.158123 -0.70327401 2.204711
0.69254303 -0.70285398 2.2034371
0.12706301 -0.699579 2.201174
0.136287 -0.69719797 2.204164
0.16239101 -0.69901299 2.204375
0.13521101 -0.69164401 2.201174
0.116288 -0.686854 2.2000301
0.138889 -0.68778902 2.2010429
0.17037299 -0.687051 2.201633
0.123271 -0.68426198 2.2049589
0.148737 -0.682612 2.2022319
0.114205 -0.70572197 2.205863
0.132587 -0.70698595 2.2088275
0.16233601 -0.70701498 2.20748
0.70527899 -0.707434 2.2095461
0.13463899 -0.70137 2.2058401
0.145244 -0.70211703 2.208396
0.119231 -0.69707602 2.2050011
0.1216215 -0.6969505 2.2069054
0.13889299 -0.69772202 2.2080879
0.117 -0.69053698 2.2092879
0.137141 -0.69289601 2.206964
0.14223599 -0.69434899 2.20943
0.15523 -0.69102901 2.208451
0.127436 -0.68750399 2.2083859
0.154672 -0.68692303 2.2076409
0.142508 -0.68449152 2.2062685
0.12630001 -0.70600498 2.214247
0.700279 -0.70772803 2.212424
0.70932198 -0.70702201 2.212085
0.110515 -0.70100898 2.21452
0.139065 -0.70375401 2.2124
0.148379 -0.70362902 2.2127531
0.098663494 -0.69877005 2.2123575
0.114228 -0.69661051 2.2136893
0.109762 -0.69329602 2.210664
0.115933 -0.69210202 2.210047
0.1266305 -0.69329453 2.2119093
0.159802 -0.69218099 2.2132211
0.110875 -0.68956298 2.21399
0.126067 -0.68889302 2.2106371
0.139065 -0.68689799 2.2124
0.140907 -0.68886101 2.212954
0.717489 -0.72507298 2.216965
0.71863002 -0.71701801 2.219445
0.102271 -0.710181 2.2192359
0.15058 -0.71168202 2.215384
0.70801002 -0.71320498 2.2151461
0.11555 -0.70967001 2.2157359
0.123235 -0.70723897 2.2152879
0.14285 -0.708902 2.2150819
0.15016501 -0.70187199 2.2181671
0.075767003 -0.69511002 2.216198
0.119927 -0.69682801 2.2173841
0.12721799 -0.69826698 2.217087
0.14008699 -0.69500703 2.2152691
0.145565 -0.69760698 2.2174661
0.112145 -0.69348001 2.218962
0.118885 -0.69243097 2.2192349
0.124001 -0.69348001 2.2174759
0.14026999 -0.69135898 2.215435
0.148085 -0.69467402 2.217375
0.71141398 -0.71774 2.2204139
0.066855997 -0.71464503 2.2249179
0.085258 -0.711743 2.223536
0.117376 -0.71203101 2.223424
0.129319 -0.71214598 2.220299
0.077496499 -0.70879698 2.2228713
0.091692507 -0.70632148 2.2238326
0.111174 -0.70588601 2.2204499
0.119845 -0.70786399 2.2227981
0.1289365 -0.70688748 2.2215171
0.134367 -0.70824498 2.221132
0.14510401 -0.70621097 2.2207229
0.091054 -0.70414299 2.2222509
0.103342 -0.701289 2.2204831
0.10595851 -0.7023775 2.2237158
0.129692 -0.70091301 2.223177
0.133763 -0.70456201 2.2229791
0.124943 -0.69898498 2.2220881
0.12586799 -0.695795 2.2232289
0.131569 -0.69759601 2.2216311
0.14607801 -0.696769 2.2218659
0.098479003 -0.69486398 2.223021
0.089874998 -0.715482 2.228267
0.1128 -0.71725506 2.226721
0.113108 -0.71091801 2.2260251
0.106038 -0.70833498 2.2268
0.11736 -0.70725298 2.2277911
0.123004 -0.70833498 2.2268
0.090828001 -0.70146602 2.2260101
0.1098 -0.70296299 2.2289059
0.111015 -0.70385402 2.2293689
0.115778 -0.70271802 2.2263846
0.12786999 -0.70095497 2.2267361
0.098223999 -0.698066 2.2272861
0.107481 -0.6983 2.228683
0.110298 -0.69825798 2.226742
0.087986 -0.72064799 2.2344749
0.075061001 -0.71768397 2.2333779
0.105435 -0.71959698 2.233072
0.110631 -0.71653903 2.233325
0.13194899 -0.71879601 2.233645
0.0726 -0.714894 2.2338071
0.077779002 -0.71014303 2.234735
0.085189 -0.713099 2.2349441
0.094855003 -0.710307 2.2348721
0.127874 -0.714746 2.2316189
0.094159 -0.706752 2.232002
0.097946003 -0.70752501 2.2345991
0.100957 -0.709943 2.2326031
0.70866799 -0.705971 2.2319241
0.086083002 -0.70016497 2.2320521
0.098536 -0.703439 2.230144
0.10445 -0.70210803 2.2339079
0.111466 -0.70023102 2.231024
0.108899 -0.69922 2.2340291
0.077480003 -0.720783 2.237298
0.121978 -0.72213602 2.2358799
0.083802998 -0.71579701 2.2380769
0.100988 -0.716214 2.2381029
0.106186 -0.71092999 2.236841
0.079493001 -0.70729899 2.2354009
0.089364998 -0.705948 2.238251
0.094656996 -0.70694101 2.235724
0.118629 -0.70594299 2.2391551
0.067905001 -0.703969 2.2396121
0.070739001 -0.70351201 2.2374539
0.087001003 -0.70315897 2.235311
0.064865001 -0.72362399 2.2432201
0.077238001 -0.72075403 2.243736
0.094719999 -0.720415 2.242393
0.108264 -0.72470897 2.2406991
0.071924001 -0.717457 2.2437119
0.098936997 -0.71771801 2.2443359
0.72984397 -0.71822101 2.2439871
0.068158001 -0.71313202 2.244792
0.082073003 -0.710832 2.24031
0.089656003 -0.71297902 2.2414
0.073687002 -0.70546597 2.2410829
0.74125898 -0.73554599 2.246527
0.74054098 -0.73103398 2.2472091
0.74668401 -0.73368001 2.246181
0.08715 -0.726897 2.2471111
0.105567 -0.72751898 2.2497849
0.064489 -0.72304499 2.24564
0.082199998 -0.72093099 2.2479379
0.038268998 -0.71322 2.2467129
0.079361998 -0.71346003 2.249476
0.104904 -0.710531 2.2478001
0.061145499 -0.70921397 2.2481871
0.084638 -0.709777 2.249115
0.054668002 -0.72956401 2.253062
0.072186999 -0.72612298 2.2512181
0.088169001 -0.72739398 2.250638
0.062638 -0.72334099 2.2539361
0.066272497 -0.72208899 2.2522469
0.071583003 -0.72336602 2.2539821
0.077992998 -0.72430497 2.251909
0.095351003 -0.72249901 2.250191
0.104762 -0.72425002 2.2500689
0.111123 -0.72074199 2.2519109
0.73608702 -0.72129399 2.2533879
0.062394001 -0.71637797 2.2521269
0.087394997 -0.71604699 2.2521181
0.73508501 -0.71746898 2.2540109
0.047405999 -0.713907 2.25021
0.060769498 -0.71042347 2.2501059
0.068011999 -0.71271801 2.2534001
0.072756998 -0.71025997 2.253485
0.071056999 -0.70918596 2.252017
0.088317998 -0.70998198 2.251121
0.069952004 -0.72920001 2.2591479
0.090264998 -0.72871602 2.2579141
0.048896 -0.71606702 2.259145
0.050866 -0.71552598 2.257411
0.0719705 -0.71822047 2.2565811
0.091179997 -0.71511799 2.2564449
0.083088003 -0.714136 2.2570069
0.76010299 -0.74521399 2.2617929
0.064306997 -0.73132497 2.263026
0.74946302 -0.73011601 2.263577
0.053351998 -0.72922498 2.264159
0.061053 -0.72557801 2.2604351
0.097019002 -0.725389 2.260345
0.039790001 -0.71998501 2.260639
0.068538502 -0.71779847 2.2622833
0.056170002 -0.73166901 2.268177
0.062387001 -0.73035502 2.269007
0.072651334 -0.73253328 2.2671382
0.075769 -0.733181 2.265759
0.082915001 -0.73003501 2.268779
0.75481302 -0.73188198 2.268724
0.045398999 -0.72561401 2.2686231
0.036499999 -0.72136801 2.268177
0.040150002 -0.72133398 2.266979
0.047297001 -0.72321898 2.269949
0.053254999 -0.72078598 2.2664461
0.061864998 -0.72177601 2.2664759
0.077454999 -0.71970499 2.26509
0.76706553 -0.74939454 2.2701194
0.044064999 -0.73510998 2.2743831
0.050294999 -0.73594099 2.271405
0.056361001 -0.73641801 2.2707319
0.034155 -0.73063201 2.272964
0.050891999 -0.73110199 2.2702401
0.032173999 -0.726062 2.2710681
0.063731 -0.72429299 2.2737341
0.768071 -0.74543101 2.2791221
0.036283001 -0.74055701 2.279784
0.041515 -0.74137801 2.2770989
0.058931001 -0.74120098 2.2789741
0.061838001 -0.74148399 2.2791791
0.024103999 -0.72666901 2.2772081
0.029953999 -0.727274 2.2768209
0.050462 -0.72764498 2.275924
0.057422001 -0.72308451 2.27671
0.062004 -0.72406602 2.2793641
0.76616102 -0.75057203 2.2830529
0.020540001 -0.74417698 2.2834461
0.034779001 -0.74099398 2.284606
0.042846002 -0.74455202 2.284761
0.046776 -0.74211103 2.28145
0.059174001 -0.74224198 2.2826941
0.038631 -0.73655897 2.2842081
0.055636004 -0.736624 2.2834716
0.024558 -0.73214 2.281497
0.043302 -0.72565299 2.284399
0.050496999 -0.72907102 2.283231
-0.0045079999 -0.74516702 2.288656
0.022271 -0.74517202 2.288162
0.033550002 -0.74706149 2.2881205
0.011376 -0.74014503 2.289808
0.056612998 -0.744681 2.2862999
0.065291002 -0.74101001 2.2881351
-0.011675 -0.73686802 2.285152
0.028972 -0.73831499 2.2880659
0.039932001 -0.73728698 2.285352
0.046567 -0.736485 2.286325
0.002199 -0.73366898 2.2862639
0.011708 -0.73197001 2.2862389
0.018011 -0.73183298 2.2870631
0.031994 -0.73015201 2.2880051
0.040116001 -0.72750002 2.287046
0.056317002 -0.72635901 2.2858925
0.75590199 -0.72906101 2.2872419
0.67089403 -0.757918 2.2924671
0.78166997 -0.75668502 2.293653
0.027212 -0.74609703 2.29425
0.044748001 -0.74626499 2.2943909
0.042004999 -0.74308503 2.2903221
0.77331901 -0.74475098 2.290195
0.0044900002 -0.73928797 2.2943909
0.016942 -0.73821801 2.2919259
0.027654 -0.73938298 2.2948201
0.045853999 -0.735066 2.293108
0.028805999 -0.73011798 2.292244
