# .PCD v0.7 - Point Cloud Data file format
VERSION 0.7
FIELDS x y z
SIZE 4 4 4
TYPE F F F
COUNT 1 1 1
WIDTH 113
HEIGHT 1
VIEWPOINT 0 0 0 1 0 0 0
POINTS 113
DATA ascii
-2.4739439 0.63731402 0.47398999
-2.5176029 0.643915 0.47475901
-2.5316 0.647879 0.48295799
-2.493593 0.663957 0.482223
-2.491822 0.67733002 0.48203301
-2.4984419 0.64688802 0.49118599
-2.4653871 0.65882301 0.490706
-2.507683 0.66647297 0.49096099
-2.5506849 0.674245 0.491229
-2.5111589 0.67110997 0.492246
-2.55477 0.64513302 0.49508399
-2.4454839 0.67067802 0.49883199
-2.5322199 0.65110099 0.50248301
-2.5304971 0.66488898 0.50246
-2.5741079 0.63891298 0.50529802
-2.593446 0.63269198 0.51551098
-2.440742 0.65124601 0.51779097
-2.438278 0.65866399 0.51663101
-2.5553839 0.628205 0.52376199
-2.5253029 0.64534003 0.52157301
-2.4597249 0.64492798 0.52774698
-2.4572811 0.653207 0.525783
-2.4161341 0.650729 0.52620697
-2.502306 0.61891198 0.53036702
-2.5901599 0.63181698 0.53287202
-2.5444739 0.63917297 0.53169799
-2.3939259 0.65797299 0.53380603
-2.4787071 0.63861001 0.53770298
-2.434978 0.64466798 0.53615999
-2.5212879 0.61259502 0.54032302
-2.397012 0.64217401 0.54138499
-2.439131 0.64864302 0.543387
-2.3699009 0.65689802 0.54189199
-2.497689 0.63229197 0.54765898
-2.4538231 0.63860601 0.54611301
-2.5391641 0.61998999 0.550412
-2.389744 0.63900101 0.55213398
-2.4577861 0.64252299 0.55405903
-2.389847 0.64574599 0.55045801
-2.472667 0.63254398 0.55606502
-2.4361269 0.63668698 0.55857903
-2.4085369 0.64037901 0.55945998
-2.5008619 0.649086 0.55616403
-2.5581701 0.613877 0.56045002
-2.587976 0.62951797 0.56275803
-2.408406 0.63278902 0.56192201
-2.36622 0.63806701 0.56003898
-2.4493091 0.647686 0.56027901
-2.3697219 0.65114498 0.56068802
-2.492609 0.61338699 0.56601799
-2.5356541 0.61965698 0.56757098
-2.57951 0.62607098 0.56912798
-2.4915121 0.62648201 0.566019
-2.3847489 0.63210702 0.56982499
-2.606957 0.62329102 0.57361698
-2.4270689 0.62657797 0.571711
-2.454422 0.630099 0.57036102
-2.3460691 0.63079399 0.57486498
-2.4259579 0.63886601 0.5715
-2.322047 0.63325101 0.57572597
-2.5384951 0.636738 0.57769299
-2.486784 0.60775399 0.58411098
-2.4457309 0.62036699 0.58149898
-2.298476 0.62416101 0.580055
-2.444643 0.632855 0.58136898
-2.364126 0.63215601 0.58087599
-2.572325 0.62106699 0.58777499
-2.3642571 0.62482703 0.58526999
-2.50547 0.601744 0.59398001
-2.4643941 0.61415499 0.59128702
-2.3185599 0.61495 0.593256
-2.5068519 0.62038898 0.59303498
-2.3222549 0.620974 0.591003
-2.4633291 0.626845 0.59123802
-2.361352 0.62795401 0.59205401
-2.3824439 0.61885899 0.59567499
-2.5079899 0.605762 0.60487503
-2.336762 0.60889202 0.60280299
-2.5256741 0.61412501 0.60290599
-2.377106 0.61492598 0.60460401
-2.3586891 0.61352301 0.60069698
-2.400089 0.61920702 0.60403699
-2.37974 0.62267399 0.60091001
-2.400631 0.61289197 0.60607898
-2.31481 0.60772198 0.610035
-2.5432351 0.62148798 0.61301798
-2.5264871 0.599693 0.61545599
-2.4361041 0.59590501 0.61670601
-2.5276041 0.60374802 0.61749202
-2.3328869 0.60190701 0.619582
-2.418818 0.60692501 0.61648399
-2.418071 0.61273199 0.61561698
-2.373167 0.596775 0.62189698
-2.372623 0.608235 0.62163502
-2.4544799 0.58999401 0.62641102
-2.5458989 0.59715998 0.62927502
-2.437006 0.60095698 0.62688899
-2.455148 0.60874701 0.625844
-2.4360521 0.60625702 0.62719798
-2.3913701 0.59071702 0.63144398
-2.368511 0.59559602 0.63055402
-2.3908479 0.602373 0.63126099
-2.455193 0.59499002 0.63729399
-2.4540341 0.599783 0.63877797
-2.564194 0.590572 0.64105701
-2.4090731 0.59650999 0.64088601
-2.4733801 0.58902299 0.647699
-2.427774 0.578601 0.65053803
-2.4272981 0.590648 0.65051198
-2.4915681 0.58305502 0.658104
-2.4478331 0.58142501 0.658108
-2.489996 0.586833 0.66193902
-2.4221539 0.57350349 0.66787398
