# .PCD v0.7 - Point Cloud Data file format
VERSION 0.7
FIELDS x y z
SIZE 4 4 4
TYPE F F F
COUNT 1 1 1
WIDTH 111
HEIGHT 1
VIEWPOINT 0 0 0 1 0 0 0
POINTS 111
DATA ascii
2.2250299 -0.72922802 1.528105
2.310663 -0.74202597 1.538815
2.2714419 -0.74982703 1.544981
2.2416921 -0.740933 1.543119
2.205595 -0.73271501 1.546286
2.2867441 -0.74082202 1.553533
2.188952 -0.73983198 1.558411
2.275259 -0.75151998 1.564677
2.252878 -0.74585903 1.561746
2.3001881 -0.76929098 1.568483
2.281673 -0.762483 1.569824
2.2650239 -0.74968499 1.568341
2.28655 -0.76563197 1.571997
2.2004049 -0.74801803 1.57303
2.3074911 -0.77734798 1.579006
2.2858751 -0.76680702 1.575842
2.268852 -0.77146298 1.582579
2.268805 -0.77410698 1.588279
2.309392 -0.76228398 1.586598
2.334985 -0.78162998 1.59215
2.2511549 -0.77729201 1.5931619
2.200537 -0.763354 1.594714
2.299377 -0.76059902 1.590682
2.3522911 -0.79009199 1.597082
2.2705369 -0.78743201 1.603631
2.342485 -0.788589 1.601625
2.2334571 -0.783122 1.603745
2.251734 -0.781407 1.600716
2.310745 -0.79058701 1.606787
2.3056929 -0.77048701 1.609256
2.344094 -0.77323103 1.608891
2.18309 -0.76918501 1.6057039
2.3300469 -0.798908 1.612005
2.2527981 -0.79336101 1.614805
2.234664 -0.78870702 1.613153
2.348855 -0.79856098 1.620358
2.3219199 -0.78218901 1.623714
2.3081639 -0.80757499 1.626677
2.3160231 -0.80123502 1.625939
2.3264401 -0.80701298 1.634729
2.340672 -0.78166997 1.6321321
2.3001051 -0.79099602 1.638288
2.286644 -0.81609899 1.641106
2.2764909 -0.81377 1.644488
2.292104 -0.80994397 1.6401531
2.318326 -0.79026401 1.646405
2.2686701 -0.81851 1.654138
2.278652 -0.79965699 1.652621
2.2552249 -0.82188803 1.658308
2.265491 -0.82448298 1.6553
2.1902919 -0.79649699 1.6556
2.2575641 -0.80817699 1.66672
2.2716 -0.83419001 1.6734
2.209801 -0.80822998 1.674373
2.261385 -0.83153301 1.676424
2.2265069 -0.81351799 1.679026
2.2229209 -0.835208 1.681398
2.263674 -0.81788301 1.684821
2.250766 -0.84236002 1.687219
2.1903181 -0.823439 1.6899869
2.2675459 -0.84117699 1.694541
2.2009349 -0.82200903 1.692744
2.2149031 -0.81852299 1.692885
2.1657741 -0.82482302 1.700853
2.23259 -0.82323903 1.70117
2.2465501 -0.84900802 1.707844
2.19628 -0.83291203 1.707652
2.204098 -0.83283103 1.712261
2.1707921 -0.83494699 1.7190599
2.176559 -0.84089798 1.720871
2.252661 -0.85857397 1.725813
2.17889 -0.841079 1.725567
2.1570981 -0.848755 1.733873
2.154186 -0.84919399 1.738663
2.1758111 -0.84507 1.737268
2.2587709 -0.86813998 1.743782
2.0769751 -0.860434 1.75393
2.081939 -0.85642701 1.751287
2.1298771 -0.85716999 1.751534
2.1883891 -0.859694 1.7559201
2.2648809 -0.87770599 1.7617511
2.1059639 -0.86501199 1.764187
2.278841 -0.90347499 1.768425
2.168834 -0.86740297 1.768646
2.1121459 -0.86847103 1.774511
2.257031 -0.86150301 1.773046
2.182317 -0.89239001 1.775062
2.270992 -0.887272 1.7797199
2.078722 -0.87017 1.775396
2.1090209 -0.87547302 1.783051
2.209749 -0.86716598 1.7802629
2.117043 -0.87835097 1.792281
2.2002189 -0.87848997 1.790969
2.213809 -0.90367597 1.797437
2.080565 -0.880077 1.797246
2.085479 -0.88309801 1.795338
2.0965149 -0.88582897 1.804172
2.062336 -0.89059901 1.807426
2.111531 -0.89067 1.80902
2.2061341 -0.88788801 1.808494
2.2197239 -0.91307402 1.814961
2.039593 -0.89797997 1.8193229
2.101373 -0.89563 1.8218
2.186439 -0.895374 1.820804
2.032043 -0.90192097 1.825497
2.081079 -0.90290898 1.833352
2.0425749 -0.90818501 1.837727
2.0334139 -0.91243702 1.844951
2.0858991 -0.912633 1.850841
2.008265 -0.91944999 1.856527
2.090719 -0.92235601 1.86833
