# .PCD v0.7 - Point Cloud Data file format
VERSION 0.7
FIELDS x y z
SIZE 4 4 4
TYPE F F F
COUNT 1 1 1
WIDTH 251
HEIGHT 1
VIEWPOINT 0 0 0 1 0 0 0
POINTS 251
DATA ascii
-2.2636671 0.26219201 0.52496803
-2.28336 0.26626799 0.52187002
-2.2738881 0.26462299 0.52937901
-2.265774 0.258542 0.53639901
-2.255038 0.246427 0.54806101
-2.2818639 0.25281399 0.54934001
-2.4289861 0.29953301 0.54661202
-2.3385489 0.27208501 0.55113399
-2.271168 0.238934 0.56190699
-2.2979541 0.247087 0.56228203
-2.326267 0.27771199 0.56261599
-2.344388 0.291558 0.56305099
-2.3497269 0.29504099 0.561306
-2.4232249 0.315696 0.56092799
-2.3155899 0.27088499 0.56771499
-2.332947 0.28640601 0.56605798
-2.314044 0.241359 0.57522303
-2.2702711 0.24493399 0.57666099
-2.309201 0.24885 0.57971102
-2.3425851 0.27121499 0.57705402
-2.2708161 0.28381199 0.57679498
-2.3391199 0.30412799 0.57825899
-2.3031621 0.248303 0.58148003
-2.2961709 0.286414 0.58499402
-2.4150181 0.30081901 0.58293599
-2.3273439 0.300726 0.58098102
-2.2749579 0.310193 0.58417702
-2.392669 0.32276601 0.583749
-2.251935 0.230147 0.58829999
-2.2969961 0.24560501 0.58749002
-2.3186431 0.268814 0.58888102
-2.326252 0.27131101 0.58648503
-2.286906 0.27808401 0.589737
-2.355552 0.29821101 0.58884102
-2.3610721 0.30503699 0.589683
-2.494 0.28768399 0.593171
-2.3435111 0.29411501 0.59339499
-2.2652919 0.29931101 0.590523
-2.3937221 0.300984 0.59180099
-2.4316549 0.29489601 0.59631801
-2.30445 0.30213901 0.59539801
-2.2911351 0.30375099 0.59848899
-2.3217421 0.315047 0.59590501
-2.3869569 0.338792 0.59794301
-2.218066 0.232032 0.60370398
-2.3130479 0.23887099 0.60119802
-2.2485709 0.237142 0.60240197
-2.2993851 0.241134 0.60361099
-2.486397 0.279019 0.60450202
-2.2709501 0.28529099 0.601677
-2.410285 0.295021 0.60246801
-2.3502841 0.31077999 0.60404903
-2.2597671 0.31480899 0.60425001
-2.322298 0.32659999 0.60114998
-2.2372229 0.22134399 0.60771298
-2.31407 0.254803 0.60667902
-2.375222 0.258219 0.605928
-2.351001 0.25716299 0.60971999
-2.3195939 0.25643399 0.60660601
-2.4706399 0.26702699 0.608886
-2.488605 0.300556 0.60874403
-2.337909 0.30843499 0.60831797
-2.2589505 0.218769 0.61426604
-2.33673 0.27895701 0.613599
-2.2487581 0.29916599 0.61124098
-2.3667159 0.30486301 0.61463201
-2.460474 0.26092201 0.61510998
-2.4012661 0.302075 0.61865598
-2.404974 0.30768901 0.617796
-2.3253679 0.21744201 0.62361902
-2.334326 0.22138201 0.623941
-2.2404201 0.22229999 0.62433201
-2.3698871 0.233611 0.62031603
-2.3051951 0.242119 0.62408698
-2.487278 0.26110399 0.62226802
-2.4788139 0.283676 0.62276798
-2.4649279 0.283052 0.62308103
-2.4048481 0.28046 0.62058997
-2.354075 0.301824 0.62073201
-2.2747369 0.212218 0.62682599
-2.3871291 0.219532 0.62956703
-2.2600889 0.23148499 0.62515402
-2.294868 0.249155 0.62827402
-2.334394 0.213644 0.63177699
-2.3860769 0.22681899 0.63414001
-2.417762 0.29620299 0.63192397
-2.2353499 0.198301 0.63757199
-2.205297 0.198548 0.637721
-2.2965341 0.20202801 0.639902
-2.3259971 0.209618 0.63702297
-2.4277771 0.228284 0.639741
-2.39958 0.29302901 0.63579702
-2.293668 0.196741 0.64086801
-2.270292 0.20014 0.640742
-2.327795 0.207169 0.64341497
-2.265301 0.208747 0.644261
-2.430218 0.237229 0.642147
-2.4299469 0.246736 0.64054
-2.456419 0.26856801 0.64438701
-2.347208 0.286603 0.64071399
-2.201941 0.201323 0.64698398
-2.305712 0.20863301 0.64969099
-2.337177 0.216975 0.64929301
-2.46981 0.238979 0.64643002
-2.4342589 0.29033101 0.64519298
-2.220793 0.19098701 0.65104002
-2.3250909 0.198128 0.65380597
-2.285897 0.233245 0.65027398
-2.45366 0.238564 0.65138298
-2.488055 0.26135901 0.65428901
-2.346889 0.208537 0.655191
-2.465034 0.246666 0.65976602
-2.4248829 0.250902 0.65728098
-2.4507561 0.28445801 0.65846097
-2.3532431 0.209923 0.66313201
-2.4700191 0.232741 0.66454101
-2.422462 0.23196501 0.66035998
-2.4008701 0.25272599 0.66284901
-2.3280711 0.18947101 0.66780299
-2.2995059 0.185669 0.66965997
-2.393311 0.205198 0.66973299
-2.3949721 0.210706 0.66905802
-2.462687 0.223986 0.66556001
-2.46228 0.233513 0.66536701
-2.4480431 0.25432199 0.66534001
-2.3481009 0.186759 0.67305398
-2.480798 0.246088 0.67348802
-2.2814369 0.1773165 0.67613947
-2.3160141 0.182896 0.67543697
-2.42467 0.189964 0.67887503
-2.4346459 0.206443 0.67561299
-2.4789219 0.217365 0.677266
-2.478447 0.22690199 0.67777997
-2.464402 0.24849901 0.67849803
-2.4169049 0.246169 0.67516202
-2.356878 0.18261699 0.68112701
-2.413214 0.18911999 0.68451601
-2.312537 0.185462 0.68481898
-2.4111781 0.203593 0.683016
-2.455354 0.231342 0.681817
-2.4339409 0.25495401 0.68206102
-2.364054 0.17913 0.68671602
-2.453732 0.20431399 0.68918103
-2.3636661 0.207917 0.68730199
-2.4615991 0.21891101 0.68515402
-2.430625 0.217544 0.68599898
-2.43294 0.239611 0.68747401
-2.4180131 0.26171499 0.68673903
-2.370441 0.188526 0.69448203
-2.4728439 0.24122199 0.69270402
-2.4517341 0.243218 0.69172698
-2.2954991 0.168202 0.69681001
-2.359607 0.17691299 0.69570398
-2.3282821 0.1777 0.69833797
-2.425416 0.19172899 0.69714701
-2.470567 0.212291 0.69729799
-2.4520171 0.251333 0.69582599
-2.434236 0.25593999 0.69978702
-2.3110421 0.16415 0.70178097
-2.4145491 0.174531 0.70067298
-2.4060559 0.175164 0.70350802
-2.40042 0.178211 0.70217401
-2.4749441 0.184085 0.704638
-2.4680159 0.187324 0.70112902
-2.4493411 0.22171099 0.70314503
-2.3546979 0.16418099 0.70807999
-2.3490169 0.165794 0.707344
-2.410934 0.17478301 0.70602101
-2.4447689 0.17621499 0.708745
-2.3864329 0.181097 0.70820999
-2.420881 0.203099 0.70795101
-2.45333 0.205311 0.70542401
-2.431715 0.226537 0.70621002
-2.404001 0.245584 0.70924598
-2.4305799 0.16670901 0.71445203
-2.344027 0.169939 0.71185702
-2.441468 0.184995 0.71085399
-2.428427 0.181188 0.71438003
-2.464884 0.188246 0.714387
-2.4435899 0.18936799 0.71093202
-2.46298 0.204661 0.71462399
-2.494046 0.207361 0.71125102
-2.420419 0.208205 0.71109301
-2.4052501 0.20676699 0.71300298
-2.4665289 0.216243 0.71099502
-2.399369 0.231415 0.71133298
-2.3851111 0.16949201 0.71786499
-2.491034 0.17835701 0.71757901
-2.4627399 0.19789299 0.71652102
-2.4130499 0.226652 0.71748102
-2.4449489 0.239108 0.71710902
-2.3705161 0.156617 0.72162598
-2.460546 0.169763 0.72086
-2.4579511 0.17313799 0.72295099
-2.457521 0.178261 0.72456098
-2.4711101 0.18126801 0.720671
-2.4528091 0.191159 0.721201
-2.436471 0.201471 0.724801
-2.4392359 0.206615 0.72477603
-2.432435 0.216028 0.72183001
-2.478646 0.191388 0.72873402
-2.4596341 0.201701 0.72927999
-2.454098 0.155884 0.73386502
-2.400991 0.16166399 0.73150003
-2.449367 0.193645 0.73075998
-2.3952079 0.202893 0.73240501
-2.4000649 0.20527899 0.73303199
-2.4429941 0.161162 0.73770899
-2.4078751 0.167226 0.739609
-2.4527411 0.1925315 0.73741901
-2.455442 0.199503 0.73873401
-2.448606 0.20813701 0.73572898
-2.4030211 0.210813 0.73888701
-2.4773409 0.223239 0.73761898
-2.3948059 0.144448 0.74316198
-2.4424441 0.175716 0.74263299
-2.465524 0.185681 0.74463302
-2.47561 0.19518501 0.74080002
-2.4108601 0.196492 0.74442399
-2.473134 0.205477 0.74341601
-2.3936889 0.205742 0.74567097
-2.445364 0.210722 0.74522698
-2.4731369 0.2193 0.74521899
-2.391582 0.151621 0.751724
-2.423152 0.15640301 0.75262803
-2.423805 0.160235 0.75332999
-2.4928579 0.172635 0.75451899
-2.413568 0.171397 0.75166702
-2.468576 0.18800201 0.75221503
-2.4725089 0.19752599 0.75499099
-2.3990519 0.227742 0.75322902
-2.4105639 0.136759 0.75670701
-2.44382 0.140986 0.75502801
-2.39765 0.144503 0.758515
-2.443177 0.176257 0.75764698
-2.4223239 0.19963101 0.75684398
-2.4615209 0.202758 0.75910002
-2.47036 0.20864099 0.75569302
-2.3883171 0.13664301 0.76393402
-2.4322131 0.16052601 0.76371002
-2.4269071 0.13806801 0.76999199
-2.407007 0.13889199 0.76593399
-2.4397359 0.15324301 0.76705098
-2.4635789 0.204477 0.76616102
-2.448631 0.138179 0.77240402
-2.4288161 0.162792 0.77298802
-2.4591179 0.17356101 0.772928
-2.4651091 0.22209699 0.770585
-2.4337859 0.126362 0.77581197
-2.3830099 0.15153 0.77711999
-2.4006319 0.17362501 0.78404301
