# .PCD v0.7 - Point Cloud Data file format
VERSION 0.7
FIELDS x y z
SIZE 4 4 4
TYPE F F F
COUNT 1 1 1
WIDTH 336
HEIGHT 1
VIEWPOINT 0 0 0 1 0 0 0
POINTS 336
DATA ascii
-2.0659249 0.41885099 0.53878403
-2.055764 0.42452601 0.53827298
-2.0595875 0.41746449 0.54414201
-2.093648 0.443865 0.54938298
-2.0415061 0.41548699 0.55210602
-2.0645249 0.426669 0.55333698
-2.074245 0.43961599 0.55061299
-2.050863 0.40946299 0.55942202
-2.05585 0.43571499 0.55833399
-2.0583379 0.44150701 0.55712497
-2.0893769 0.463635 0.55714899
-2.052278 0.41884199 0.56377399
-2.0736721 0.42350599 0.56250298
-2.0421472 0.42288148 0.56109047
-2.0662439 0.43421799 0.56472498
-2.053648 0.447947 0.56312102
-2.074743 0.45414701 0.56048799
-2.0896051 0.46105099 0.56339502
-2.0572901 0.408865 0.565584
-2.0130091 0.41237101 0.56665403
-2.0594349 0.41780001 0.56985098
-2.0369551 0.41623399 0.56912899
-2.0215499 0.42036501 0.56870401
-2.055424 0.44576201 0.56857002
-2.044806 0.45527101 0.56550503
-2.0885489 0.47604799 0.56804401
-2.094198 0.48955801 0.56903797
-2.0348029 0.41237199 0.57350999
-2.0717299 0.42788699 0.57196897
-2.0668199 0.443553 0.57321298
-2.0519149 0.452499 0.57255203
-2.049619 0.414105 0.57872498
-2.0213921 0.41035399 0.57679802
-2.0379491 0.415656 0.57660198
-2.0251 0.41726199 0.57561898
-2.052377 0.42506501 0.57929802
-2.0378809 0.43387601 0.57629299
-2.047369 0.43574101 0.57692701
-2.069541 0.44019201 0.57678199
-2.0340171 0.441055 0.57633698
-2.060765 0.44959 0.57834101
-2.0316789 0.447887 0.57953298
-2.0495169 0.46463299 0.57739902
-2.063221 0.46779299 0.57997698
-2.085561 0.47823799 0.57740599
-2.065387 0.502918 0.57757097
-2.0833001 0.52412099 0.57822102
-2.035311 0.40034899 0.58452499
-2.050736 0.40663499 0.58377099
-2.037606 0.40665799 0.580841
-2.054348 0.41094601 0.58450001
-2.0548301 0.429611 0.584674
-2.0337229 0.4321925 0.58360249
-2.050535 0.43631101 0.58429301
-2.038043 0.43842801 0.58343101
-2.050173 0.45921701 0.583462
-2.0126719 0.45678899 0.58250999
-2.0564311 0.46034101 0.58158898
-2.0682981 0.491465 0.58288997
-2.0577619 0.40325001 0.58640099
-2.045979 0.40308899 0.58618498
-2.0377159 0.404921 0.58535999
-2.041261 0.40777501 0.58930498
-2.0612569 0.419076 0.58565903
-2.0517819 0.429506 0.58784902
-2.0642331 0.437498 0.58541203
-2.0616331 0.45592901 0.58818698
-2.0590391 0.48407799 0.58520198
-2.05404 0.399488 0.59392101
-2.04426 0.397122 0.59351599
-2.066669 0.40089801 0.59403199
-2.030632 0.40001601 0.59115702
-2.0243621 0.40250599 0.59127802
-2.0652709 0.407704 0.59074301
-2.064173 0.428204 0.59113097
-2.0670531 0.431568 0.59224802
-2.0545089 0.43313199 0.59212703
-2.04515 0.43502 0.59481603
-2.0474629 0.441266 0.59301102
-2.048295 0.45265001 0.59247702
-2.0424609 0.45263901 0.59008098
-2.030093 0.45220399 0.591133
-2.0654099 0.45687801 0.59105998
-2.055285 0.46496299 0.59195602
-2.0267661 0.46408799 0.593247
-2.0646031 0.48281601 0.59063399
-2.0815179 0.49542499 0.59141701
-2.072819 0.50673997 0.59276098
-2.0341899 0.39097399 0.59971201
-2.0739241 0.39794701 0.59564698
-2.0541871 0.396905 0.59930998
-2.040586 0.39728701 0.59984702
-2.041111 0.419846 0.59922898
-2.031332 0.41690099 0.59841198
-2.0800099 0.431045 0.59752601
-2.050225 0.44142199 0.59949702
-2.0466111 0.44746101 0.59908903
-2.0338399 0.449954 0.59840697
-2.0284679 0.44985601 0.59611499
-2.0587649 0.45147401 0.599976
-1.998495 0.45121399 0.59514803
-2.047226 0.46827599 0.59785002
-2.0276971 0.469843 0.59887999
-2.0523851 0.47717601 0.59571499
-2.04915 0.51157302 0.598382
-2.0861909 0.52371198 0.59797198
-2.0462959 0.39314201 0.60464799
-2.056983 0.400471 0.60280102
-2.0423501 0.401326 0.60273302
-2.046515 0.40889701 0.60110301
-2.0531919 0.41497299 0.60111398
-2.033746 0.41642699 0.60023099
-2.026423 0.41668701 0.60453802
-2.0373199 0.42452699 0.60296202
-2.086889 0.42870301 0.60149997
-2.0465729 0.442855 0.602624
-2.0564461 0.46830499 0.60316002
-2.0375521 0.469538 0.60323501
-2.0868809 0.52979499 0.60041398
-2.0704679 0.39222899 0.60715097
-2.0615611 0.41308501 0.608778
-2.050071 0.41099399 0.60879201
-2.040199 0.41352701 0.60755402
-2.0668521 0.41730699 0.60708702
-2.053617 0.41818801 0.60775101
-2.10009 0.42208099 0.60815901
-2.035291 0.424909 0.60701102
-2.0632479 0.43464401 0.606489
-2.0471799 0.43745801 0.60818899
-2.0631289 0.442718 0.60704398
-2.059026 0.440485 0.60598898
-2.0503061 0.444657 0.607104
-2.0442641 0.44292301 0.60971999
-2.041249 0.45166099 0.60891402
-2.0425501 0.45746601 0.60672498
-2.044266 0.46432799 0.60756999
-2.0261691 0.46335399 0.60592902
-2.024224 0.466667 0.60960901
-2.06128 0.473564 0.60533899
-2.0498061 0.480335 0.60557199
-2.021852 0.480288 0.60696
-2.0607181 0.490118 0.60563302
-2.0483379 0.494012 0.60983998
-2.05931 0.49638 0.605645
-2.054776 0.496696 0.60811597
-2.0774741 0.51261097 0.60542899
-2.0379131 0.51651102 0.60904503
-2.1011331 0.55319899 0.60820198
-2.0567479 0.41362 0.61306298
-2.027354 0.43345299 0.61229998
-2.062423 0.436391 0.61405301
-2.0362439 0.43660301 0.61227298
-2.04562 0.453233 0.61431998
-2.0426869 0.45861101 0.61388499
-2.0296381 0.46147901 0.61338401
-2.017694 0.46210101 0.61005098
-2.059926 0.478239 0.61462498
-2.059391 0.48383901 0.612203
-2.038795 0.48453 0.613877
-2.0236681 0.48152101 0.61397302
-2.0421889 0.49354699 0.61488199
-2.0436251 0.52707201 0.61211002
-2.0515959 0.40055999 0.61730403
-2.038481 0.41782701 0.61671197
-2.0486209 0.426696 0.61582702
-2.066772 0.43936101 0.61580002
-2.0544231 0.43543401 0.61963999
-2.0333779 0.44127899 0.61661899
-2.0826089 0.44565701 0.61510801
-2.0608339 0.458814 0.61625999
-2.045675 0.45969701 0.61785102
-2.041364 0.45620501 0.61739898
-2.0512581 0.48067999 0.61813301
-2.032053 0.48587799 0.61698902
-2.0571489 0.49024999 0.61961699
-2.044327 0.49570799 0.61918801
-2.0672021 0.521254 0.61544901
-2.073431 0.52979797 0.61944002
-2.0160069 0.38615701 0.62155998
-2.010236 0.394878 0.62156898
-2.048908 0.39630201 0.62417603
-2.05267 0.40342501 0.62317401
-2.0308681 0.407931 0.62463301
-2.0460999 0.422501 0.62366301
-2.0361381 0.429932 0.62159199
-2.0299001 0.44003499 0.620408
-2.0583341 0.45084399 0.62020302
-2.053879 0.452766 0.620848
-2.076875 0.45964101 0.62139499
-2.046103 0.45618299 0.62208003
-2.04002 0.45973399 0.62321401
-2.0333469 0.45570001 0.62207001
-2.051779 0.467825 0.62208402
-2.055649 0.47961301 0.62476802
-2.040236 0.47600701 0.62266302
-2.0427301 0.48314399 0.62152803
-2.0560429 0.50210899 0.62068099
-2.0372601 0.50337702 0.62214297
-2.054018 0.50994301 0.62065703
-2.0482559 0.51189899 0.622702
-2.039319 0.51051998 0.62096202
-2.0590019 0.53012902 0.62099999
-2.0477149 0.53267002 0.621997
-2.0326209 0.53007501 0.62405699
-2.070622 0.54373997 0.62229002
-2.003119 0.39116499 0.62834901
-2.0307081 0.41011801 0.62724602
-2.0647819 0.42139301 0.62507302
-2.078274 0.42992601 0.62548202
-2.0518799 0.43037701 0.62610698
-2.042661 0.44415501 0.62856799
-2.0313759 0.453361 0.62531698
-2.0544419 0.45599401 0.62738198
-2.0449531 0.46482101 0.62617499
-2.038763 0.46976 0.628681
-2.0478301 0.47942501 0.62910402
-2.070477 0.49481699 0.62764901
-2.0559909 0.49502301 0.62884402
-2.034842 0.49576199 0.62878102
-2.054436 0.50017601 0.62603199
-2.037909 0.51050103 0.62848997
-2.0631199 0.53823501 0.62969702
-2.066788 0.55249298 0.62723899
-2.0139091 0.375631 0.63249099
-2.038105 0.415984 0.630611
-2.0209391 0.41661999 0.63393801
-2.0346129 0.434329 0.63069099
-2.04405 0.43841901 0.63054001
-2.0489991 0.44929901 0.63408899
-2.0625689 0.45088601 0.630777
-2.041662 0.47639 0.63185698
-2.0730419 0.482494 0.63327801
-2.0484121 0.480158 0.63033903
-2.0460711 0.493056 0.63310701
-2.0539529 0.497821 0.630898
-2.0530181 0.50693601 0.63389599
-2.038847 0.51108098 0.63280302
-2.051065 0.52556902 0.63043398
-2.0448761 0.53078097 0.63464701
-2.0561271 0.53797901 0.633977
-2.069387 0.54698402 0.633452
-2.007051 0.379509 0.639853
-2.04213 0.43400699 0.63853401
-2.0513451 0.43746001 0.63827002
-2.0390601 0.442505 0.63962102
-2.0558159 0.45280099 0.63681901
-2.0233181 0.45544499 0.63600701
-2.039181 0.46064201 0.638152
-2.0487311 0.465047 0.63570702
-2.0418999 0.46770799 0.63705701
-2.0357771 0.47654501 0.63670701
-2.0395181 0.48006901 0.63968098
-2.0503981 0.49306801 0.63966
-2.038496 0.49475601 0.636617
-2.060245 0.50321901 0.63762897
-2.048568 0.51693201 0.63840246
-2.0487249 0.52350599 0.63566899
-2.0411739 0.524149 0.63870502
-2.0541911 0.536843 0.63877898
-2.057014 0.54444802 0.638385
-2.0650809 0.54809999 0.63885301
-2.0141871 0.400332 0.64157802
-2.0253589 0.42512399 0.64053601
-2.0307441 0.45083001 0.64467102
-2.038765 0.45522401 0.64325702
-2.0520051 0.46309 0.64360303
-2.0636079 0.47297299 0.64121902
-2.0364101 0.476854 0.64396602
-2.034838 0.48091 0.64347702
-2.0423629 0.49340099 0.643668
-2.043503 0.49705699 0.643493
-2.053839 0.50350899 0.64221102
-2.0333071 0.50397599 0.64265501
-2.066468 0.51185602 0.64153999
-2.0520561 0.51180702 0.643062
-2.0051849 0.41526699 0.64610302
-2.0263851 0.42046601 0.64954603
-2.040211 0.44957101 0.64643502
-2.0107369 0.44731301 0.64975399
-2.039479 0.450142 0.645253
-2.0583661 0.462412 0.64575398
-2.040884 0.505431 0.64807999
-2.0039599 0.42793301 0.65478098
-2.0350809 0.459057 0.65350902
-2.035182 0.472233 0.65313298
-2.0435841 0.477328 0.65056598
-2.037698 0.47923401 0.65203398
-2.0497119 0.498593 0.65204
-2.0331299 0.4973405 0.65301752
-2.047529 0.50221503 0.65169901
-2.0451479 0.50652403 0.654553
-2.0342619 0.50636798 0.65170503
-2.0561979 0.520055 0.65175498
-2.0466931 0.52608901 0.650778
-2.043673 0.52866501 0.65195799
-2.0445271 0.53284901 0.65368998
-2.043432 0.53706998 0.65068102
-2.0013089 0.431741 0.65953302
-2.0387149 0.44086501 0.657646
-2.0348639 0.46328151 0.659899
-2.034869 0.46629301 0.657947
-2.026876 0.46733099 0.65864998
-2.027025 0.47316101 0.65550202
-2.0467961 0.476439 0.65837801
-2.0462511 0.48908201 0.65569597
-2.0697701 0.49651799 0.655931
-2.036895 0.50737703 0.65823197
-2.038595 0.513955 0.65664703
-2.0495601 0.52046299 0.655819
-2.04529 0.49382401 0.66472799
-2.0435939 0.49944499 0.66134298
-2.037776 0.51815748 0.66322899
-2.0595369 0.53050101 0.66229302
-1.999173 0.444415 0.66760999
-2.0191431 0.45776701 0.66526198
-2.0512681 0.461584 0.66584498
-2.0311029 0.47560999 0.66739601
-2.0480869 0.48332301 0.66810399
-2.0384369 0.489609 0.665425
-2.0334949 0.49075899 0.66701001
-2.045073 0.51049298 0.66697502
-2.028398 0.51080346 0.66731703
-2.0300281 0.51797998 0.666794
-2.0256441 0.51822799 0.66530699
-2.064214 0.523166 0.66902202
-2.018436 0.46724501 0.67008901
-2.0156491 0.47069001 0.672903
-2.013896 0.473959 0.67458498
-2.037277 0.484231 0.67108703
-2.0494549 0.50221199 0.67341501
-2.0269899 0.50320899 0.673069
-2.0518761 0.51198101 0.67347401
-2.0146971 0.46752 0.67897302
-2.0499611 0.48546299 0.67570698
-2.038681 0.51564503 0.67505598
-1.992854 0.47562101 0.69574898
