# .PCD v0.7 - Point Cloud Data file format
VERSION 0.7
FIELDS x y z
SIZE 4 4 4
TYPE F F F
COUNT 1 1 1
WIDTH 134
HEIGHT 1
VIEWPOINT 0 0 0 1 0 0 0
POINTS 134
DATA ascii
-2.5587969 0.035952002 0.093883
-2.5194919 0.015424 0.113635
-2.5506279 0.021945 0.118657
-2.5136499 0.030358 0.129197
-2.5450201 0.036315002 0.134562
-2.5334971 0.052283999 0.13248099
-2.5008299 0.0087850001 0.140358
-2.550503 0.045329001 0.145539
-2.4949689 0.02523 0.15492401
-2.539413 0.050685 0.15046699
-2.5564749 0.043726001 0.16277
-2.54461 0.060392998 0.161237
-2.501965 0.060226001 0.16032299
-2.4891069 0.041675001 0.169489
-2.550868 0.058097001 0.178675
-2.5089769 0.057815999 0.17813601
-2.467777 0.057537001 0.17761201
-2.538717 0.075456001 0.176934
-2.5483749 0.029766001 0.186764
-2.4710369 0.068052001 0.187659
-2.54526 0.072466999 0.19458
-2.4622641 0.071667001 0.193251
-2.5003181 0.052042998 0.197786
-2.4574261 0.051227 0.196099
-2.507139 0.083199002 0.204394
-2.4652441 0.082859002 0.203089
-2.4790411 0.064824998 0.205348
-2.549829 0.083564997 0.205689
-2.4978571 0.086314 0.20967799
-2.4944561 0.068488002 0.21235199
-2.5396531 0.086837001 0.210485
-2.5424149 0.093935996 0.210521
-2.478713 0.085534997 0.221407
-2.543936 0.098627999 0.221387
-2.488595 0.084932998 0.226917
-2.5340459 0.101208 0.22639
-2.4922969 0.100564 0.225449
-2.4761679 0.090829998 0.23135599
-2.51333 0.099616997 0.237179
-2.482733 0.101378 0.241483
-2.5123141 0.106173 0.248465
-2.503655 0.107913 0.25342
-2.5078909 0.112593 0.25287899
-2.53215 0.128755 0.25278199
-2.4939439 0.111745 0.26978001
-2.498095 0.122162 0.269191
-2.5430679 0.127023 0.26901901
-2.5024531 0.125569 0.26857901
-2.6477871 0.179157 0.269519
-2.5398929 0.122989 0.27050301
-2.520483 0.146263 0.27383301
-2.5233309 0.114212 0.27697301
-2.5006289 0.136041 0.27959099
-2.580271 0.16907901 0.27976701
-2.4925351 0.136411 0.284962
-2.537585 0.14010499 0.28484699
-2.520364 0.15888201 0.28417701
-2.623173 0.16934399 0.28195301
-2.6654651 0.172791 0.28090501
-2.5150001 0.159345 0.28966099
-2.517488 0.12914599 0.29253599
-2.511616 0.15868901 0.29001001
-2.509454 0.129511 0.29716101
-2.551348 0.1304 0.298711
-2.4822209 0.14463501 0.29891101
-2.5144711 0.17394599 0.29987401
-2.6171551 0.1842095 0.29741451
-2.5742779 0.1825445 0.29627401
-2.659797 0.186314 0.29726601
-2.5286779 0.15173 0.302313
-2.5575531 0.17509399 0.30203301
-2.5077624 0.17274299 0.305702
-2.6774759 0.179948 0.308651
-2.65413 0.199837 0.313627
-2.6114674 0.19828799 0.3136875
-2.568639 0.19650349 0.31240898
-2.5085781 0.189009 0.31557199
-2.551609 0.19028801 0.31786799
-2.6307831 0.219725 0.31860301
-2.5022175 0.18646899 0.32156849
-2.6506169 0.242081 0.32452899
-2.671808 0.193471 0.32501301
-2.629173 0.191696 0.32721999
-2.563549 0.208975 0.32803699
-2.522151 0.20684101 0.32708001
-2.6484621 0.213359 0.329988
-2.545665 0.205483 0.333702
-2.6059101 0.21358299 0.330917
-2.582499 0.23087101 0.33393899
-2.646682 0.184554 0.339845
-2.536902 0.20331 0.33964401
-2.4947939 0.2018 0.33772501
-2.601769 0.25313601 0.33994001
-2.48757 0.17144801 0.341773
-2.4646361 0.19396999 0.34260699
-2.4772589 0.195777 0.341842
-2.6661401 0.206994 0.34137401
-2.623419 0.206442 0.34354201
-2.516623 0.22002999 0.34303799
-2.644901 0.25571901 0.34102899
-2.5397201 0.220678 0.34953699
-2.6427939 0.226882 0.34635001
-2.6001561 0.228329 0.347238
-2.556746 0.226568 0.345231
-2.4938519 0.239428 0.34789199
-2.5350161 0.241832 0.34902
-2.452857 0.20953301 0.351852
-2.489186 0.21617 0.35363001
-2.5166221 0.242888 0.3522
-2.66273 0.249299 0.352512
-2.5768931 0.25021699 0.350934
-2.471417 0.210711 0.35740399
-2.6176651 0.22118799 0.35986301
-2.5083821 0.239315 0.35931799
-2.423903 0.206126 0.36173999
-2.4883239 0.252617 0.36384901
-2.442255 0.228807 0.36738899
-2.5712581 0.25769001 0.36638799
-2.5294421 0.25513101 0.36511001
-2.5106781 0.25808299 0.36803401
-2.61378 0.26029301 0.36768699
-2.424032 0.224096 0.370231
-2.452914 0.22686 0.37173799
-2.6119111 0.235935 0.37618399
-2.442873 0.247474 0.37558401
-2.6294711 0.225343 0.38403401
-2.4366951 0.243056 0.38316
-2.5278311 0.25106701 0.38120601
-2.447052 0.243305 0.38630399
-2.6063199 0.245065 0.388969
-2.5449851 0.24405199 0.39437699
-2.5371439 0.23977099 0.40017599
-2.562139 0.237037 0.40754899
-2.574537 0.22157399 0.41937301
