# .PCD v0.7 - Point Cloud Data file format
VERSION 0.7
FIELDS x y z
SIZE 4 4 4
TYPE F F F
COUNT 1 1 1
WIDTH 1504
HEIGHT 1
VIEWPOINT 0 0 0 1 0 0 0
POINTS 1504
DATA ascii
0.29064101 -0.137208 1.290483
0.28818649 -0.13140401 1.2924879
0.28762567 -0.12681133 1.2928438
0.28875419 -0.12236267 1.2921315
0.29092801 -0.121269 1.292183
0.28835851 -0.1174685 1.293329
0.29099149 -0.116226 1.292251
0.29100847 -0.1115155 1.2912045
0.28760701 -0.109427 1.294325
0.29120678 -0.10700525 1.2922177
0.28857401 -0.103466 1.293352
0.29122546 -0.10215166 1.2925792
0.289608 -0.098435 1.291757
0.291668 -0.097397 1.2937487
0.29192603 -0.092727005 1.2934015
0.29293603 -0.086599 1.291563
0.29240534 -0.082399003 1.2924563
0.2923924 -0.078363001 1.2920382
0.29574499 -0.075723998 1.292166
0.29367203 -0.072602004 1.292694
0.28377801 -0.14076699 1.2988729
0.28853896 -0.14387466 1.2974123
0.28729099 -0.13658576 1.2973101
0.28373399 -0.131533 1.299358
0.286874 -0.13199234 1.297371
0.283981 -0.127361 1.298354
0.28777379 -0.1271538 1.2969364
0.28808036 -0.12245888 1.2977842
0.290934 -0.122203 1.296381
0.2887575 -0.117277 1.2970645
0.29059601 -0.11734667 1.2964283
0.28933075 -0.11210075 1.298807
0.29069033 -0.11184499 1.2965983
0.28929201 -0.107892 1.299687
0.2903955 -0.10638 1.2984045
0.28841799 -0.102212 1.296595
0.29104534 -0.10183867 1.2980098
0.28956401 -0.098186493 1.2981131
0.291237 -0.097466499 1.296335
0.28992301 -0.091597997 1.2983609
0.29121566 -0.092526667 1.2963887
0.29169101 -0.086974002 1.2978326
0.2923696 -0.082979195 1.2971843
0.29237199 -0.076761 1.2974395
0.28467399 -0.145752 1.300288
0.28694299 -0.14730875 1.3022852
0.28334099 -0.14332899 1.3032399
0.28717977 -0.14230099 1.3024065
0.28093401 -0.13799199 1.304028
0.28685567 -0.13749832 1.3018597
0.278575 -0.134225 1.3039269
0.2841005 -0.1331405 1.3025985
0.28650022 -0.13206419 1.302804
0.28354201 -0.12755333 1.301597
0.2867215 -0.12787025 1.3013958
0.28765681 -0.123018 1.3023083
0.28422499 -0.119832 1.304639
0.28778976 -0.11734825 1.3025745
0.28906474 -0.11281875 1.303479
0.28846002 -0.1075525 1.3036735
0.29039869 -0.107938 1.3006673
0.28818524 -0.10293674 1.301879
0.29059049 -0.10223775 1.3029432
0.28907934 -0.098044999 1.3026297
0.290544 -0.095423996 1.304597
0.28891551 -0.093141004 1.3024321
0.29132867 -0.093278669 1.3018774
0.289343 -0.085896 1.3023175
0.29192066 -0.088696003 1.302317
0.2914142 -0.082607001 1.30207
0.28628868 -0.150993 1.3063784
0.28366399 -0.14703199 1.308383
0.28586167 -0.14605732 1.3066916
0.28583774 -0.1430165 1.3068795
0.28381628 -0.13763943 1.308237
0.28386399 -0.13424499 1.3074054
0.28607097 -0.13246535 1.308576
0.28680658 -0.12850401 1.3069
0.28722665 -0.12383234 1.3076059
0.28708932 -0.11678301 1.306971
0.2882165 -0.11305075 1.307092
0.28866655 -0.10771842 1.3081167
0.28828275 -0.102496 1.308529
0.2888625 -0.099260002 1.309644
0.29086268 -0.097306669 1.3057677
0.28898033 -0.092763335 1.3067789
0.290667 -0.093267001 1.3077821
0.289424 -0.0864475 1.308253
0.29049799 -0.088497996 1.3074594
0.29162198 -0.0843575 1.3082924
0.2841045 -0.1529355 1.3120664
0.28538334 -0.15135168 1.3114203
0.28332001 -0.14691401 1.3137698
0.28254479 -0.1423894 1.3127388
0.27999899 -0.13820601 1.310201
0.28334215 -0.13743813 1.3132999
0.279587 -0.131661 1.313718
0.28292716 -0.13289399 1.3118387
0.28584203 -0.13244534 1.3119653
0.28274047 -0.1274935 1.3143461
0.28589299 -0.12800419 1.313305
0.2837835 -0.124009 1.3130236
0.28628099 -0.12303275 1.3119035
0.28329301 -0.115587 1.310715
0.28709048 -0.1178275 1.3119841
0.28720549 -0.11269351 1.312652
0.28423399 -0.109757 1.313496
0.28702199 -0.10880625 1.3125169
0.28861099 -0.10329725 1.3111275
0.28815183 -0.097292162 1.312452
0.28877702 -0.093076602 1.3127739
0.28842333 -0.088642336 1.3133663
0.29064047 -0.087195501 1.311259
0.291201 -0.084958002 1.310853
0.28242013 -0.15722698 1.3172903
0.28263733 -0.15255167 1.3179638
0.28176874 -0.1483025 1.316751
0.27717099 -0.14111301 1.3176335
0.28184026 -0.14197728 1.3183882
0.278694 -0.138402 1.319783
0.28262752 -0.13796926 1.3172131
0.28341958 -0.13343057 1.3184376
0.28332135 -0.12796468 1.3174937
0.286102 -0.12729999 1.315995
0.278496 -0.120497 1.3185951
0.2831268 -0.1223228 1.3183334
0.28596723 -0.12281126 1.3163552
0.28433669 -0.11766867 1.3167909
0.28584042 -0.1177454 1.3174118
0.28381401 -0.114757 1.319603
0.28639549 -0.11183025 1.3179197
0.28446001 -0.107998 1.316483
0.28698316 -0.1063825 1.3163382
0.28479901 -0.103617 1.31949
0.28722712 -0.10266175 1.3174235
0.28645068 -0.097692668 1.3180556
0.28855616 -0.093045153 1.3172971
0.28841949 -0.087252498 1.3172165
0.29028201 -0.086787999 1.318969
0.27892968 -0.15716334 1.3224603
0.28106067 -0.15754899 1.3229513
0.27958265 -0.15170665 1.3220091
0.2804912 -0.15330781 1.3227522
0.27918774 -0.1464645 1.3236072
0.280882 -0.147146 1.3229233
0.27885202 -0.141774 1.3226726
0.28147826 -0.14177574 1.3221304
0.27810001 -0.139139 1.322024
0.28262386 -0.13793328 1.3226099
0.278914 -0.13197701 1.324628
0.28350067 -0.13141233 1.3226777
0.28364035 -0.12841134 1.3214432
0.27994201 -0.120209 1.323351
0.28399619 -0.123333 1.3228194
0.28315037 -0.1177762 1.3230613
0.28564751 -0.1171145 1.3207575
0.28308952 -0.1108145 1.3228486
0.28588718 -0.11270221 1.3216164
0.28478199 -0.109535 1.322032
0.28581801 -0.1066282 1.3231623
0.28587502 -0.1021935 1.3221984
0.28699899 -0.097860664 1.3221774
0.28663599 -0.093115404 1.3218272
0.28713852 -0.089552999 1.3223925
0.27927387 -0.16169934 1.3279221
0.27795267 -0.15738884 1.3277155
0.27749601 -0.15150356 1.3286287
0.27731758 -0.14706019 1.3275673
0.27873269 -0.14378034 1.326749
0.28071287 -0.14231029 1.3274289
0.27863199 -0.13795701 1.329829
0.2814106 -0.13729259 1.3283241
0.2795743 -0.13364933 1.3258086
0.28289402 -0.13326167 1.3260189
0.2815837 -0.12815271 1.3279865
0.27966601 -0.123351 1.326848
0.28342199 -0.122668 1.3271585
0.28282437 -0.11754038 1.3275027
0.285357 -0.117084 1.325279
0.28312287 -0.11211374 1.3276899
0.285126 -0.112125 1.3263805
0.286513 -0.107796 1.3271539
0.28352034 -0.10374833 1.327466
0.28627124 -0.1017655 1.3263353
0.283939 -0.098430663 1.3271719
0.28671601 -0.097814195 1.328661
0.28629601 -0.093373999 1.3270299
0.27681723 -0.16240239 1.332445
0.273994 -0.15773299 1.333972
0.27609849 -0.1576505 1.3326298
0.27402499 -0.15244333 1.3325671
0.27582768 -0.15236133 1.3336039
0.27476799 -0.149874 1.334573
0.27763277 -0.14678112 1.3315628
0.27815479 -0.1430006 1.3328072
0.28180799 -0.140578 1.33092
0.27744049 -0.137541 1.3337233
0.2809 -0.135702 1.3313575
0.27830499 -0.13259751 1.3332214
0.28097489 -0.13205744 1.3324516
0.28138298 -0.12795541 1.3329461
0.27639699 -0.121744 1.333048
0.281993 -0.12302728 1.3312695
0.28207314 -0.11752612 1.3330956
0.28241038 -0.11234637 1.3325273
0.28383881 -0.1066704 1.331679
0.28380546 -0.10220101 1.332379
0.28632501 -0.103007 1.3303649
0.284509 -0.098755002 1.331867
0.28729299 -0.096101999 1.331247
0.28465101 -0.092949003 1.330882
0.27374771 -0.16737571 1.3366255
0.275249 -0.16649634 1.3364353
0.27354962 -0.1622868 1.3375652
0.27500001 -0.16236 1.338225
0.269279 -0.156086 1.336045
0.27329519 -0.1569168 1.338632
0.27318293 -0.15333922 1.3384559
0.2759496 -0.15173438 1.3354623
0.27442232 -0.14784233 1.336875
0.27660137 -0.14748624 1.3380181
0.27496299 -0.142483 1.3390779
0.276952 -0.14298925 1.3379105
0.27861127 -0.13779651 1.3363678
0.27849314 -0.13285637 1.3385746
0.278988 -0.12863059 1.3367412
0.28079051 -0.1274415 1.3361731
0.27902141 -0.1229108 1.3380563
0.28135818 -0.1233628 1.3370287
0.278155 -0.1184225 1.3366721
0.28095821 -0.117603 1.3389373
0.27892151 -0.112409 1.3387038
0.28219482 -0.111698 1.3367639
0.28272179 -0.10683134 1.3371586
0.28236321 -0.1022588 1.3378264
0.28551799 -0.101358 1.335939
0.28208801 -0.099573001 1.336795
0.2854155 -0.098147497 1.3361881
0.27268866 -0.16751666 1.3422751
0.27129683 -0.16213384 1.3427612
0.26870999 -0.156287 1.342036
0.27111423 -0.15760337 1.3426208
0.27356598 -0.1515858 1.3424071
0.2744275 -0.14792199 1.3427685
0.27599832 -0.14737166 1.3433417
0.274225 -0.14408633 1.3441602
0.27682549 -0.14212351 1.3411945
0.274129 -0.138688 1.343536
0.27704433 -0.13724956 1.3426373
0.27685574 -0.13212825 1.3424594
0.27789918 -0.12753174 1.3428527
0.27338201 -0.124331 1.340434
0.27900168 -0.12220967 1.3438373
0.279596 -0.116521 1.3420581
0.28103301 -0.117905 1.340062
0.27886277 -0.112356 1.3429888
0.2807278 -0.1119318 1.3418716
0.27948326 -0.10633349 1.3420981
0.28223899 -0.107479 1.3421383
0.28327399 -0.102709 1.340691
0.26896638 -0.17206201 1.3474772
0.27104902 -0.1725246 1.3467767
0.269851 -0.165987 1.347502
0.27070624 -0.16849799 1.3473577
0.26882452 -0.16215599 1.3475295
0.27013099 -0.163225 1.347719
0.267923 -0.1587885 1.3483694
0.27199855 -0.15629199 1.3463795
0.26980901 -0.154678 1.346194
0.27241609 -0.15256371 1.3484211
0.27332988 -0.14723149 1.347231
0.27390233 -0.14242549 1.3476042
0.27536249 -0.1418985 1.3463895
0.27431542 -0.13858639 1.3476982
0.275621 -0.137511 1.348467
0.27440453 -0.1317495 1.347464
0.27644137 -0.13308936 1.3470837
0.274681 -0.125626 1.345539
0.27687055 -0.12711315 1.3480979
0.27739102 -0.1227555 1.3465885
0.27825597 -0.11705 1.3467655
0.27818343 -0.11272282 1.3478365
0.28016099 -0.110631 1.3492351
0.27786049 -0.1094085 1.3495375
0.28137875 -0.10679062 1.3461913
0.28128001 -0.103705 1.346473
0.268419 -0.17234433 1.3513788
0.26334849 -0.16570851 1.3532835
0.26667818 -0.16742915 1.3519297
0.26738802 -0.16254614 1.3531641
0.27038699 -0.160744 1.350386
0.26886851 -0.15777983 1.3513309
0.27089885 -0.15663899 1.3529087
0.26939198 -0.15279634 1.3511606
0.27139276 -0.15366925 1.35245
0.26980901 -0.145689 1.353068
0.27203226 -0.14649735 1.3522893
0.273049 -0.14167534 1.352827
0.27305827 -0.13745749 1.3524897
0.275071 -0.13672601 1.350504
0.27405363 -0.1324046 1.3522239
0.275354 -0.13160649 1.3517101
0.2738384 -0.12818339 1.3526913
0.275866 -0.128543 1.3508165
0.27482301 -0.124751 1.351552
0.2765632 -0.12268223 1.3520257
0.27646047 -0.11719467 1.3530626
0.27380201 -0.114615 1.351328
0.27711719 -0.1124198 1.3525131
0.27855802 -0.1085708 1.3517412
0.28011301 -0.108303 1.352773
0.26621321 -0.1763602 1.3563424
0.261767 -0.17096899 1.3575079
0.2662136 -0.1723824 1.3565985
0.26406261 -0.16694519 1.3582308
0.26555482 -0.167272 1.3582783
0.26159048 -0.16212 1.3562624
0.26675576 -0.16188601 1.356761
0.26829135 -0.15777746 1.3578519
0.26848599 -0.1534825 1.3580871
0.27115974 -0.15155074 1.3556485
0.2677075 -0.14925301 1.359069
0.27098557 -0.14794014 1.3567055
0.268529 -0.1417985 1.3575865
0.2711269 -0.14320076 1.3576767
0.27222735 -0.13797 1.3578773
0.27262065 -0.13302149 1.3572798
0.2736845 -0.12787113 1.3572772
0.27505001 -0.126228 1.355428
0.27371526 -0.12186988 1.3579491
0.27521551 -0.121114 1.3579061
0.27467 -0.118513 1.3553391
0.27560076 -0.1174495 1.3572479
0.27406201 -0.114747 1.359936
0.27658162 -0.1126078 1.3570006
0.27638859 -0.10884039 1.3568354
0.26208308 -0.18172327 1.3634299
0.26514399 -0.180198 1.360983
0.26396233 -0.17744283 1.361256
0.26528901 -0.175548 1.360692
0.25985801 -0.1726945 1.3628936
0.26254389 -0.17235263 1.3626471
0.25975049 -0.16595051 1.3636224
0.26258451 -0.16745774 1.3634129
0.26376501 -0.162726 1.362308
0.26631033 -0.16260853 1.3613533
0.264451 -0.15770167 1.3629956
0.26723188 -0.15742911 1.3631309
0.26845348 -0.15173583 1.3621893
0.26454699 -0.14867599 1.361859
0.26854515 -0.14810972 1.3622962
0.26853821 -0.14332861 1.3633372
0.27113 -0.141506 1.361071
0.268738 -0.13854223 1.3638332
0.2707195 -0.13804449 1.3616503
0.26905799 -0.13491599 1.361016
0.27122799 -0.13331571 1.3625501
0.27221239 -0.12679663 1.3623224
0.27248064 -0.122272 1.3631935
0.27334714 -0.11795215 1.3623537
0.27559969 -0.116994 1.3612677
0.274122 -0.11308201 1.361675
0.27574199 -0.113673 1.360096
0.25921926 -0.18335325 1.3681602
0.26134151 -0.181391 1.36667
0.25814742 -0.17733216 1.369311
0.260564 -0.17620766 1.3656083
0.25802335 -0.17218666 1.3685113
0.26095411 -0.17194635 1.3670309
0.25755799 -0.16956501 1.367782
0.26212612 -0.16749519 1.3674979
0.26329622 -0.16212162 1.3674028
0.265452 -0.160748 1.368162
0.26437816 -0.156986 1.3687443
0.26692301 -0.155532 1.366148
0.261834 -0.152458 1.3691519
0.26664746 -0.15212657 1.3665694
0.26434499 -0.149865 1.3680381
0.26657823 -0.14738455 1.3678752
0.26721072 -0.14257629 1.3681538
0.26858398 -0.13754566 1.3674998
0.27003601 -0.139594 1.365862
0.26895487 -0.13191038 1.3678552
0.270951 -0.131835 1.365396
0.26938966 -0.12643366 1.3674706
0.27123016 -0.12804833 1.3669018
0.271622 -0.1228357 1.3677979
0.27370498 -0.11741199 1.3679742
0.27144402 -0.1142545 1.3664825
0.25720453 -0.1871393 1.3723716
0.25361401 -0.181153 1.372704
0.25738615 -0.18223417 1.3724838
0.253923 -0.1763965 1.3709085
0.25617474 -0.17810401 1.3735949
0.25434935 -0.17433767 1.374126
0.25839937 -0.17175324 1.3720762
0.26005799 -0.17081501 1.374895
0.25878781 -0.1681008 1.3728174
0.26165035 -0.16636625 1.3715644
0.25893769 -0.16386466 1.37442
0.26238102 -0.16204858 1.373134
0.26277927 -0.15838914 1.372255
0.26550999 -0.15713701 1.3710921
0.26405269 -0.15232545 1.3719723
0.26537499 -0.150455 1.3730741
0.2634635 -0.14862099 1.3732971
0.26576799 -0.14573166 1.37297
0.264018 -0.14210275 1.3732247
0.26687703 -0.14233899 1.3713337
0.26689041 -0.13776056 1.3730985
0.26767311 -0.13293637 1.3716563
0.26821566 -0.12764019 1.3732406
0.27026451 -0.12597451 1.3705519
0.26839 -0.124797 1.3714
0.27125138 -0.12170663 1.3720287
0.27104551 -0.119185 1.371325
0.25413966 -0.18659467 1.3771147
0.25358269 -0.18272969 1.3778236
0.25348961 -0.17751437 1.3790113
0.25647464 -0.17594735 1.3763729
0.25659963 -0.17297034 1.3774174
0.258082 -0.16828457 1.377136
0.26053569 -0.16617733 1.3767043
0.25940782 -0.1624324 1.37736
0.26041424 -0.16311926 1.3785275
0.25940001 -0.1573045 1.3784297
0.26204732 -0.15637623 1.376611
0.26275301 -0.15229233 1.3778353
0.26302528 -0.14819381 1.3779052
0.26543301 -0.145035 1.377737
0.26321599 -0.14210801 1.3779664
0.26539966 -0.14165634 1.3768072
0.26391658 -0.1368646 1.3780597
0.26550651 -0.13777649 1.3774209
0.26412699 -0.134673 1.3774379
0.26619399 -0.13207461 1.3770704
0.26739132 -0.1264665 1.378486
0.26902473 -0.1239545 1.375692
0.27040201 -0.122887 1.375716
0.24875766 -0.19223599 1.3831526
0.24934825 -0.18785524 1.3833247
0.25156891 -0.18713701 1.3813738
0.2475125 -0.18174049 1.38311
0.25117409 -0.1815474 1.3829629
0.25285321 -0.1778439 1.3821101
0.25527 -0.17590749 1.3826082
0.25432834 -0.17333199 1.3828307
0.25598466 -0.17148118 1.3828062
0.25454101 -0.16826899 1.384339
0.25746167 -0.16728055 1.3816675
0.25758541 -0.16282141 1.3830668
0.25821418 -0.15680982 1.3828255
0.26035765 -0.15759666 1.381278
0.25980666 -0.15319833 1.3815727
0.26039585 -0.15328242 1.3827362
0.261269 -0.14775075 1.382705
0.26214427 -0.14235437 1.3826363
0.259666 -0.138844 1.38133
0.26335073 -0.13796088 1.3823575
0.265154 -0.13747799 1.381145
0.26337457 -0.13292722 1.383455
0.26536167 -0.13193201 1.3820276
0.264498 -0.12871149 1.380712
0.26569724 -0.12794626 1.3818734
0.266736 -0.12466 1.383068
0.24466 -0.190154 1.387342
0.24773386 -0.19325615 1.3876597
0.25051033 -0.192627 1.3861374
0.2473155 -0.18674038 1.388404
0.242902 -0.18464001 1.38741
0.24856807 -0.18244442 1.3871146
0.25015551 -0.1818995 1.389398
0.24880323 -0.17849025 1.3891075
0.25220284 -0.17765367 1.3867139
0.2526232 -0.17302963 1.3885702
0.25522599 -0.17036666 1.3854872
0.25463551 -0.16646701 1.3863558
0.25572899 -0.16649066 1.3870484
0.25450519 -0.16345601 1.3875124
0.25566635 -0.16191883 1.3888258
0.25801212 -0.15795264 1.3862664
0.25766355 -0.15237045 1.388315
0.26074299 -0.15006299 1.386085
0.25852451 -0.14749266 1.3877727
0.26043099 -0.14759201 1.3863176
0.25821733 -0.142563 1.3886967
0.26042613 -0.14265434 1.3874307
0.26145199 -0.13677187 1.3875879
0.26273212 -0.13284887 1.3875334
0.266164 -0.130771 1.385604
0.26339799 -0.12773874 1.3873622
0.265829 -0.12772551 1.3862875
0.24395858 -0.19202557 1.3936816
0.24636224 -0.19262326 1.390799
0.238176 -0.187134 1.394313
0.24349649 -0.18844199 1.3937788
0.245877 -0.1877176 1.3909719
0.24482501 -0.181187 1.392122
0.24700099 -0.18319659 1.3927464
0.250346 -0.180723 1.3912261
0.24874173 -0.17726001 1.3925878
0.25074524 -0.17663725 1.3922693
0.249143 -0.174154 1.3931689
0.25060502 -0.1728912 1.3941145
0.2496075 -0.1692055 1.392635
0.25248286 -0.16777878 1.3915783
0.252729 -0.1626326 1.393649
0.25537848 -0.160841 1.3905704
0.25327864 -0.158115 1.392889
0.25553456 -0.15701701 1.3917408
0.25464249 -0.151756 1.3913535
0.25583482 -0.1528168 1.3930271
0.2571063 -0.14748359 1.3920658
0.25805271 -0.1416932 1.3934368
0.25932986 -0.1367683 1.3925546
0.26111549 -0.13673499 1.391245
0.26181602 -0.13290937 1.3922282
0.239776 -0.19809 1.3996921
0.24204734 -0.19789855 1.3968744
0.239636 -0.19028901 1.398857
0.24163648 -0.1914967 1.3975208
0.24335599 -0.18705429 1.3973781
0.24505199 -0.186358 1.396889
0.24423179 -0.1827544 1.3988166
0.24634358 -0.18232441 1.3980685
0.24768659 -0.1779722 1.3966401
0.24769083 -0.17317037 1.3984135
0.25028402 -0.17143899 1.395085
0.24852334 -0.16824101 1.3975157
0.25090089 -0.16758762 1.3967891
0.24897735 -0.16317333 1.3979613
0.25085399 -0.16219577 1.3984123
0.25266311 -0.15763745 1.3968555
0.25320566 -0.15302218 1.3979198
0.25539103 -0.150562 1.3955063
0.25376451 -0.14795025 1.3988919
0.25579664 -0.14672001 1.3970686
0.254816 -0.141436 1.399063
0.25639337 -0.14274888 1.397329
0.25805798 -0.13731115 1.3970861
0.25754499 -0.134178 1.396517
0.23771171 -0.20253411 1.4019589
0.232402 -0.196647 1.403131
0.23786001 -0.19734542 1.4026203
0.240025 -0.19513801 1.400568
0.2382571 -0.19198941 1.4026614
0.242342 -0.1916745 1.402074
0.23870899 -0.18884633 1.4030319
0.2419543 -0.18706778 1.4018676
0.24254423 -0.18308088 1.403214
0.24374802 -0.17768359 1.4025366
0.24591728 -0.17774428 1.4019585
0.24468499 -0.17309535 1.4034114
0.24658312 -0.17153975 1.4031055
0.244527 -0.16820399 1.402408
0.24811046 -0.16725956 1.4018836
0.24795024 -0.16315649 1.4028301
0.2510165 -0.1617835 1.4003921
0.24870449 -0.15928751 1.4047425
0.25074643 -0.15722121 1.4016075
0.249991 -0.15162 1.404838
0.25132263 -0.15240763 1.4026394
0.25271466 -0.14711255 1.4022167
0.25384575 -0.14362401 1.4030964
0.25546825 -0.14055474 1.4015319
0.25582081 -0.13779581 1.4030012
0.23375678 -0.2022436 1.4075556
0.23517901 -0.20248351 1.4069514
0.23314938 -0.19740178 1.4082574
0.235369 -0.197118 1.405831
0.23403524 -0.19370225 1.4088488
0.2371102 -0.1926409 1.4071772
0.23831388 -0.18756029 1.4080105
0.24034181 -0.187795 1.4060998
0.23922102 -0.18202369 1.4081316
0.24137861 -0.18242072 1.4071603
0.239931 -0.179253 1.409674
0.24248791 -0.17666881 1.4071766
0.242902 -0.172544 1.4088869
0.245968 -0.173912 1.4050961
0.24403802 -0.16777459 1.4074939
0.24585 -0.167703 1.4068053
0.24474749 -0.1628975 1.4085364
0.24646001 -0.16197264 1.4080224
0.2480714 -0.15771109 1.4069121
0.24854082 -0.15327348 1.4081041
0.25091502 -0.15167101 1.4052805
0.2483165 -0.14885199 1.407858
0.25103888 -0.1469785 1.4072565
0.252628 -0.14240067 1.4070829
0.255326 -0.142846 1.405647
0.2531715 -0.13934401 1.4076195
0.22891955 -0.20723437 1.4133769
0.23164749 -0.20758301 1.4109609
0.228467 -0.202058 1.412357
0.23138273 -0.20274699 1.4109442
0.22832499 -0.197514 1.414134
0.23149128 -0.197227 1.4125277
0.23403853 -0.19309056 1.413035
0.23512633 -0.19187267 1.4124731
0.23448449 -0.1895425 1.4122856
0.23721065 -0.18717909 1.4118565
0.23793203 -0.18201877 1.4131129
0.23881267 -0.17931835 1.41264
0.24069786 -0.17743716 1.4112588
0.23911834 -0.17366333 1.4135145
0.24162565 -0.17244937 1.4123282
0.239654 -0.16919 1.414555
0.24300599 -0.16601712 1.4122977
0.24317698 -0.1626952 1.4135954
0.24598899 -0.16045301 1.411001
0.24389833 -0.15816168 1.4130274
0.24595816 -0.157483 1.4117138
0.244885 -0.152652 1.414719
0.24665809 -0.15261954 1.4131737
0.24854776 -0.14747639 1.4122622
0.24933299 -0.144262 1.4126199
0.25163966 -0.14327 1.4109997
0.223924 -0.21022899 1.419965
0.221839 -0.209088 1.419638
0.22635248 -0.20756501 1.4173301
0.223342 -0.201214 1.41635
0.22676046 -0.20221165 1.4171766
0.22889273 -0.1979591 1.4179704
0.23151949 -0.195831 1.4165
0.23199967 -0.19275631 1.4167249
0.23310749 -0.18847302 1.4174339
0.23533551 -0.18747251 1.4153897
0.23459199 -0.18271475 1.4184225
0.23549747 -0.18292415 1.4180369
0.23423299 -0.178655 1.4190769
0.23712172 -0.17714836 1.4172616
0.23764709 -0.17223954 1.4183869
0.23883533 -0.16866131 1.4174713
0.24079643 -0.16833214 1.4159491
0.239843 -0.1630435 1.4185669
0.24134836 -0.16241673 1.4175807
0.24275821 -0.15759288 1.4174545
0.24379635 -0.15288776 1.4182754
0.24577899 -0.15024801 1.415953
0.242616 -0.14913 1.419821
0.24668883 -0.14852999 1.4170114
0.248781 -0.142995 1.415334
0.21744899 -0.211703 1.420357
0.22245409 -0.21241218 1.4220383
0.219758 -0.208095 1.424731
0.2227598 -0.2068599 1.4222643
0.22311449 -0.20317434 1.4233164
0.22615789 -0.20149076 1.4214145
0.22684336 -0.19724271 1.4231279
0.2291299 -0.19329834 1.4221866
0.23068567 -0.19195867 1.4209739
0.22918081 -0.1887424 1.4242079
0.2313807 -0.1867137 1.4222229
0.23227167 -0.18191041 1.4224659
0.23382759 -0.17727861 1.422604
0.23554049 -0.17778924 1.4209945
0.23333865 -0.17418735 1.4235326
0.23560984 -0.17265014 1.422381
0.234807 -0.169604 1.424394
0.23721765 -0.16667463 1.4223909
0.23796199 -0.16251718 1.4232211
0.23819649 -0.15927076 1.4237795
0.24071074 -0.15703791 1.4219812
0.24185057 -0.15272887 1.42265
0.24531449 -0.1520315 1.4223471
0.243007 -0.1498795 1.4218695
0.24540401 -0.14869501 1.420325
0.214825 -0.218068 1.429227
0.21717575 -0.21178949 1.4283264
0.21841049 -0.20801878 1.4271294
0.22042777 -0.20611489 1.4266659
0.22519401 -0.20599701 1.42698
0.22245958 -0.20282634 1.4272466
0.22418098 -0.198146 1.4274429
0.226643 -0.19661599 1.42612
0.224208 -0.1947225 1.429343
0.2268209 -0.19110492 1.4272535
0.22788331 -0.18739828 1.427833
0.22861157 -0.18370534 1.4279249
0.23043561 -0.18277779 1.4265182
0.22949159 -0.17859879 1.4290609
0.23188508 -0.1768214 1.4270221
0.23279598 -0.17240387 1.4277235
0.23395015 -0.16784768 1.4269422
0.23558849 -0.168422 1.4254196
0.23457 -0.16331425 1.4284137
0.23622288 -0.16275775 1.4268433
0.23494101 -0.157674 1.429898
0.23759556 -0.15750645 1.4279357
0.23901968 -0.15418167 1.426857
0.241107 -0.151775 1.4254301
0.209319 -0.21601599 1.433453
0.21202067 -0.21714401 1.4333351
0.21296963 -0.21303844 1.4328122
0.21520051 -0.21318349 1.4312263
0.21440385 -0.20889728 1.4337796
0.2171447 -0.20723394 1.4324528
0.2185252 -0.2027169 1.4335952
0.22088321 -0.2015084 1.4313016
0.219191 -0.198127 1.4334739
0.22163782 -0.19722123 1.4324933
0.22366256 -0.1930251 1.4317466
0.225159 -0.19249099 1.4301029
0.22426745 -0.18837811 1.4329377
0.22657984 -0.187648 1.4314679
0.224849 -0.1824175 1.434834
0.22709711 -0.18151645 1.4323719
0.22801998 -0.17748831 1.4332075
0.2309 -0.17595001 1.431621
0.22898914 -0.17281428 1.4328123
0.23056366 -0.17274134 1.431285
0.22929625 -0.168622 1.4342912
0.23206383 -0.16721742 1.4314733
0.23244484 -0.16211 1.4331669
0.235107 -0.160368 1.430562
0.23328325 -0.159151 1.4322532
0.23604167 -0.15786533 1.4322764
0.240033 -0.156133 1.431016
0.233514 -0.152986 1.4330029
0.204845 -0.220321 1.43976
0.20832412 -0.22241023 1.4373895
0.20812611 -0.21777755 1.4376394
0.2113325 -0.2169365 1.4368429
0.20903301 -0.213181 1.4387823
0.21218637 -0.21190013 1.4369022
0.21301961 -0.2082729 1.4383322
0.21533981 -0.20546639 1.4369818
0.214165 -0.202071 1.439137
0.21632263 -0.20271838 1.4372028
0.21817188 -0.19785801 1.4374545
0.21887057 -0.19303043 1.4388163
0.22153771 -0.19143887 1.4361495
0.22213782 -0.18707241 1.4377791
0.22417012 -0.18330014 1.4367573
0.225206 -0.183961 1.435719
0.22455384 -0.17850466 1.4386144
0.2260222 -0.17692681 1.4365927
0.2267524 -0.17193401 1.4374977
0.22800075 -0.16728388 1.4385856
0.230341 -0.166346 1.435949
0.22893248 -0.16272551 1.437543
0.23068039 -0.16292161 1.4365288
0.228553 -0.156663 1.439361
0.23183343 -0.15826657 1.4371041
0.2033014 -0.2228473 1.4432613
0.205937 -0.22101501 1.4410239
0.20335519 -0.21742399 1.4438249
0.20641299 -0.21676452 1.4414448
0.20760956 -0.2131566 1.4421725
0.2103 -0.21039599 1.4424345
0.20897701 -0.20918961 1.44293
0.21174836 -0.20695363 1.4415629
0.21276082 -0.20279358 1.443035
0.21592101 -0.20096025 1.4403623
0.2134345 -0.19741574 1.4437183
0.21552761 -0.19617 1.442003
0.21642268 -0.19220157 1.4428855
0.21865273 -0.18796606 1.442378
0.21843065 -0.18332334 1.4443792
0.22156563 -0.18172489 1.4415549
0.22230466 -0.17705145 1.442724
0.22518 -0.17531601 1.440348
0.22312979 -0.17347701 1.4426959
0.225081 -0.173611 1.4413409
0.22413816 -0.16863318 1.4434139
0.22610721 -0.16713901 1.4420166
0.22756121 -0.1622564 1.4422804
0.19807385 -0.22805013 1.4483583
0.20081249 -0.22682449 1.4454939
0.198668 -0.2227041 1.4479573
0.2006584 -0.221921 1.4464605
0.19956 -0.218955 1.44943
0.20227206 -0.21735375 1.4473048
0.20396513 -0.21311711 1.4486574
0.20663789 -0.21241221 1.4467012
0.20753442 -0.20717835 1.4477032
0.20907113 -0.20292126 1.4474502
0.21062768 -0.20334566 1.4459463
0.20936799 -0.199645 1.4480792
0.2119785 -0.19805758 1.4467367
0.21314627 -0.19309662 1.4479965
0.21612501 -0.19128451 1.4455085
0.21374701 -0.18745033 1.4494023
0.2160705 -0.1866755 1.4470954
0.21698356 -0.18203346 1.448194
0.21847615 -0.17811015 1.4475365
0.22089566 -0.17692667 1.445635
0.2188365 -0.1730665 1.4488353
0.221578 -0.17131713 1.4466698
0.22207913 -0.16743925 1.4480321
0.22339034 -0.163956 1.4467334
0.22527701 -0.164606 1.4455225
0.189788 -0.229754 1.452934
0.19358569 -0.227253 1.4527379
0.19601266 -0.22678065 1.4506544
0.19391017 -0.22290067 1.4538655
0.19704412 -0.22165111 1.4518754
0.19791821 -0.21814999 1.4529219
0.20092721 -0.21635261 1.4510596
0.20183 -0.21255343 1.4525526
0.20328124 -0.20777091 1.453029
0.205256 -0.2082155 1.4503961
0.20410967 -0.203355 1.4543861
0.20709756 -0.20251399 1.4514852
0.20769942 -0.19742258 1.4530487
0.210206 -0.196024 1.4507444
0.2085955 -0.1925205 1.4538524
0.21070099 -0.19202171 1.452265
0.209684 -0.18666901 1.454531
0.212668 -0.18792938 1.4512837
0.21324545 -0.18263792 1.4529548
0.216116 -0.18055451 1.450482
0.21466973 -0.176487 1.4536217
0.21673422 -0.17647481 1.4518979
0.21800427 -0.17245835 1.4522754
0.21850567 -0.16892032 1.4521631
0.221581 -0.168782 1.45143
0.1842095 -0.2320925 1.4594874
0.18775812 -0.23180939 1.4578145
0.1908295 -0.23117051 1.455322
0.18789475 -0.22745551 1.4585565
0.19083557 -0.2266953 1.4564152
0.19245058 -0.22331743 1.4575757
0.19540349 -0.22113749 1.4560187
0.19359979 -0.21868601 1.4586577
0.19635747 -0.21737768 1.4571716
0.1981883 -0.21280971 1.4573847
0.200216 -0.210573 1.455186
0.19903965 -0.20795567 1.4580768
0.20131715 -0.20693384 1.4567388
0.199864 -0.204716 1.456683
0.20214209 -0.20211536 1.4580044
0.20390347 -0.19762766 1.4581281
0.20540901 -0.19807899 1.4565347
0.20712566 -0.19291158 1.4571363
0.20786181 -0.1875321 1.4583665
0.21069334 -0.18615401 1.45649
0.2095402 -0.18288441 1.4574087
0.210711 -0.18117864 1.4578551
0.20993349 -0.17881501 1.4589319
0.21239181 -0.1781773 1.4564941
0.21352017 -0.17387967 1.4583406
0.21581425 -0.17189749 1.4555526
0.179929 -0.23319 1.464244
0.18205899 -0.23265368 1.4628611
0.185984 -0.23282599 1.4617471
0.18351315 -0.22894372 1.4627217
0.18665472 -0.22652368 1.4621994
0.18836159 -0.22299349 1.4633632
0.19108129 -0.22181971 1.4611026
0.18919501 -0.218867 1.4646715
0.19211528 -0.21722063 1.4626255
0.195003 -0.21547499 1.461428
0.19363911 -0.21328244 1.4629476
0.1956066 -0.21171561 1.4617003
0.19424751 -0.2094955 1.4634504
0.1970595 -0.20759217 1.4622359
0.19845873 -0.20274091 1.4624552
0.2018045 -0.2008065 1.4602695
0.19920534 -0.19744666 1.4635963
0.20142873 -0.19663456 1.4619209
0.20306842 -0.1924639 1.4626977
0.205129 -0.19249199 1.460997
0.20382878 -0.188236 1.4631869
0.20590325 -0.1879445 1.4624619
0.20456299 -0.1848605 1.464259
0.20705718 -0.18257092 1.4619352
0.20838834 -0.17834102 1.4628724
0.21068834 -0.17587067 1.4614143
0.20813499 -0.174135 1.463326
0.21231967 -0.17220567 1.4619679
0.17403127 -0.23649344 1.4691457
0.17757049 -0.23643164 1.4669915
0.18044899 -0.235212 1.465084
0.17345101 -0.234762 1.469772
0.17768653 -0.23267023 1.4680138
0.18096 -0.23102999 1.4656861
0.17910235 -0.22910734 1.468749
0.1818566 -0.22767773 1.4672278
0.18614399 -0.225334 1.465291
0.18391116 -0.22356944 1.4681581
0.18595299 -0.2218167 1.4673873
0.18470649 -0.21903349 1.468206
0.18748273 -0.21780701 1.4676995
0.18868971 -0.21332678 1.4685646
0.19137056 -0.21181031 1.4669664
0.18831301 -0.209069 1.469949
0.19245078 -0.20681512 1.4674424
0.19313751 -0.20197849 1.4690844
0.19562559 -0.2028532 1.4664234
0.1942085 -0.19910151 1.4682574
0.19743501 -0.19734965 1.4669764
0.19847625 -0.1928235 1.4682349
0.20113327 -0.192082 1.465459
0.19888601 -0.189584 1.4697289
0.20123255 -0.18709767 1.4674269
0.20353502 -0.18262833 1.4671369
0.20602199 -0.180922 1.467634
0.20410299 -0.1789465 1.469345
0.206723 -0.1774195 1.465657
0.210271 -0.175888 1.46761
0.21123999 -0.172498 1.465183
0.16821389 -0.23850267 1.4735657
0.17151378 -0.2375742 1.4717342
0.169751 -0.23326799 1.474041
0.17289679 -0.23250869 1.4729073
0.17593871 -0.2318923 1.4715456
0.174641 -0.228983 1.474394
0.17793836 -0.22741187 1.4725043
0.18065368 -0.22612531 1.4709858
0.17895326 -0.22230574 1.4738106
0.18184128 -0.22183385 1.4715862
0.18294626 -0.217896 1.4727185
0.18620281 -0.21568961 1.4712944
0.183138 -0.21276166 1.4744335
0.18589585 -0.21204765 1.4726707
0.18783765 -0.20760289 1.4728504
0.18871884 -0.20383018 1.4737049
0.19129658 -0.20183484 1.4719594
0.189059 -0.19957601 1.474812
0.19253641 -0.1975276 1.4730064
0.19600251 -0.19573599 1.471036
0.19427116 -0.19241183 1.4737043
0.19647861 -0.19198139 1.4722027
0.19756699 -0.18799283 1.4719996
0.19846618 -0.18342416 1.4733601
0.20144667 -0.18220067 1.4714357
0.2029985 -0.17897901 1.4710314
0.159961 -0.24145199 1.478929
0.16283801 -0.24163325 1.4780551
0.1657435 -0.24168199 1.4761779
0.16409186 -0.23781572 1.4790555
0.1672443 -0.23700926 1.4771482
0.16843639 -0.23324287 1.4780114
0.17139916 -0.23182474 1.4765967
0.17253365 -0.22849455 1.4774953
0.17561674 -0.22788274 1.4755006
0.17399484 -0.22365133 1.4786371
0.17704667 -0.22306009 1.4765463
0.17491999 -0.21954501 1.478644
0.17787313 -0.21828873 1.4773567
0.1808286 -0.2167826 1.4757469
0.17883749 -0.2142515 1.4784863
0.18259314 -0.21241677 1.4768354
0.18588999 -0.211372 1.4753804
0.18331949 -0.20739929 1.4777856
0.185202 -0.20514899 1.4776731
0.184912 -0.202291 1.479563
0.1867359 -0.2019567 1.4770871
0.184865 -0.197779 1.4794199
0.18844472 -0.19778657 1.4779618
0.19133851 -0.195105 1.476052
0.18906467 -0.19373302 1.4786879
0.19164237 -0.19265327 1.4769584
0.19283357 -0.18813372 1.4778183
0.19575775 -0.18634801 1.4772646
0.19696981 -0.1823668 1.4771291
0.19848 -0.178672 1.475425
0.15415344 -0.24772416 1.4838086
0.153365 -0.244516 1.484591
0.15751876 -0.24200702 1.4826887
0.160607 -0.24327099 1.480037
0.15814149 -0.239415 1.4825625
0.16198519 -0.23787378 1.4827261
0.165342 -0.237391 1.480984
0.164196 -0.233263 1.4835473
0.166829 -0.23238635 1.4820503
0.16819748 -0.22730185 1.4833388
0.17149468 -0.22580032 1.4812469
0.169082 -0.22347599 1.484526
0.17169255 -0.22247499 1.4822308
0.173474 -0.21881787 1.4824847
0.17595558 -0.21693829 1.4816396
0.173682 -0.214596 1.483519
0.17740722 -0.2131941 1.4813881
0.18026701 -0.21131399 1.480119
0.174347 -0.20995 1.483814
0.17833734 -0.20869234 1.4825586
0.18167999 -0.2069374 1.480945
0.1787045 -0.203722 1.4833335
0.18250521 -0.20273229 1.4819142
0.1853565 -0.20130999 1.4803874
0.18352172 -0.19796742 1.4832544
0.1862634 -0.19652081 1.4813975
0.1844705 -0.19228101 1.4841065
0.18763776 -0.19204535 1.4818966
0.18762159 -0.1879468 1.483552
0.19216248 -0.18813325 1.480883
0.19361299 -0.18448199 1.4818259
0.14479899 -0.250027 1.488889
0.1478547 -0.24786799 1.4888459
0.15077999 -0.24769101 1.4867985
0.14911832 -0.24318933 1.4892443
0.15270528 -0.24296269 1.4874834
0.15635601 -0.24115601 1.48799
0.15419875 -0.23922651 1.4889235
0.15748818 -0.23735134 1.4874703
0.16212 -0.235359 1.48528
0.15828699 -0.23410127 1.4888333
0.16140923 -0.23289472 1.4869983
0.16288041 -0.22824831 1.4878886
0.16557249 -0.22769083 1.4865977
0.164294 -0.22318132 1.4890562
0.16745751 -0.22217079 1.4869126
0.17065801 -0.22104201 1.485078
0.16812842 -0.2180218 1.4886528
0.17140234 -0.21641684 1.4862753
0.16893449 -0.21291301 1.48948
0.1726139 -0.21183668 1.4872719
0.17548899 -0.21016566 1.4858719
0.173288 -0.2073878 1.4888436
0.17663839 -0.20663981 1.486419
0.17468199 -0.20349449 1.488469
0.17736281 -0.20300609 1.4867854
0.180208 -0.20071401 1.485575
0.17837571 -0.19858442 1.4884169
0.18201466 -0.19817765 1.4856714
0.18224341 -0.19284031 1.4871972
0.18306699 -0.1893215 1.4884751
0.18697751 -0.18790549 1.485621
0.191468 -0.18777999 1.485086
0.13918133 -0.25276366 1.494444
0.14345482 -0.24759336 1.4936123
0.146652 -0.24724801 1.4916604
0.14739054 -0.24227241 1.4931271
0.15107433 -0.24165 1.4914316
0.1490376 -0.23769119 1.4937277
0.15256207 -0.23736766 1.4922167
0.15564001 -0.23704401 1.49166
0.15318884 -0.23302083 1.4938656
0.15709247 -0.23178799 1.4919991
0.15751645 -0.22710034 1.4935217
0.16100821 -0.22548001 1.4916233
0.1581295 -0.22404051 1.4941785
0.16202751 -0.22226998 1.4921988
0.16329789 -0.21852568 1.4931152
0.166172 -0.21740176 1.4915217
0.163854 -0.2144445 1.4941239
0.16744763 -0.21314517 1.4923984
0.170992 -0.211487 1.490667
0.168174 -0.20851262 1.4940041
0.17134373 -0.20720899 1.4917316
0.167807 -0.204189 1.4949501
0.17244972 -0.20234773 1.4927227
0.1756995 -0.2003175 1.490799
0.17324567 -0.1964615 1.4937772
0.176799 -0.19647421 1.4920176
0.18102901 -0.196412 1.490952
0.174638 -0.19217101 1.494661
0.17757034 -0.1921535 1.4920582
0.18070699 -0.19001 1.490806
0.176668 -0.18897599 1.4941335
0.18287501 -0.187731 1.4902461
0.13383834 -0.25417098 1.498361
0.13724709 -0.25254792 1.497575
0.14044499 -0.25126299 1.4959044
0.13888317 -0.24902333 1.4978918
0.14204951 -0.24744399 1.4971536
0.14330056 -0.24304985 1.4980583
0.145123 -0.24315301 1.495007
0.14387749 -0.23779476 1.4988229
0.14679064 -0.23797733 1.4969528
0.1474326 -0.23314199 1.4983163
0.15180765 -0.23216933 1.4965501
0.14763701 -0.229554 1.4995995
0.15309967 -0.22723934 1.4978576
0.1560095 -0.226789 1.496062
0.15437526 -0.22278576 1.4990904
0.15750323 -0.22149266 1.4969301
0.16140699 -0.221222 1.495579
0.15828466 -0.21719682 1.4985485
0.16223586 -0.2162983 1.4965651
0.158796 -0.214836 1.499928
0.16211022 -0.21218611 1.4977051
0.165198 -0.211042 1.495273
0.1632444 -0.20869461 1.4988505
0.16593879 -0.20800519 1.4967686
0.1673205 -0.2036778 1.4975939
0.16811737 -0.19805837 1.4985877
0.17175075 -0.197667 1.4966528
0.169177 -0.19228899 1.4998699
0.17251138 -0.19289461 1.4977471
0.1240036 -0.2585752 1.5038288
0.12742664 -0.25721511 1.50186
0.1284079 -0.25373831 1.5034332
0.13212559 -0.25245911 1.5020032
0.137123 -0.25084201 1.5016127
0.13338228 -0.24905285 1.5034485
0.13720399 -0.24702376 1.5022918
0.13820215 -0.24270785 1.503828
0.14119512 -0.24233726 1.5014994
0.1395015 -0.23895749 1.5038365
0.14259382 -0.23728943 1.5026979
0.14338849 -0.23253365 1.5029384
0.1456258 -0.23170701 1.5014099
0.14402601 -0.228286 1.5042624
0.1469056 -0.22724262 1.5022554
0.151168 -0.22667266 1.5011786
0.14834701 -0.22278267 1.5034876
0.1519905 -0.22271037 1.5012876
0.155292 -0.220636 1.500101
0.15313409 -0.21793038 1.5030346
0.1566444 -0.21702819 1.501106
0.1543005 -0.2130575 1.5042465
0.15756273 -0.21212064 1.5023288
0.16025899 -0.210428 1.5002069
0.15821616 -0.20787317 1.5036467
0.16165034 -0.20676756 1.501772
0.159289 -0.202318 1.504642
0.16323838 -0.20239025 1.5024452
0.166347 -0.200184 1.502048
0.163689 -0.19860101 1.5038825
0.16679499 -0.1976136 1.5016963
0.164947 -0.192955 1.502573
0.16737801 -0.19360399 1.5031044
0.11439 -0.26126552 1.509589
0.114393 -0.258717 1.509129
0.1185479 -0.25777832 1.5079945
0.12200479 -0.25682881 1.5071117
0.125605 -0.25593299 1.5056781
0.12327881 -0.25325221 1.5081723
0.12733357 -0.25200364 1.5071237
0.13148251 -0.25021899 1.5062585
0.128033 -0.24813159 1.5086566
0.13182643 -0.24673356 1.5065619
0.136694 -0.24526 1.505196
0.128867 -0.244486 1.5094435
0.13271819 -0.24261689 1.5083537
0.1362744 -0.24180481 1.5059855
0.13411801 -0.23772132 1.5094069
0.13716842 -0.23789091 1.5073619
0.140793 -0.23686799 1.505244
0.13817781 -0.23313418 1.5089686
0.1417048 -0.23185921 1.5069673
0.14236511 -0.22715838 1.508001
0.143932 -0.22283988 1.507656
0.14670816 -0.22253849 1.5061196
0.14421999 -0.21889299 1.5094775
0.147515 -0.21798787 1.5073867
0.15119733 -0.21814699 1.5055094
0.14888449 -0.21371616 1.5085769
0.15261871 -0.21297948 1.506943
0.1532353 -0.20817086 1.5085056
0.15646316 -0.20748265 1.5063356
0.15727523 -0.20263276 1.5076321
0.16136666 -0.20167799 1.5056981
0.15878201 -0.19708699 1.507948
0.162017 -0.199287 1.506327
0.161549 -0.19458 1.505484
0.103767 -0.26231802 1.514045
0.10718615 -0.26261356 1.5135834
0.1115336 -0.26138261 1.5109454
0.1166335 -0.260618 1.510483
0.10752545 -0.25929689 1.5133805
0.11244864 -0.25738198 1.5129926
0.11618675 -0.25658289 1.5120157
0.121405 -0.2559 1.5111181
0.11790653 -0.25296867 1.5134079
0.12245741 -0.25151509 1.5115726
0.119948 -0.249447 1.514869
0.12258176 -0.24750544 1.5131308
0.12664929 -0.24622501 1.5115321
0.12327466 -0.24349201 1.5147347
0.12709649 -0.24194658 1.5130891
0.130749 -0.2408815 1.5113505
0.1287265 -0.23751774 1.5140193
0.13212457 -0.23674615 1.5117292
0.13277683 -0.23318128 1.5131195
0.13658001 -0.23230733 1.5111068
0.134305 -0.22853734 1.5145913
0.13738351 -0.22755191 1.5126817
0.14063066 -0.22627266 1.5109233
0.13814433 -0.22376733 1.5140363
0.14144908 -0.22196746 1.5125318
0.14297108 -0.2174689 1.5126352
0.145206 -0.21531001 1.511428
0.14387615 -0.21310128 1.5135969
0.14651287 -0.21185187 1.5116614
0.144486 -0.20953199 1.5146281
0.14786124 -0.20791501 1.5126988
0.1522294 -0.2063812 1.5110291
0.14796075 -0.20318125 1.5142249
0.15225701 -0.20416234 1.5128447
0.15568 -0.2032115 1.5106964
0.152136 -0.19886599 1.511479
0.158472 -0.196124 1.5105931
0.151317 -0.193417 1.5141079
0.094050005 -0.26640671 1.5193655
0.098013297 -0.2616457 1.5187142
0.10214255 -0.26120734 1.5172455
0.10336354 -0.25806037 1.518404
0.10722349 -0.25678658 1.5168916
0.11131649 -0.25636876 1.5166881
0.10768367 -0.25210688 1.5187852
0.11234729 -0.25200373 1.5172138
0.11596839 -0.252285 1.5169849
0.11306162 -0.24785738 1.5194069
0.11757533 -0.24767321 1.5173042
0.12061 -0.247713 1.5155865
0.118378 -0.24339785 1.5191072
0.12186888 -0.24219812 1.5168602
0.12268145 -0.23767278 1.5182824
0.12686698 -0.23644851 1.5165128
0.130081 -0.23545 1.515244
0.1246905 -0.2331375 1.5194
0.12797733 -0.2330665 1.5177232
0.130933 -0.231453 1.5160445
0.1285208 -0.22826621 1.5193141
0.1324226 -0.22787051 1.5170482
0.13327566 -0.22327344 1.5184398
0.13779674 -0.2220446 1.5161231
0.13426401 -0.219418 1.519974
0.13770862 -0.21777837 1.5183294
0.14096199 -0.21677825 1.5161278
0.1385375 -0.214094 1.5187736
0.141912 -0.21238564 1.5175894
0.14357968 -0.20759733 1.5173839
0.145051 -0.208084 1.516023
0.14367859 -0.20287499 1.518688
0.1466555 -0.2033565 1.5160401
0.14398168 -0.19723368 1.518597
0.083560325 -0.266877 1.5240766
0.088139176 -0.26673937 1.5225097
0.091127753 -0.26681477 1.5214084
0.089718506 -0.2628355 1.524394
0.092841499 -0.26258019 1.5226176
0.097417749 -0.26116174 1.5215552
0.094050601 -0.2588948 1.524294
0.098048501 -0.25774884 1.5233041
0.10143963 -0.25718075 1.5217605
0.10559 -0.25689101 1.520344
0.099416003 -0.25286001 1.524968
0.10301914 -0.25339484 1.5228004
0.1060715 -0.2523925 1.5214276
0.113497 -0.25020599 1.520767
0.1038685 -0.248098 1.5243754
0.10702342 -0.24768277 1.5224185
0.1100695 -0.246334 1.5209141
0.10708483 -0.242898 1.5239521
0.1122576 -0.242764 1.5224245
0.11698783 -0.24290399 1.5213352
0.112677 -0.238672 1.5242773
0.11799511 -0.23834613 1.5219179
0.122233 -0.23616649 1.5208294
0.1179895 -0.23382024 1.5240598
0.12220763 -0.23297288 1.5220543
0.12605399 -0.231243 1.5203185
0.12255316 -0.22852284 1.5235363
0.12657362 -0.22780076 1.5218383
0.130154 -0.22598501 1.521059
0.124025 -0.22325601 1.524433
0.12842211 -0.2225287 1.5229146
0.13153479 -0.2217304 1.5205234
0.128775 -0.2174865 1.5243864
0.1328816 -0.21793158 1.5221174
0.13526 -0.21558399 1.520352
0.13366899 -0.21331149 1.5238853
0.13753566 -0.2120301 1.5214757
0.13832425 -0.207174 1.5233724
0.14175434 -0.20807433 1.5201836
0.141628 -0.20270936 1.5229611
0.14292081 -0.19746821 1.5224981
0.14320625 -0.19344126 1.5234995
0.069773003 -0.272387 1.529542
0.073498003 -0.269723 1.529044
0.077595152 -0.26743791 1.5281153
0.082324207 -0.26645279 1.5268017
0.087280497 -0.26611549 1.5272895
0.082431808 -0.2633028 1.5286629
0.086838469 -0.26255447 1.5272086
0.091191329 -0.26133633 1.5260426
0.087472327 -0.25877467 1.5289131
0.092134453 -0.25834927 1.527385
0.0962075 -0.25619301 1.5264717
0.089907996 -0.25450599 1.529773
0.093049251 -0.25404426 1.528213
0.096521996 -0.2529389 1.527488
0.101445 -0.25117052 1.526678
0.098779112 -0.24863924 1.5282229
0.10231609 -0.24779953 1.5265709
0.099284999 -0.240814 1.526715
0.103207 -0.24338856 1.5279301
0.1079758 -0.24268799 1.5259261
0.112327 -0.241244 1.525324
0.104545 -0.239988 1.5294501
0.10698934 -0.23835145 1.5276895
0.11206216 -0.23782082 1.5262254
0.11563 -0.23711199 1.5252964
0.10788175 -0.233386 1.5293713
0.11318172 -0.23390685 1.5273539
0.1176783 -0.23208669 1.526639
0.11241933 -0.22927634 1.5297704
0.11808867 -0.22746743 1.5282862
0.1223636 -0.2275176 1.5256128
0.12659501 -0.225126 1.526159
0.1194145 -0.2236 1.5282825
0.12200721 -0.2227606 1.5275887
0.126186 -0.22197139 1.5257192
0.12305625 -0.21850276 1.5284111
0.12699801 -0.21748501 1.5270926
0.13052851 -0.216914 1.5254309
0.138787 -0.216244 1.526632
0.12841599 -0.21280412 1.528025
0.13183825 -0.21320525 1.5259652
0.13276199 -0.20811714 1.5275531
0.13693766 -0.20571299 1.5258451
0.1330035 -0.2042665 1.528545
0.13718201 -0.20209944 1.5273561
0.13763298 -0.19798298 1.5290893
0.14086699 -0.19763401 1.5269995
0.14211784 -0.192829 1.5272177
0.1433906 -0.1878878 1.5269792
0.14380901 -0.18205699 1.52825
0.140461 -0.174474 1.527256
0.059542 -0.27209499 1.53451
0.062784001 -0.2726599 1.5332819
0.067348905 -0.27193946 1.5320812
0.071316004 -0.27214667 1.5305322
0.067590997 -0.26830587 1.5342226
0.072262615 -0.26778409 1.5323874
0.076851331 -0.26726684 1.5315033
0.074035339 -0.26396468 1.5339786
0.077523097 -0.26353568 1.532756
0.081726126 -0.26281139 1.5311996
0.078118503 -0.25920248 1.5343735
0.082190275 -0.25853127 1.5328997
0.085993126 -0.2574755 1.53171
0.090924002 -0.25505301 1.530007
0.083517 -0.25460699 1.533869
0.087214179 -0.25346893 1.5327411
0.091530621 -0.25186288 1.5312579
0.095390998 -0.25066599 1.530169
0.089181162 -0.24842298 1.5335056
0.092131391 -0.2482914 1.532643
0.095964245 -0.24754888 1.5313958
0.094190747 -0.24406776 1.5336604
0.0981493 -0.2430822 1.5319102
0.10187425 -0.24166875 1.5308657
0.098374203 -0.23912501 1.5334327
0.10284887 -0.23794974 1.531547
0.105478 -0.23642001 1.530013
0.10296633 -0.23399922 1.5331799
0.10699856 -0.23233888 1.5312868
0.1117855 -0.2327695 1.5308266
0.107694 -0.22871065 1.533021
0.11259285 -0.22730443 1.531894
0.115825 -0.2252405 1.5303741
-0.30366799 -0.222636 1.530969
0.109854 -0.224281 1.534184
0.11307166 -0.22388868 1.5330491
0.11737022 -0.222105 1.5320266
0.125909 -0.22171199 1.531215
0.114952 -0.21993899 1.534326
0.11844228 -0.21823244 1.533012
0.1214582 -0.21730559 1.531388
0.119182 -0.214764 1.534361
0.12289746 -0.21321537 1.5323352
0.12571901 -0.212946 1.5306885
0.12300033 -0.20877433 1.5343837
0.12781973 -0.20781055 1.5320168
0.12875521 -0.2032574 1.5337478
0.13234957 -0.20281413 1.5309713
0.13284214 -0.19768943 1.5333731
0.13678366 -0.19702168 1.5307125
0.13445599 -0.19228999 1.534286
0.1372208 -0.19244561 1.5327368
0.14014399 -0.191403 1.53028
0.13657051 -0.187962 1.5341485
0.14074349 -0.18779249 1.5326308
0.14223321 -0.18328241 1.5316662
0.14289401 -0.17776567 1.5337783
0.13172901 -0.150354 1.534739
0.048892751 -0.27411225 1.5389776
0.053805333 -0.27296719 1.5382915
0.057194453 -0.27247417 1.5373709
0.061636999 -0.27140975 1.5363418
0.058604252 -0.26871827 1.5393162
0.061789814 -0.26804301 1.5380282
0.066771001 -0.26773021 1.5363685
0.072985001 -0.26511002 1.5369456
0.064308003 -0.26499501 1.53922
0.066901773 -0.26344556 1.538471
0.071893536 -0.26253268 1.5369436
0.076941997 -0.26333401 1.5357525
0.068585001 -0.259763 1.539255
0.072817601 -0.2576682 1.5383651
0.077035218 -0.25831613 1.5363132
0.080880001 -0.25538632 1.5358623
0.074785002 -0.25465801 1.538519
0.077470131 -0.25336525 1.5386499
0.081491239 -0.25207341 1.5371443
0.085704662 -0.25118032 1.5354973
0.082599171 -0.24809982 1.5385796
0.086089253 -0.24751988 1.5367705
0.090776503 -0.24601001 1.53545
0.08433 -0.244856 1.538839
0.08780022 -0.24290912 1.5382513
0.091635294 -0.24185315 1.5366982
0.089458004 -0.23915 1.538803
0.093660995 -0.2381283 1.5376084
0.097562708 -0.23692559 1.5362822
0.100173 -0.235035 1.53562
0.091885 -0.2337455 1.5391724
0.098152451 -0.23239799 1.5378737
0.10239043 -0.23098429 1.5362386
0.098114997 -0.22858299 1.53907
0.10291244 -0.22729723 1.5378598
0.10661325 -0.22594675 1.5360572
0.112115 -0.22899 1.535833
0.10358667 -0.22477601 1.5389633
0.10725067 -0.2228741 1.5372348
0.11233914 -0.2216337 1.5361044
0.106561 -0.21960533 1.538453
0.11338178 -0.21727143 1.5381922
0.11672983 -0.21628152 1.5365807
0.12522399 -0.218297 1.536271
0.114076 -0.210168 1.5399131
0.11768088 -0.21110047 1.5380027
0.1215235 -0.2107825 1.535779
0.11846299 -0.20735949 1.5394166
0.1216076 -0.20685539 1.5376918
0.125238 -0.20563 1.53572
0.118328 -0.20496599 1.539947
0.12307987 -0.20290649 1.5379288
0.125854 -0.204614 1.537217
0.124863 -0.19880033 1.5395584
0.12857886 -0.19829829 1.5368773
0.12866551 -0.1935875 1.539392
0.13193099 -0.1924644 1.53666
0.13343351 -0.1878915 1.537982
0.13636649 -0.1866505 1.5365705
0.13641 -0.18367651 1.5380709
0.14064649 -0.181375 1.5366831
0.140267 -0.17789951 1.5381401
0.14292432 -0.17319266 1.5367197
0.1424315 -0.168657 1.5393646
0.140682 -0.15425099 1.539305
0.039299 -0.27458251 1.544047
0.043712184 -0.27304697 1.5433846
0.048164301 -0.2722584 1.5419804
0.051060334 -0.27127051 1.5419264
0.061360002 -0.27115199 1.54182
0.048462503 -0.2693215 1.544018
0.052106664 -0.26779199 1.5436482
0.055978812 -0.26763919 1.5420105
0.061123665 -0.26694235 1.5408821
0.058111537 -0.26283586 1.5434917
0.062227622 -0.26345485 1.5414376
0.065659001 -0.26247099 1.5410454
0.070713997 -0.26059899 1.540785
0.059730001 -0.259891 1.544606
0.063303664 -0.2585769 1.5434294
0.066803403 -0.2578803 1.5418599
0.071216255 -0.25575551 1.5413175
0.064088002 -0.25472799 1.5445811
0.067969628 -0.25314525 1.5436988
0.072871819 -0.25216028 1.5421971
0.076870501 -0.25108302 1.5407118
0.069945998 -0.249759 1.543973
0.073219001 -0.24786821 1.5438732
0.077196501 -0.24743776 1.5429713
0.080857195 -0.24595261 1.541031
0.073931001 -0.24464899 1.5441885
0.077938333 -0.24340166 1.5434384
0.081747852 -0.241924 1.5426085
0.085689001 -0.24118935 1.5407063
0.090893999 -0.240198 1.54022
0.079648003 -0.23996 1.544359
0.083307192 -0.2374924 1.5437123
0.087011218 -0.23710868 1.5422463
0.09050566 -0.23631001 1.5416356
0.084000997 -0.23464701 1.544493
0.088858142 -0.23252 1.5436153
0.093151286 -0.23192985 1.5419638
0.095354997 -0.232162 1.541171
-0.280527 -0.229882 1.54173
0.093206622 -0.22830211 1.5433213
0.098233804 -0.22713871 1.5421536
0.1019185 -0.22568899 1.5413885
0.094596997 -0.224684 1.543801
0.098143004 -0.222507 1.5442761
0.10327375 -0.22149575 1.5416847
0.105022 -0.22108801 1.540893
0.105471 -0.216171 1.541607
0.113102 -0.217419 1.541929
0.11387385 -0.21277459 1.5420702
0.11384576 -0.20741852 1.5438039
0.1164455 -0.20608424 1.5418386
0.11750271 -0.20242229 1.5429989
0.121784 -0.20083 1.5409909
0.11905 -0.19560599 1.544548
0.1218306 -0.19722639 1.5429634
0.124596 -0.19309525 1.5429912
0.12803301 -0.19351301 1.5400685
0.127699 -0.18832275 1.5425702
0.131878 -0.18748766 1.540044
0.12802599 -0.18415201 1.5445991
0.132295 -0.18245701 1.5425817
0.13615599 -0.1807885 1.5400929
0.132302 -0.17884099 1.5447249
0.136335 -0.17686534 1.5426644
0.140433 -0.176228 1.540139
0.135773 -0.172628 1.54475
