# .PCD v0.7 - Point Cloud Data file format
VERSION 0.7
FIELDS x y z
SIZE 4 4 4
TYPE F F F
COUNT 1 1 1
WIDTH 346
HEIGHT 1
VIEWPOINT 0 0 0 1 0 0 0
POINTS 346
DATA ascii
-1.6819921 0.89473498 -0.63505799
-1.659788 0.896097 -0.637182
-1.658729 0.908144 -0.61839098
-1.659936 0.91494 -0.61026001
-1.683709 0.97021401 -0.61026597
-1.695893 0.99854898 -0.61026102
-1.712584 0.887155 -0.60788399
-1.691172 0.88743401 -0.60867798
-1.66976 0.88771302 -0.60947198
-1.689606 0.88942403 -0.595231
-1.667591 0.89077401 -0.59733701
-1.692407 0.94741398 -0.59766901
-1.682544 0.97785598 -0.599994
-1.690642 0.89866298 -0.59043503
-1.66923 0.89894199 -0.59122902
-1.6594011 0.92626202 -0.59186602
-1.721384 0.87152702 -0.58904302
-1.681466 0.99011302 -0.58087498
-1.648017 0.87808198 -0.57990402
-1.666541 0.90271902 -0.57870501
-1.701019 0.92951399 -0.57656002
-1.719952 0.87100703 -0.57244599
-1.698122 0.87234598 -0.574534
-1.720858 0.88266498 -0.570948
-1.69962 0.88294101 -0.57173598
-1.6687 0.91017002 -0.57298601
-1.692414 0.96489501 -0.57235998
-1.751068 0.85583103 -0.56967002
-1.715076 0.87066299 -0.56987703
-1.646564 0.890562 -0.56095397
-1.680389 1.00237 -0.56175601
-1.656306 0.85963303 -0.55750799
-1.675252 0.88552898 -0.55814803
-1.6689169 0.888089 -0.55761099
-1.728138 0.85421902 -0.55210602
-1.678466 0.85718101 -0.55419397
-1.7505471 0.86687797 -0.55172199
-1.729481 0.86715198 -0.55250299
-1.7189111 0.882851 -0.55397099
-1.762807 0.89324898 -0.55127901
-1.741569 0.893525 -0.55206603
-1.6990941 0.89407802 -0.55364197
-1.677857 0.894355 -0.55442899
-1.7109931 0.92084098 -0.553155
-1.689581 0.92111999 -0.553949
-1.668169 0.921399 -0.55474299
-1.713644 0.97602803 -0.55300403
-1.691875 0.97631103 -0.55381203
-1.670105 0.97659498 -0.55461901
-1.645111 0.90304101 -0.54200399
-1.664441 0.92660898 -0.54144198
-1.676697 0.95497 -0.54110199
-1.689203 0.983868 -0.54080701
-1.679312 1.0146281 -0.54263699
-1.683812 0.86861998 -0.53792697
-1.677026 0.86955303 -0.53540802
-1.707894 0.87847298 -0.53533697
-1.71787 0.89469498 -0.535496
-1.69604 0.896034 -0.53758502
-1.7084709 0.923908 -0.53723001
-1.686456 0.92525899 -0.53933603
-1.68905 0.93234903 -0.53570598
-1.691335 0.98772699 -0.53526402
-1.669566 0.988011 -0.536071
-1.736189 0.83771002 -0.532103
-1.727106 0.865964 -0.53378499
-1.699185 0.86710101 -0.53209502
-1.7622809 0.90438598 -0.53318399
-1.741043 0.90466303 -0.53397202
-1.719806 0.904939 -0.53475899
-1.710462 0.93207002 -0.53491199
-1.713105 0.98744398 -0.53445601
-1.8005919 0.83376002 -0.52594101
-1.708369 0.836613 -0.52889502
-1.643659 0.91552103 -0.523054
-1.688135 0.99602002 -0.52185303
-1.6782351 1.026885 -0.52351701
-1.767114 0.83667898 -0.51581901
-1.746383 0.83694899 -0.51658797
-1.675585 0.88192499 -0.51662201
-1.6534261 0.88437599 -0.51993603
-1.761755 0.91552299 -0.51508999
-1.71928 0.916076 -0.51666498
-1.709932 0.943299 -0.51666898
-1.712566 0.99886 -0.515908
-1.723417 1.024114 -0.51919502
-1.756633 0.848041 -0.51188099
-1.735165 0.84935802 -0.51393402
-1.7693681 0.875054 -0.51132298
-1.697745 0.87947297 -0.513309
-1.821036 0.844091 -0.50571901
-1.7995681 0.84540802 -0.50777298
-1.778101 0.84672397 -0.50982702
-1.72891 0.84644699 -0.50698501
-1.742065 0.874569 -0.50668198
-1.651985 0.89674801 -0.501149
-1.693958 0.91972297 -0.50063503
-1.664559 0.92552698 -0.50076097
-1.642206 0.92799997 -0.50410402
-1.6967829 0.97770298 -0.50139499
-1.687067 1.008171 -0.50289899
-1.74587 0.84781998 -0.49892601
-1.7341419 0.86100602 -0.49576601
-1.712674 0.86232299 -0.49781999
-1.7033941 0.89078301 -0.49921599
-1.674145 0.89429599 -0.49783599
-1.6869119 0.92305398 -0.497419
-1.761229 0.92666101 -0.496995
-1.7187541 0.92721403 -0.49857
-1.7736371 0.95369101 -0.496043
-1.730813 0.95424902 -0.49763101
-1.709401 0.95452702 -0.49842599
-1.721495 0.98202699 -0.497493
-1.678316 0.98258901 -0.49909499
-1.705513 0.86114299 -0.49164501
-1.696305 0.89184397 -0.49452201
-1.828264 0.82780701 -0.48627001
-1.7363859 0.82859701 -0.48560899
-1.84148 0.85442197 -0.485497
-1.820012 0.855739 -0.487551
-1.798545 0.85705602 -0.489604
-1.749452 0.856282 -0.485075
-1.740625 0.88694 -0.487896
-1.659068 0.90518302 -0.485037
-1.753971 0.91563398 -0.48739201
-1.849555 0.82650203 -0.48423299
-1.7581691 0.82618701 -0.48235101
-1.754113 0.83297598 -0.48151699
-1.745356 0.85869199 -0.48126301
-1.7573299 0.88451701 -0.48019701
-1.715537 0.88506103 -0.481747
-1.7023619 0.90252799 -0.48089501
-1.798677 0.91068703 -0.48070699
-1.727394 0.91134 -0.480712
-1.671088 0.93290597 -0.484249
-1.7179281 0.988388 -0.48047999
-1.6777821 0.99391103 -0.48069999
-1.6561919 0.994192 -0.48150101
-1.7083941 1.018949 -0.481803
-1.801736 0.82136601 -0.47583699
-1.779952 0.82377601 -0.479094
-1.754586 0.871337 -0.47554401
-1.7331181 0.87265402 -0.477597
-1.745656 0.899872 -0.476753
-1.694865 0.90421599 -0.47573599
-1.7695251 0.91079199 -0.47914901
-1.707812 0.93305999 -0.47512701
-1.78194 0.93752098 -0.478113
-1.739465 0.93807399 -0.47968799
-1.685459 0.93553299 -0.47846901
-1.794518 0.96464097 -0.47700599
-1.773106 0.96491998 -0.47780001
-1.730283 0.96547699 -0.479388
-1.72096 0.993348 -0.47909901
-1.776796 1.020843 -0.47639
-1.763374 0.84327799 -0.474361
-1.704085 0.87340897 -0.47301999
-1.767303 0.89854401 -0.474682
-1.717025 0.90176398 -0.47242299
-1.730165 0.93058699 -0.471784
-1.748024 0.86854702 -0.46645001
-1.672462 1.003159 -0.46593699
-1.778537 0.83593798 -0.46062699
-1.756754 0.83834797 -0.46388501
-1.7536041 0.84376198 -0.463994
-1.710626 0.88561797 -0.461483
-1.777709 0.89520299 -0.46161801
-1.722977 0.91294497 -0.460504
-1.7013299 0.91427302 -0.46257499
-1.679682 0.91560102 -0.46464601
-1.713706 0.94207197 -0.46159801
-1.6918761 0.94341099 -0.46368599
-1.726287 0.97033697 -0.46059701
-1.686929 0.97726297 -0.46273401
-1.716869 1.000435 -0.461689
-1.655658 1.005513 -0.46310699
-1.684931 1.032474 -0.464991
-1.6674089 1.033676 -0.46187899
-1.697594 1.062272 -0.46399799
-1.679358 1.062314 -0.460632
-1.762359 0.85483003 -0.45634201
-1.77503 0.88166797 -0.45532101
-1.766271 0.91029 -0.45636201
-1.8195781 0.92069399 -0.458415
-1.757365 0.939394 -0.457421
-1.735535 0.94073302 -0.45950899
-1.802651 0.94838202 -0.45923099
-1.770317 0.96763599 -0.456384
-1.748302 0.96898699 -0.45849001
-1.793988 0.97587001 -0.458763
-1.772576 0.97614801 -0.459557
-1.785193 1.003827 -0.458303
-1.841566 1.031409 -0.45541999
-1.819796 1.031692 -0.45622799
-1.701311 1.0620281 -0.45981699
-1.691505 1.091431 -0.45935601
-1.693923 1.151491 -0.45759401
-1.78365 0.85352403 -0.45430499
-1.817965 0.87903398 -0.45121399
-1.737744 0.91168398 -0.45032299
-1.728713 0.943066 -0.45283401
-1.755338 0.85050899 -0.445418
-1.753094 0.85454798 -0.44646999
-1.7465971 0.88081199 -0.44782501
-1.751066 0.940593 -0.44949201
-1.664987 0.98877102 -0.44528499
-1.693607 1.013844 -0.44502199
-1.73107 0.89594901 -0.44126099
-1.782064 0.90678 -0.44369599
-1.777191 0.90616101 -0.44381401
-1.738413 0.96034902 -0.443499
-1.717175 0.96062499 -0.444287
-1.725237 0.98228198 -0.44196501
-1.793458 0.98709798 -0.44051999
-1.7292221 0.98793501 -0.442902
-1.70781 0.988213 -0.44369599
-1.686398 0.98849201 -0.44448999
-1.763069 1.01543 -0.44070899
-1.698301 1.016273 -0.443111
-1.676712 1.016554 -0.443912
-1.728654 1.041878 -0.44175199
-1.710409 1.044526 -0.441717
-1.7062581 1.043252 -0.44389501
-1.719108 1.073143 -0.442718
-1.700767 1.073541 -0.441113
-1.690957 1.103042 -0.44049299
-1.668817 1.10333 -0.44131401
-1.791136 0.837309 -0.43544799
-1.782635 0.86507601 -0.436286
-1.795473 0.89199901 -0.43509901
-1.774006 0.89331597 -0.43715301
-1.8404779 0.9307 -0.43612301
-1.818125 0.933173 -0.43946499
-1.7049069 0.95801902 -0.43722701
-1.784658 1.015149 -0.439908
-1.7958421 1.037757 -0.43532401
-1.8410259 1.042825 -0.43687201
-1.819257 1.043108 -0.43768001
-1.7256269 1.132453 -0.438191
-1.703298 1.132743 -0.43901899
-1.816941 0.89068198 -0.433045
-1.749613 0.95307201 -0.43054199
-1.72726 0.95554602 -0.43388399
-1.70728 0.99944198 -0.42545301
-1.702172 0.99557698 -0.425439
-1.751514 0.90627998 -0.421038
-1.780624 0.91915101 -0.42491001
-1.7890249 0.94365799 -0.42452401
-1.755283 0.96308202 -0.42047101
-1.733453 0.96442097 -0.42256001
-1.801599 0.97065699 -0.423042
-1.681101 0.97297198 -0.421619
-1.724187 0.99422699 -0.42333299
-1.7286921 0.99916297 -0.42465901
-1.736955 1.023167 -0.42198199
-1.7841229 1.0264699 -0.421514
-1.762534 1.026751 -0.422315
-1.7193559 1.0273139 -0.42391601
-1.727586 1.054029 -0.42279801
-1.753409 1.055375 -0.421554
-1.731639 1.055658 -0.42236099
-1.740621 1.084015 -0.421437
-1.79445 0.90364701 -0.416931
-1.8075 0.93112397 -0.41557899
-1.7642061 0.93378001 -0.41972101
-1.703454 0.97049803 -0.418277
-1.759158 1.021805 -0.41985801
-1.7947741 1.049908 -0.41637
-1.818717 1.054525 -0.41913199
-1.796948 1.054808 -0.41993901
-1.766083 1.084196 -0.41996601
-1.763212 1.082629 -0.419276
-1.756827 1.1137871 -0.419166
-1.734688 1.114076 -0.41998699
-1.702744 1.144453 -0.41999501
-1.692807 1.175114 -0.41921499
-1.743741 0.905343 -0.41057599
-1.74816 0.96555197 -0.41159201
-1.757024 0.93397498 -0.40943801
-1.728161 1.010392 -0.406416
-1.759313 0.88948601 -0.40228501
-1.771958 0.91661203 -0.40081599
-1.7631741 0.94552499 -0.40140101
-1.732412 0.97626603 -0.40408501
-1.7581 1.033852 -0.40106699
-1.826767 1.03723 -0.401519
-1.761999 1.0380729 -0.40392101
-1.735896 1.0352139 -0.403191
-1.774639 1.0665081 -0.402199
-1.7311 1.067075 -0.403813
-1.7655391 1.095708 -0.40126199
-1.712 1.1259741 -0.40194499
-1.724521 1.155872 -0.40014201
-1.702191 1.156163 -0.40097001
-1.801896 0.88687402 -0.398211
-1.7891819 1.00212 -0.39838299
-1.77131 1.063434 -0.39955899
-1.715876 1.109915 -0.38536
-1.7709351 0.92825902 -0.38264701
-1.7792439 1.044538 -0.380151
-1.770242 1.075585 -0.38060501
-1.764995 1.107221 -0.38255799
-1.733591 1.137296 -0.38226101
-1.723967 1.167582 -0.38111699
-1.788133 1.014065 -0.379751
-1.823651 1.041814 -0.37590301
-1.769924 1.032292 -0.36834201
-1.714798 1.122173 -0.36624101
-1.795819 0.99593699 -0.36087
-1.787083 1.02601 -0.36111999
-1.778185 1.056585 -0.36136001
-1.75998 1.119401 -0.361918
-1.742498 1.119019 -0.36466801
-1.737389 1.120787 -0.36408001
-1.8003891 1.055223 -0.359236
-1.778257 1.0154819 -0.35145101
-1.769394 1.04352 -0.350099
-1.747982 1.043799 -0.35089299
-1.763907 1.130246 -0.34514901
-1.741954 1.130532 -0.34596401
-1.754923 1.069994 -0.34469301
-1.781494 1.130273 -0.34063801
-1.736312 1.133044 -0.34496
-1.754634 1.160229 -0.34371299
-1.7777309 1.026619 -0.33335701
-1.768863 1.054749 -0.331855
-1.7474509 1.055028 -0.33265001
-1.75986 1.08336 -0.33034399
-1.738271 1.0836411 -0.33114499
-1.7629679 1.05125 -0.32596201
-1.781449 1.083079 -0.32954299
-1.772482 1.112173 -0.32800701
-1.744642 1.113413 -0.32588601
-1.763364 1.141758 -0.32644501
-1.780417 1.142531 -0.321518
-1.757826 1.143916 -0.32368001
-1.777205 1.037757 -0.31526199
-1.825599 1.1397589 -0.31719601
-1.739903 1.064545 -0.30943701
-1.806726 1.152699 -0.30611199
-1.784773 1.152985 -0.306927
-1.788365 1.122817 -0.30264699
-1.836712 1.134155 -0.28848901
-1.814943 1.134439 -0.289296
-1.8320889 1.132221 -0.27940699
-1.839502 1.112734 -0.261031
