# .PCD v0.7 - Point Cloud Data file format
VERSION 0.7
FIELDS x y z
SIZE 4 4 4
TYPE F F F
COUNT 1 1 1
WIDTH 1503
HEIGHT 1
VIEWPOINT 0 0 0 1 0 0 0
POINTS 1503
DATA ascii
0.19632401 0.293486 1.201619
0.18694466 0.29707634 1.2022029
0.194626 0.29537299 1.2021
0.197235 0.29916501 1.2010289
0.18807399 0.30465201 1.203943
0.19299267 0.30275998 1.2027746
0.231261 0.30453199 1.2021
0.19616801 0.308716 1.202799
0.202868 0.30568501 1.200968
0.20654801 0.30823201 1.2009979
0.188573 0.31296799 1.204511
0.197651 0.31115499 1.2047859
0.20206299 0.31328398 1.2034055
0.205888 0.311508 1.2020299
0.212192 0.31487101 1.200771
0.19441099 0.31717199 1.200871
0.203621 0.31965899 1.201781
0.210517 0.31841001 1.202947
0.21586099 0.31729901 1.200967
0.20712401 0.32240701 1.2023644
0.211905 0.32209551 1.202679
0.216931 0.32192498 1.2029459
0.221809 0.32345349 1.2013365
0.194801 0.325441 1.201288
0.197584 0.330486 1.204628
0.206449 0.33034101 1.200238
0.21449301 0.33190799 1.203697
-0.48739201 -0.050537001 1.2078919
-0.48248589 -0.052776497 1.2077453
-0.485149 -0.048983 1.2064919
-0.48247498 -0.048136692 1.2073544
-0.4860965 -0.041325003 1.2087315
-0.48315221 -0.0424527 1.2072266
-0.48651549 -0.039130002 1.2066545
-0.48307917 -0.038445335 1.2062
0.198185 0.207028 1.206499
0.19688499 0.21862349 1.2074986
0.194708 0.22199699 1.209393
0.19780099 0.22212334 1.207162
0.199618 0.22948299 1.209866
0.2030265 0.22845975 1.2070618
0.20568 0.226657 1.209342
0.19252799 0.23485599 1.207379
0.195905 0.230124 1.206259
0.20252199 0.2323785 1.2068901
0.211321 0.231948 1.205079
0.18634699 0.239077 1.20638
0.203997 0.23521601 1.2074521
0.2082185 0.23841849 1.2076064
0.21233 0.236688 1.20859
0.20559999 0.243682 1.20752
0.21604 0.24078301 1.206439
0.21184534 0.24751966 1.2069178
0.218036 0.24766032 1.2066134
0.20908999 0.25040299 1.209968
0.212211 0.251894 1.207714
0.2168625 0.2506015 1.2070694
0.222918 0.25094399 1.206291
0.187581 0.258968 1.205946
0.213862 0.25676501 1.209021
0.2191605 0.25689352 1.208998
0.221801 0.2562075 1.2067275
0.22660099 0.2581 1.2070968
0.21467701 0.26140001 1.209008
0.223529 0.26175201 1.209474
0.229187 0.26406601 1.20513
0.18497699 0.26990199 1.205144
0.228921 0.26667801 1.206938
0.232445 0.267333 1.206231
0.224363 0.27106601 1.206975
0.227285 0.273184 1.209332
0.1850605 0.27866799 1.2058095
0.22339299 0.27853301 1.206848
0.18513601 0.288472 1.205658
0.18216 0.2925055 1.2061685
0.187884 0.294817 1.205932
0.194493 0.29769099 1.20546
0.1838645 0.30308402 1.208137
0.1893605 0.30118102 1.207567
0.19213051 0.302158 1.20597
0.197262 0.303749 1.206145
0.238589 0.300998 1.207292
0.18678799 0.3076995 1.2065535
0.194584 0.30807999 1.205539
0.18103801 0.31224599 1.209614
0.186022 0.314408 1.205887
0.1925675 0.312143 1.2084789
0.197089 0.312751 1.2080364
0.201084 0.31395301 1.2059129
0.232069 0.314787 1.2063
0.192219 0.31762999 1.207899
0.19626801 0.31967399 1.207971
0.20352101 0.31855851 1.2085025
0.208251 0.31984699 1.209742
0.225904 0.318389 1.205107
0.19814201 0.32208201 1.2095931
0.2028285 0.32385251 1.2079655
0.206861 0.32183599 1.206558
0.225173 0.321392 1.206586
0.195539 0.329059 1.207119
0.21233049 0.32707399 1.2063415
0.21680801 0.32773399 1.205406
0.220534 0.32864699 1.207436
0.203748 0.33065599 1.206949
0.20691401 0.33325648 1.2077484
0.21218665 0.33310834 1.206875
0.21787649 0.33254898 1.2076685
0.22287799 0.33316901 1.2063
0.225385 0.33445001 1.207188
0.196161 0.33733401 1.2074209
0.20886201 0.33588099 1.20997
0.213449 0.337102 1.2083715
0.223692 0.33595401 1.209415
0.20674151 0.34210849 1.207894
-0.48581001 -0.060476001 1.214991
-0.48349214 -0.057869121 1.2122854
-0.48320398 -0.052675933 1.2125412
-0.48514199 -0.046797998 1.2142611
-0.48400274 -0.047485299 1.2118803
-0.48649064 -0.043124001 1.2115301
-0.48273283 -0.042886801 1.2114093
-0.480396 -0.039491002 1.2105401
0.19796365 0.22707033 1.211538
0.193691 0.232859 1.211874
0.196803 0.23137 1.210683
0.198715 0.2367035 1.212191
0.20274875 0.2374195 1.2115674
0.205911 0.237509 1.21202
0.21043099 0.238489 1.210746
0.19389001 0.240522 1.212133
0.198272 0.244148 1.214573
0.2038265 0.243443 1.2128155
0.21175 0.244782 1.211735
0.20364 0.245069 1.21469
0.20737049 0.24585399 1.211729
0.211668 0.246343 1.214929
0.21729299 0.248643 1.21061
0.207149 0.2530905 1.2123765
0.2124735 0.2526755 1.2123265
0.187539 0.25626299 1.212679
0.209328 0.25878999 1.213605
0.213043 0.258699 1.2135971
0.21841949 0.259352 1.21252
0.220099 0.25508299 1.211519
0.178994 0.26298401 1.214102
0.21522 0.26241499 1.213761
0.22262949 0.2631695 1.2109095
0.212635 0.26856101 1.2149971
0.2175585 0.26773149 1.212675
0.2261605 0.26604849 1.2127216
0.23114701 0.269077 1.2103519
0.220814 0.27345699 1.212757
0.22750074 0.27692226 1.2126991
0.232443 0.27714199 1.214552
0.185848 0.28982201 1.2123441
0.183798 0.29953599 1.214085
0.186132 0.29894999 1.21021
0.1835555 0.30326101 1.212177
0.184654 0.305033 1.2148139
0.1879615 0.30730399 1.2126114
0.195522 0.30820099 1.210011
0.18365601 0.312291 1.213892
0.1924275 0.31298649 1.2132137
0.198185 0.314051 1.210572
0.1881655 0.3183735 1.214586
0.196573 0.31880599 1.2146651
0.189908 0.324812 1.210657
0.194561 0.32373601 1.213572
0.199754 0.321183 1.214213
0.20254549 0.3244285 1.2118475
0.18848599 0.32673299 1.2112069
0.20396501 0.32838249 1.210789
0.1975265 0.3319245 1.213874
0.207403 0.33230099 1.211923
0.213201 0.33351099 1.212574
0.22259501 0.333693 1.211852
0.226193 0.331756 1.211015
0.212216 0.33909699 1.211679
0.21857899 0.33951101 1.214151
0.221406 0.33900899 1.211753
0.198782 0.34225699 1.2109571
0.213053 0.34292299 1.21302
0.21689901 0.3428545 1.212111
-0.48346344 -0.062916785 1.2171022
-0.48641601 -0.056772999 1.2179657
-0.48338902 -0.057338219 1.217582
-0.48521599 -0.053596999 1.21745
-0.48358136 -0.0528755 1.2169716
-0.486532 -0.046707001 1.2178075
-0.48372597 -0.047859803 1.2169654
-0.48659152 -0.043280996 1.216802
-0.48148501 -0.043388002 1.2151099
0.19316199 0.23067001 1.216704
0.199332 0.234308 1.216575
0.20555 0.23333099 1.216051
0.195003 0.23845901 1.2166179
0.20032801 0.235522 1.2165101
0.19282401 0.241862 1.219226
0.197596 0.240778 1.219143
0.206935 0.24346399 1.218016
0.19851732 0.24679033 1.2188907
0.20217167 0.24595368 1.2164694
0.206411 0.24913099 1.21578
0.20315599 0.251645 1.21819
0.205906 0.2537995 1.218163
0.215326 0.250251 1.217055
0.200657 0.25767499 1.219376
0.20802867 0.25835502 1.2178797
0.21221501 0.25712499 1.2181619
0.18358 0.262389 1.21533
0.18858901 0.26467299 1.216508
0.21071801 0.264406 1.218411
0.21771699 0.2628935 1.2194095
0.22121599 0.263336 1.215263
0.207306 0.26593399 1.2195719
0.224986 0.269667 1.216287
0.213955 0.27419299 1.219768
0.21645099 0.27176052 1.2179871
0.220366 0.27406299 1.216295
0.222176 0.27912301 1.2175111
0.225706 0.27788299 1.2189496
0.230634 0.28060701 1.215381
0.22755401 0.285887 1.2173074
0.23093501 0.289083 1.219034
0.176761 0.31101999 1.219162
0.180755 0.31371599 1.215239
0.185729 0.31406301 1.2198
0.191065 0.3132 1.21855
0.190368 0.316625 1.219214
0.18188199 0.32296199 1.2158785
0.192985 0.32313651 1.2176161
0.19912601 0.324444 1.215101
0.236009 0.323551 1.215157
0.1939325 0.3255505 1.2181445
0.197394 0.32744199 1.2192
0.188977 0.33080801 1.219558
0.19193099 0.33443499 1.217328
0.200353 0.33331048 1.2191435
0.205027 0.33475801 1.217785
0.19112501 0.33783603 1.2167134
0.197394 0.33673099 1.2192
0.20229751 0.3360965 1.2175505
0.207105 0.338826 1.21922
-0.48386425 -0.06634175 1.2216878
-0.49540699 -0.061267 1.22144
-0.48356166 -0.062686838 1.221989
-0.485425 -0.058388501 1.223183
-0.48401669 -0.057759218 1.2225
-0.48674551 -0.052269999 1.2224163
-0.48372459 -0.052164458 1.2214636
-0.48695898 -0.048864499 1.2213845
-0.48422441 -0.0478848 1.2222291
0.196316 0.244059 1.221362
0.2013315 0.24132049 1.2224205
0.19452 0.247454 1.22396
0.197622 0.25271249 1.2222209
0.20134901 0.251728 1.22155
0.2077295 0.25295401 1.2215155
0.195329 0.25504801 1.2239521
0.20308951 0.2563135 1.2234855
0.209987 0.259339 1.224295
0.18286 0.262633 1.221117
0.201978 0.26330701 1.224148
0.205369 0.261796 1.223008
0.21345501 0.265154 1.222384
0.22169399 0.268567 1.220624
0.183873 0.27116999 1.2249531
0.18962 0.273215 1.220331
0.20822051 0.2727235 1.2220445
0.212108 0.270022 1.2232161
0.2177195 0.27888697 1.221161
0.2220915 0.279695 1.2225699
0.21414299 0.28268901 1.223426
0.217765 0.28099501 1.222338
0.22246601 0.28755599 1.221172
0.22615901 0.28769898 1.2224145
0.229203 0.29342401 1.22333
0.184559 0.31132099 1.2202311
0.18699151 0.3165395 1.2232594
0.19193199 0.323762 1.223092
0.181869 0.325661 1.2216181
0.18689434 0.32688966 1.223683
0.191278 0.327084 1.223745
0.182925 0.333958 1.222047
0.19688949 0.33165652 1.221944
0.183263 0.335621 1.222263
0.192077 0.33530799 1.224493
0.1959995 0.33653751 1.223781
-0.48547199 -0.066086002 1.226742
-0.48346964 -0.067541666 1.2276403
-0.49054801 -0.060231999 1.225608
-0.4860352 -0.062668398 1.2271754
-0.48361924 -0.063119993 1.2266706
-0.48706102 -0.057041399 1.2281917
-0.48385158 -0.05668385 1.2267246
-0.48575988 -0.053103574 1.2273489
-0.48347598 -0.052807502 1.228114
-0.48421901 -0.047336999 1.225606
0.197188 0.246548 1.227174
0.20330299 0.24910399 1.225028
0.197236 0.25014901 1.229777
0.2009 0.252498 1.22685
0.19797599 0.257521 1.226395
0.20002 0.259186 1.2276061
0.18904699 0.263192 1.227713
0.195462 0.26348799 1.227621
0.20352 0.26018301 1.2278171
0.207781 0.26283401 1.226741
0.204707 0.26575401 1.2265511
0.20213 0.27177101 1.227818
0.205643 0.27012801 1.22674
0.21473099 0.27310801 1.2266721
0.18493 0.27963799 1.228853
0.2113665 0.27755052 1.2262875
0.21664099 0.27732199 1.2283109
0.208799 0.280054 1.228014
0.21708199 0.28498101 1.225783
0.2217 0.28353 1.2265739
0.218043 0.28948799 1.226046
0.223877 0.287779 1.22858
0.222305 0.294723 1.2299089
0.218328 0.298015 1.229782
0.224821 0.29776099 1.2262551
0.228045 0.29707101 1.2255009
0.23061401 0.30154201 1.227859
0.18742 0.30592901 1.229903
0.18135799 0.32485899 1.2295721
0.19008701 0.32279301 1.228516
0.19016699 0.33224699 1.2287771
0.23036601 0.33392099 1.2270629
-0.48609999 -0.072717004 1.2311338
-0.48313388 -0.072092637 1.2324471
-0.48379552 -0.067616887 1.2329599
-0.48600358 -0.062938794 1.2335434
-0.48345131 -0.062039204 1.2320763
-0.48661551 -0.057601251 1.232049
-0.48402488 -0.057813447 1.2319963
-0.48721653 -0.052414503 1.2321377
-0.484754 -0.052547999 1.231793
-0.48237351 -0.04933 1.231645
0.195243 0.250184 1.231194
0.19773 0.26357099 1.2307484
0.202107 0.26051301 1.2310981
0.192074 0.26829949 1.2336919
0.196786 0.26913601 1.232407
0.200279 0.26751101 1.231351
0.20494799 0.274149 1.230238
0.209041 0.27078101 1.231041
0.203455 0.27742001 1.232603
0.20588499 0.27858999 1.230461
0.211698 0.282406 1.230395
0.215994 0.281196 1.230955
0.206135 0.287085 1.23421
0.21266299 0.286863 1.23067
0.21800099 0.285382 1.2328171
0.212933 0.29538199 1.2344199
0.224704 0.29913199 1.232121
0.22361299 0.302892 1.234257
0.232557 0.30651999 1.233369
0.18785 0.32685 1.232953
-0.48607302 -0.076815002 1.2380099
-0.48346367 -0.077315502 1.2369952
-0.48647299 -0.070389003 1.235353
-0.48367903 -0.07182955 1.2377511
-0.48624349 -0.067456 1.2378075
-0.48393789 -0.068013571 1.2379178
-0.48674583 -0.062435497 1.2375876
-0.4837437 -0.062563568 1.2374099
-0.48697183 -0.058117166 1.2371264
-0.48433501 -0.058772501 1.2376549
-0.48339301 -0.052873001 1.2354439
0.19643299 0.25819299 1.235455
0.2020255 0.26865351 1.2356565
0.19179501 0.27462301 1.237304
0.19645567 0.27342567 1.238263
0.2025425 0.27624702 1.237402
0.206314 0.27983201 1.235006
0.210287 0.278862 1.235337
0.19975699 0.28009301 1.238539
0.20073999 0.28445199 1.238848
0.18644699 0.28504601 1.237553
0.211523 0.28621301 1.236079
0.21726801 0.289314 1.23527
0.20753799 0.29274899 1.239058
0.210825 0.29002801 1.238724
0.21935301 0.29358 1.237323
0.217857 0.30053699 1.238677
0.22431999 0.30416599 1.238885
0.226091 0.307381 1.236663
0.22491001 0.31119701 1.238603
0.184985 0.31938201 1.238115
0.18873 0.31790799 1.2361929
0.191156 0.32102701 1.236604
0.23091701 0.32493201 1.236727
0.18668 0.32782 1.238198
-0.485425 -0.0766 1.243669
-0.48382145 -0.077006862 1.2426897
-0.48708999 -0.072127998 1.244524
-0.48335949 -0.072980665 1.2424808
-0.4864085 -0.069194004 1.2447915
-0.48394826 -0.067403145 1.2419173
-0.48614314 -0.06245083 1.2427486
-0.48414052 -0.063768499 1.2426534
-0.48626199 -0.05914 1.2419339
-0.48396701 -0.058679499 1.2414715
0.19811399 0.27722201 1.243171
0.1936665 0.28249449 1.242264
0.20562901 0.28380901 1.240328
0.189262 0.28706601 1.2438641
0.20508499 0.28768101 1.243132
0.197844 0.29093599 1.241758
0.202142 0.29011601 1.243695
0.206972 0.29190001 1.244907
0.212883 0.29431 1.2406451
0.2121 0.29818299 1.243098
0.220162 0.30496299 1.240937
0.219136 0.308835 1.243037
0.226348 0.30900401 1.2447391
0.190293 0.31153199 1.240647
-0.48712233 -0.081323661 1.2482673
-0.48369905 -0.082490809 1.2468314
-0.487073 -0.077256501 1.248747
-0.48400694 -0.07730744 1.2477533
-0.4879905 -0.072361 1.248119
-0.48381141 -0.072755001 1.2474991
-0.485356 -0.068992004 1.2463927
-0.483666 -0.067174777 1.247416
-0.486799 -0.063106 1.248538
-0.48423335 -0.061331671 1.2489287
0.19934499 0.28533301 1.247539
0.201061 0.289489 1.249169
0.191268 0.29219601 1.249209
0.19557101 0.29033101 1.24729
0.206343 0.295829 1.2475179
0.207697 0.303377 1.248556
0.21423399 0.30254501 1.245212
0.21336199 0.306474 1.24747
0.21955299 0.31007099 1.2478679
-0.48342556 -0.083290339 1.2522693
-0.48733398 -0.076656669 1.2528337
-0.48343432 -0.077162333 1.252569
-0.48605433 -0.072070673 1.2523266
-0.48359701 -0.071631998 1.2522074
-0.48620075 -0.066677496 1.2527566
-0.48392317 -0.068023331 1.2533455
-0.48550501 -0.064526998 1.2500859
-0.48391101 -0.059953999 1.251876
0.18746001 0.26952699 1.252865
0.20058601 0.293475 1.251938
0.193202 0.29673901 1.250667
0.19169401 0.303635 1.252719
0.20175201 0.300951 1.252843
0.20833801 0.300928 1.2528321
0.21221501 0.31457001 1.250059
-0.48622 -0.086452 1.2579399
-0.48360729 -0.086665891 1.2579379
-0.48761401 -0.084742002 1.2581871
-0.48357528 -0.082539283 1.2570201
-0.48696601 -0.077079996 1.255836
-0.48357481 -0.077870503 1.2569777
-0.48661274 -0.072216995 1.2584908
-0.48406383 -0.072013341 1.2585474
-0.48555201 -0.069651 1.255494
-0.48403901 -0.068630502 1.2566705
0.195162 0.301761 1.2562259
0.201814 0.30175099 1.256338
0.194497 0.30562499 1.258998
0.185826 0.31579199 1.255975
-0.48548198 -0.086570501 1.2625315
-0.48219389 -0.086735874 1.262707
-0.490522 -0.083856001 1.263747
-0.48698902 -0.081876002 1.2633907
-0.48310837 -0.081639007 1.2623284
-0.48554999 -0.079561003 1.262821
-0.48379171 -0.077629 1.2621721
-0.48618999 -0.072696999 1.260848
-0.48337629 -0.072979838 1.2626399
-0.48565701 -0.089390002 1.2679141
-0.48253238 -0.088165261 1.2678181
-0.48610401 -0.08027 1.268473
-0.48269436 -0.082725167 1.2673553
-0.48773 -0.076104999 1.266961
-0.48265731 -0.077621445 1.2672982
-0.482885 -0.072171502 1.265631
-0.47938401 -0.095058002 1.274894
-0.48796901 -0.092472501 1.2744939
-0.48217285 -0.092245504 1.2728868
-0.47965601 -0.090778999 1.27377
-0.487418 -0.085726999 1.272832
-0.48253742 -0.087689497 1.2717602
-0.48568749 -0.0836735 1.2741261
-0.48334742 -0.082286097 1.2724007
-0.48535201 -0.078524001 1.271445
-0.48357999 -0.0786025 1.2729223
-0.48307198 -0.073183499 1.270847
-0.48182365 -0.092130333 1.2777407
-0.47999099 -0.094547004 1.277464
-0.48206139 -0.087378994 1.2771499
-0.479812 -0.088820003 1.2790771
-0.48600149 -0.083299249 1.2773125
-0.48351789 -0.083249725 1.2782495
-0.48313999 -0.077441499 1.276597
-0.48074433 -0.097732663 1.2810563
-0.47961226 -0.097563498 1.28195
-0.48594299 -0.092404 1.282825
-0.4815082 -0.092073597 1.2827247
-0.47940001 -0.092279337 1.2815399
-0.48246083 -0.087789826 1.2821578
-0.485874 -0.080044001 1.281726
-0.48181349 -0.084125504 1.2830064
-0.48754901 -0.096059002 1.289567
-0.48141241 -0.096800201 1.2877043
-0.47885966 -0.097709626 1.2879153
-0.48112696 -0.092604697 1.2880722
-0.47963798 -0.092611 1.2855544
-0.48558801 -0.088269003 1.285971
-0.48120937 -0.087303668 1.2888603
-0.483926 -0.083317995 1.2855195
-0.48012599 -0.103764 1.294557
-0.47799212 -0.10286443 1.2923841
-0.48451 -0.099009 1.29264
-0.47889662 -0.097673371 1.292899
-0.48126316 -0.091989793 1.2922971
-0.47934031 -0.092905335 1.2918813
-0.48081499 -0.089203998 1.2919641
-0.47882801 -0.087589003 1.2917449
-0.481024 -0.084799998 1.29017
-0.474958 -0.105541 1.298793
-0.48402801 -0.100843 1.298056
-0.47828996 -0.10257367 1.2971817
-0.48231673 -0.097340249 1.297544
-0.47853246 -0.097979337 1.2980733
-0.48576501 -0.093324997 1.297047
-0.48050901 -0.094392002 1.296764
-0.47957197 -0.092150331 1.2973326
-0.48152 -0.087297998 1.297217
-0.47669917 -0.1077139 1.302654
-0.48567 -0.100498 1.302048
-0.48135549 -0.1022835 1.3024685
-0.47756577 -0.10226467 1.3026185
-0.48314399 -0.095104001 1.3022799
-0.4786604 -0.097732596 1.3024333
-0.4789215 -0.094403997 1.3021569
-0.48170298 -0.108273 1.3085425
-0.47625938 -0.107016 1.308125
-0.47273001 -0.107122 1.307243
-0.47684461 -0.1030255 1.3069582
-0.474931 -0.101649 1.3099869
-0.48071399 -0.097628504 1.3055395
-0.47856936 -0.098609664 1.306743
-0.47390935 -0.11137983 1.3119259
-0.48122001 -0.109706 1.311313
-0.47682598 -0.10705999 1.3125606
-0.47400033 -0.10771368 1.3130665
-0.48022899 -0.100661 1.310796
-0.47667599 -0.10240313 1.3133639
-0.476704 -0.099441499 1.3109939
-0.47706097 -0.111293 1.3181705
-0.47293425 -0.11245421 1.3180137
-0.47661451 -0.106383 1.317207
-0.47390619 -0.1082926 1.3163359
-0.47541901 -0.10343233 1.3159584
-0.47445735 -0.10413266 1.3183104
-0.47273111 -0.11282066 1.3222975
-0.475779 -0.107762 1.320024
-0.47393751 -0.10814051 1.3222775
-0.47728151 -0.116075 1.3277075
-0.47158358 -0.11652871 1.3282707
-0.46897203 -0.11838 1.329697
-0.47225243 -0.11274119 1.3268801
-0.47349125 -0.10754875 1.3262535
-0.47141373 -0.11733075 1.3322874
-0.46929151 -0.119116 1.3308234
-0.47204748 -0.11339834 1.3324522
-0.46945 -0.112183 1.333292
-0.47137699 -0.108006 1.332854
-0.46677813 -0.12239671 1.3370122
-0.47201452 -0.11805075 1.3359928
-0.46886057 -0.11681399 1.337395
-0.472379 -0.111236 1.33849
-0.46655363 -0.12324075 1.3415546
-0.46809876 -0.1187925 1.3427241
-0.46334201 -0.1276156 1.3480666
-0.470018 -0.12108 1.345235
-0.46659935 -0.12239333 1.3470255
-0.46413052 -0.12327 1.347827
-0.46599799 -0.118614 1.3453696
-0.46413499 -0.119878 1.346346
-0.465233 -0.12593099 1.350475
-0.46255684 -0.1279525 1.3522954
-0.46254432 -0.12354233 1.353031
-0.459308 -0.13237101 1.3582625
-0.46656901 -0.128537 1.357342
-0.46287134 -0.12780666 1.3569394
-0.45892501 -0.12888725 1.3627419
-0.456166 -0.118605 1.364386
-0.460107 -0.13428099 1.368734
-0.45662665 -0.136739 1.3716279
-0.45329544 -0.13796471 1.3732297
-0.45228601 -0.139709 1.377704
-0.4507845 -0.14275551 1.3813565
-0.44718301 -0.143225 1.383057
-0.44912699 -0.13882001 1.38008
-0.44631702 -0.14385799 1.3871055
-0.44528151 -0.146928 1.3920529
-0.43891901 -0.148513 1.3944449
-0.4427025 -0.14349701 1.3924766
-0.4428755 -0.14817199 1.3965025
-0.441387 -0.151081 1.4010431
-0.4317185 -0.155882 1.408093
-0.43051299 -0.149949 1.409714
-0.43126449 -0.1567485 1.4112589
-0.42823401 -0.158306 1.4121954
-0.428684 -0.152015 1.412618
-0.42585501 -0.147791 1.413034
-0.40385351 -0.1157375 1.4136755
-0.40229201 -0.113164 1.411949
-0.400374 -0.109975 1.41149
-0.40257499 -0.100964 1.41469
-0.42497101 -0.1602 1.418666
-0.42807478 -0.15795425 1.41605
-0.43065599 -0.15396 1.41668
-0.4290005 -0.1530935 1.416188
-0.42705399 -0.14759949 1.417074
-0.42230451 -0.1474575 1.4183304
-0.42209876 -0.14283049 1.4185879
-0.42092198 -0.1388115 1.4191916
-0.41750574 -0.1371185 1.4167511
-0.41762233 -0.13313134 1.4179837
-0.41369247 -0.13181774 1.4181647
-0.417191 -0.127129 1.419034
-0.41124249 -0.12718299 1.4172695
-0.41148001 -0.123553 1.418877
-0.406405 -0.123252 1.416513
-0.41044 -0.119543 1.418552
-0.405606 -0.117415 1.417343
-0.40389633 -0.11866967 1.4175574
-0.40679502 -0.1125945 1.4171945
-0.40225199 -0.110159 1.418677
-0.40555048 -0.10647149 1.4175456
-0.40419999 -0.109762 1.4166141
-0.40147901 -0.100149 1.416786
-0.39767799 -0.101872 1.4199851
-0.42291367 -0.16219433 1.423988
-0.430273 -0.15589599 1.423039
-0.42679638 -0.15802822 1.4217312
-0.424503 -0.159694 1.4222491
-0.42764139 -0.1521216 1.4218298
-0.42414501 -0.15364499 1.423591
-0.42692196 -0.14625867 1.4229623
-0.424088 -0.14801051 1.422758
-0.43033099 -0.141114 1.424934
-0.42639351 -0.1409905 1.4215324
-0.423112 -0.142758 1.42274
-0.42594501 -0.13773701 1.42449
-0.421747 -0.13785326 1.4223472
-0.41979501 -0.137614 1.424143
-0.42206264 -0.13318367 1.4223317
-0.41863599 -0.13322151 1.4228055
-0.41483501 -0.132495 1.421898
-0.42244399 -0.12796301 1.4247071
-0.41782928 -0.12753099 1.4232128
-0.414451 -0.127545 1.4220196
-0.40975201 -0.125016 1.421268
-0.41738126 -0.12251725 1.4243927
-0.41254574 -0.1217965 1.421401
-0.413248 -0.117834 1.4239424
-0.40702599 -0.1172686 1.4209449
-0.41265401 -0.114989 1.421741
-0.40665576 -0.11286625 1.4222747
-0.40744299 -0.1071345 1.424607
-0.40328065 -0.10680867 1.4225011
-0.40228951 -0.102883 1.4225376
-0.4054125 -0.098002501 1.424273
-0.40429199 -0.099909998 1.4218611
-0.39886498 -0.093402997 1.4244111
-0.42248398 -0.162672 1.4265406
-0.42670399 -0.15900099 1.425953
-0.42279068 -0.15760367 1.4288983
-0.42586601 -0.15227899 1.4257665
-0.42383537 -0.15241566 1.4273643
-0.42624936 -0.14738166 1.4281756
-0.42453998 -0.1470975 1.428192
-0.43102801 -0.141792 1.427422
-0.42669299 -0.1430665 1.4265466
-0.42674303 -0.13880141 1.4272683
-0.42466199 -0.13770249 1.4285445
-0.42788702 -0.1347115 1.4279439
-0.42175314 -0.13223925 1.4269567
-0.42535001 -0.127942 1.429002
-0.42299268 -0.12746033 1.427043
-0.41689599 -0.12613 1.4259105
-0.42259949 -0.12216049 1.4285669
-0.41706139 -0.1219882 1.4278915
-0.41795599 -0.117634 1.4282584
-0.410272 -0.11883 1.425483
-0.43032601 -0.112666 1.428691
-0.41730452 -0.113602 1.4282645
-0.41178721 -0.1130612 1.4276199
-0.40821701 -0.112911 1.425084
-0.411755 -0.10742533 1.427884
-0.40727299 -0.10848 1.4266548
-0.40416601 -0.105566 1.429001
-0.40702924 -0.10192826 1.4275839
-0.40168598 -0.10146099 1.4256287
-0.40525699 -0.099536002 1.425932
-0.402886 -0.095793329 1.427807
-0.406084 -0.091548003 1.428735
-0.40342051 -0.091850996 1.4257975
-0.40693301 -0.087536 1.429526
-0.400868 -0.087149002 1.4278181
-0.41744268 -0.166759 1.4325666
-0.423502 -0.160384 1.431082
-0.41803697 -0.162802 1.4326407
-0.42115501 -0.15707999 1.431762
-0.418632 -0.158444 1.432362
-0.42651501 -0.15261801 1.430106
-0.4215 -0.15351616 1.4320765
-0.42556599 -0.14704598 1.4316953
-0.42239699 -0.149938 1.4339
-0.42588401 -0.1426992 1.4324301
-0.42258 -0.1411345 1.43208
-0.427692 -0.137721 1.431706
-0.42337334 -0.13723032 1.4324466
-0.426741 -0.13245867 1.4325784
-0.42685699 -0.12844224 1.4324882
-0.42301533 -0.12711366 1.4309882
-0.4271678 -0.12322839 1.432923
-0.42349625 -0.122955 1.4323859
-0.425699 -0.119139 1.43116
-0.42330649 -0.1175845 1.4320105
-0.41716114 -0.11745634 1.4316349
-0.41837785 -0.1130525 1.4327831
-0.41202298 -0.11180034 1.4309345
-0.431236 -0.105024 1.434346
-0.42180899 -0.107828 1.434502
-0.41780797 -0.10778866 1.433073
-0.41322976 -0.10742875 1.4324175
-0.407004 -0.105522 1.430142
-0.415629 -0.102505 1.4341691
-0.41257027 -0.101721 1.4319392
-0.40788779 -0.10079019 1.4320996
-0.413605 -0.096180998 1.433779
-0.40767398 -0.097327001 1.432964
-0.40459001 -0.099886 1.431224
-0.40657002 -0.094119504 1.4313974
-0.40316802 -0.092745498 1.432073
-0.40538949 -0.088030502 1.4332775
-0.40377 -0.089502998 1.433609
-0.40690202 -0.082683504 1.4338219
-0.40211451 -0.083009496 1.4337084
-0.39824599 -0.084021002 1.430896
-0.40073299 -0.077836998 1.433997
-0.398357 -0.066528998 1.434576
-0.42230901 -0.16617 1.437721
-0.41448525 -0.16752601 1.4369873
-0.41731599 -0.162118 1.4371941
-0.41398948 -0.16350451 1.438791
-0.41828898 -0.15683967 1.4366993
-0.42208701 -0.15285601 1.435761
-0.41749299 -0.15162 1.437732
-0.42212921 -0.14882979 1.4362459
-0.41967499 -0.1480435 1.4381914
-0.42578498 -0.14093734 1.436409
-0.421316 -0.1433475 1.4388205
-0.42569336 -0.13619967 1.4366032
-0.42398798 -0.13747001 1.4382514
-0.43025899 -0.134876 1.436126
-0.42711797 -0.13241367 1.436602
-0.42389598 -0.13147533 1.4359699
-0.42681122 -0.1275785 1.4372497
-0.42482099 -0.12666599 1.438989
-0.41727901 -0.12524299 1.435245
-0.42706409 -0.12254401 1.4380122
-0.42356467 -0.12077466 1.4352536
-0.42834026 -0.11751575 1.4364491
-0.42259359 -0.11752959 1.4363068
-0.4269965 -0.1126105 1.438489
-0.42352757 -0.11187939 1.4376848
-0.41734001 -0.110878 1.437009
-0.42185527 -0.10825275 1.4378289
-0.41791922 -0.1073774 1.4371636
-0.42210549 -0.1029605 1.4388975
-0.4173145 -0.10212025 1.4381845
-0.41268373 -0.10193 1.4372163
-0.41768035 -0.097413331 1.438435
-0.41186631 -0.095794 1.4381766
-0.40861401 -0.095063001 1.435384
-0.41087401 -0.092579 1.437793
-0.40831962 -0.092327848 1.436921
-0.40152201 -0.092577003 1.436041
-0.40722799 -0.087641001 1.4370223
-0.40283036 -0.087661661 1.4362825
-0.40743899 -0.081542 1.438017
-0.40417933 -0.082322337 1.438255
-0.4022305 -0.077590503 1.4372001
-0.398936 -0.075453997 1.4391789
-0.39408499 -0.078093 1.438893
-0.40064499 -0.073981002 1.438259
-0.398965 -0.074288003 1.439909
-0.41220826 -0.17203724 1.4417084
-0.41140732 -0.16790234 1.4432646
-0.408811 -0.169734 1.4413331
-0.41583699 -0.162055 1.441911
-0.41229558 -0.16313979 1.4426048
-0.423417 -0.15680499 1.441689
-0.417328 -0.15629767 1.441429
-0.41340238 -0.15805681 1.4418794
-0.42026499 -0.15211999 1.444554
-0.41752002 -0.15299501 1.4422456
-0.42184299 -0.146359 1.440007
-0.41698098 -0.14803733 1.4418048
-0.42293897 -0.14199167 1.4418246
-0.41850501 -0.14209551 1.4437366
-0.42144355 -0.13705321 1.4440402
-0.41997999 -0.13934501 1.443772
-0.42596164 -0.13228334 1.4418763
-0.422342 -0.13268399 1.4424725
-0.42545033 -0.12852301 1.4421639
-0.42387301 -0.12872501 1.441754
-0.42737949 -0.122833 1.4417894
-0.42283201 -0.123617 1.4436311
-0.42735249 -0.116811 1.4432082
-0.42406601 -0.1166815 1.442475
-0.432677 -0.112491 1.444101
-0.42808875 -0.11376275 1.4432615
-0.42312133 -0.11278033 1.4416943
-0.42741403 -0.10716667 1.4427305
-0.42445302 -0.10752233 1.4431161
-0.41668701 -0.106182 1.44011
-0.42510101 -0.10328 1.444191
-0.42272532 -0.10334266 1.4416381
-0.41895801 -0.100947 1.4431
-0.425634 -0.098601997 1.444207
-0.42280874 -0.096546248 1.4437245
-0.41834101 -0.097428501 1.4446194
-0.4135235 -0.096918002 1.4418925
-0.41823331 -0.091068335 1.4428815
-0.41371498 -0.092929401 1.4422724
-0.41647601 -0.089566 1.44424
-0.41165134 -0.087037005 1.4428769
-0.4083313 -0.087435663 1.44129
-0.411515 -0.081845 1.443563
-0.40799567 -0.082475998 1.4424049
-0.41183099 -0.076266997 1.44384
-0.40775079 -0.077416606 1.4421268
-0.40378302 -0.078675248 1.4416083
-0.40685165 -0.072472669 1.4433709
-0.4031176 -0.072321601 1.4423983
-0.40217066 -0.067710005 1.4427396
-0.40159801 -0.063378997 1.444315
-0.39822799 -0.062519997 1.44407
-0.39884499 -0.059103001 1.440052
-0.41554999 -0.171341 1.445101
-0.41165751 -0.17153099 1.4488389
-0.40696949 -0.17072999 1.447824
-0.41222599 -0.165784 1.446255
-0.4084343 -0.16738832 1.4474834
-0.41142097 -0.16270535 1.447666
-0.4091565 -0.1645135 1.446517
-0.41710499 -0.15801001 1.4483041
-0.41200218 -0.1569315 1.4475113
-0.423998 -0.15147901 1.446511
-0.41347122 -0.15184841 1.4467605
-0.41677123 -0.1476 1.4465817
-0.41275901 -0.14975099 1.449459
-0.41772217 -0.1433972 1.447108
-0.42053199 -0.135748 1.447444
-0.41740975 -0.13697726 1.4481649
-0.421601 -0.13145301 1.447968
-0.42623299 -0.126882 1.446712
-0.42294833 -0.12594034 1.4472357
-0.42577302 -0.1234435 1.445546
-0.42305398 -0.12147366 1.44622
-0.42692819 -0.11741801 1.4477125
-0.423392 -0.117805 1.447711
-0.42826802 -0.1119035 1.447585
-0.42462301 -0.112421 1.446609
-0.43264601 -0.107216 1.446563
-0.42843422 -0.1077134 1.4476664
-0.42311835 -0.10681333 1.4478763
-0.42701134 -0.10205267 1.446685
-0.42423499 -0.103033 1.447987
-0.41659299 -0.101012 1.446196
-0.42728499 -0.096996002 1.4479417
-0.421343 -0.096479662 1.446627
-0.41636699 -0.099317998 1.445971
-0.42666301 -0.093506999 1.448983
-0.42278349 -0.091513753 1.4476277
-0.41915068 -0.092572995 1.4484544
-0.42347199 -0.088280998 1.449453
-0.416581 -0.087348998 1.44576
-0.41412377 -0.088800751 1.446367
-0.42460999 -0.084307998 1.449823
-0.4176766 -0.083498597 1.4479405
-0.41269627 -0.082846746 1.4465652
-0.408613 -0.084298 1.4453955
-0.41660801 -0.078832999 1.449388
-0.41095978 -0.0771534 1.4478213
-0.408306 -0.076526999 1.447389
-0.42126799 -0.073043004 1.4498
-0.41207662 -0.072618335 1.4486796
-0.40732101 -0.071547002 1.4475905
-0.40447748 -0.072487503 1.447654
-0.40604165 -0.066363998 1.4491822
-0.40395901 -0.068165004 1.447681
-0.39925 -0.066992 1.445226
-0.40557799 -0.062745497 1.449906
-0.40236482 -0.0620014 1.4475436
-0.40136552 -0.0562765 1.4483476
-0.40293252 -0.052119501 1.4497786
-0.406993 -0.176808 1.453426
-0.41221899 -0.170811 1.451512
-0.40903801 -0.171551 1.453689
-0.41653401 -0.16551 1.452566
-0.412467 -0.16929699 1.452889
-0.408548 -0.16769801 1.451395
-0.41157201 -0.160533 1.450421
-0.40890551 -0.1630695 1.453217
-0.41101265 -0.15780632 1.4522094
-0.40708366 -0.158751 1.4529554
-0.41741899 -0.154742 1.453492
-0.41202223 -0.1520505 1.4515648
-0.40798 -0.150893 1.454471
-0.42458099 -0.146137 1.451357
-0.41566065 -0.14816467 1.4521486
-0.41262099 -0.147484 1.453923
-0.41682649 -0.14141449 1.452453
-0.41361398 -0.14353339 1.4528248
-0.41615435 -0.13674168 1.4519724
-0.42627701 -0.132223 1.454706
-0.42053699 -0.132109 1.450658
-0.4174518 -0.1320432 1.4530102
-0.42115399 -0.12657399 1.452948
-0.41883767 -0.12833132 1.4530717
-0.42096201 -0.122594 1.4522114
-0.41897199 -0.122369 1.453547
-0.42548701 -0.119798 1.451447
-0.42300951 -0.11712225 1.4532567
-0.42283967 -0.11334834 1.4521986
-0.42651349 -0.1075305 1.4515486
-0.42691916 -0.1026382 1.4528151
-0.42421299 -0.100071 1.450817
-0.4282105 -0.097608499 1.451635
-0.42385802 -0.097084746 1.4527417
-0.42612001 -0.091019005 1.4538908
-0.4244085 -0.0926245 1.4526925
-0.41828099 -0.091186002 1.45002
-0.43028501 -0.088342004 1.4522901
-0.42890701 -0.088839002 1.452197
-0.42206502 -0.086494997 1.4517835
-0.42242861 -0.083466597 1.4532032
-0.41637701 -0.083246998 1.4502155
-0.414839 -0.080691002 1.4503289
-0.42276651 -0.079290494 1.4532549
-0.41751021 -0.0778732 1.4529785
-0.41772667 -0.073527336 1.453643
-0.41246602 -0.071272999 1.4523929
-0.40996 -0.073701002 1.45075
-0.411282 -0.068084203 1.4532112
-0.40654001 -0.0654625 1.4511039
-0.411275 -0.063176997 1.453416
-0.40685299 -0.062268663 1.451674
-0.40416801 -0.061744999 1.4519041
-0.40710998 -0.056594253 1.453624
-0.40305164 -0.056780998 1.4524287
-0.39894 -0.05816 1.450467
-0.40221423 -0.052272253 1.4527601
-0.405729 -0.045453001 1.4548711
-0.40273726 -0.048488751 1.4535117
-0.39875701 -0.040059999 1.452386
-0.40005201 -0.179445 1.457002
-0.40858299 -0.17001501 1.455456
-0.40347499 -0.171606 1.4576679
-0.40815532 -0.16684699 1.457733
-0.400363 -0.16635001 1.458342
-0.409006 -0.15838601 1.456691
-0.417732 -0.151474 1.45868
-0.41146669 -0.15221366 1.456181
-0.40730101 -0.15205351 1.4579062
-0.41174451 -0.146925 1.4567266
-0.40868101 -0.145244 1.45841
-0.41527399 -0.143141 1.457171
-0.41175699 -0.142647 1.4570837
-0.41634798 -0.138091 1.457983
-0.413414 -0.13721767 1.4571342
-0.42484501 -0.131936 1.457646
-0.41534001 -0.1312295 1.4575756
-0.41365749 -0.132943 1.4596045
-0.41700751 -0.12713775 1.4577723
-0.42744499 -0.122361 1.458889
-0.42178151 -0.1226645 1.4566114
-0.41687724 -0.1226725 1.4583942
-0.42091399 -0.119856 1.457341
-0.41968849 -0.1168045 1.458022
-0.42353901 -0.11135224 1.4566038
-0.42313424 -0.10850075 1.4560862
-0.42770052 -0.1013745 1.456342
-0.42469701 -0.104712 1.457404
-0.43075001 -0.098272003 1.458979
-0.4270395 -0.095671497 1.4575851
-0.42441699 -0.097611003 1.459075
-0.42686725 -0.092926994 1.4575963
-0.42460701 -0.093051001 1.455979
-0.43588501 -0.089860998 1.456411
-0.4267292 -0.087480202 1.457437
-0.41963401 -0.086841002 1.456205
-0.438243 -0.082291 1.458627
-0.42307597 -0.081903502 1.4580107
-0.431876 -0.078445002 1.456617
-0.42552599 -0.076440997 1.455632
-0.421992 -0.077458806 1.4578606
-0.41763699 -0.075714998 1.455583
-0.42689499 -0.074821003 1.457776
-0.42251134 -0.072229668 1.4583822
-0.41821951 -0.071340747 1.4574765
-0.4147315 -0.070905507 1.4570485
-0.42002499 -0.067033 1.459038
-0.41840467 -0.066597335 1.4585476
-0.411874 -0.065650001 1.456683
-0.40634099 -0.065784998 1.456196
-0.420699 -0.064388998 1.4590369
-0.41631103 -0.064630002 1.456742
-0.41277477 -0.062561996 1.4579298
-0.4083105 -0.062221497 1.4568806
-0.41301367 -0.059166998 1.4583677
-0.40731102 -0.057552803 1.457498
-0.40473601 -0.055199999 1.4563169
-0.40756083 -0.052258801 1.4585009
-0.40659866 -0.047384668 1.4584697
-0.40342551 -0.045722 1.4579794
-0.40808699 -0.040017001 1.457976
-0.40290233 -0.043467999 1.4561486
-0.39592499 -0.042160001 1.4560781
-0.406156 -0.036738001 1.458246
-0.39907652 -0.036094002 1.4574106
-0.40090251 -0.03427 1.4591606
-0.40856799 -0.019118 1.4556071
-0.41068199 -0.16010199 1.460755
-0.40738797 -0.16426533 1.4621906
-0.40271249 -0.160824 1.4622689
-0.40851501 -0.15657699 1.4627345
-0.40375599 -0.15781599 1.464518
-0.39572901 -0.15519699 1.462231
-0.408746 -0.151897 1.461048
-0.40475899 -0.152482 1.4602849
-0.39923799 -0.15473799 1.460906
-0.408254 -0.146559 1.4630873
-0.41263199 -0.142524 1.4607805
-0.40977699 -0.144878 1.46294
-0.41736501 -0.13517299 1.46425
-0.41115099 -0.13748449 1.462321
-0.40938425 -0.13739076 1.4620368
-0.420104 -0.13146999 1.461012
-0.41366851 -0.1313445 1.4618089
-0.41327199 -0.12798233 1.4640688
-0.42575499 -0.124364 1.462288
-0.4180795 -0.1207695 1.461393
-0.414482 -0.12320834 1.4621407
-0.41848201 -0.118588 1.462204
-0.41349399 -0.115783 1.464949
-0.42037499 -0.111021 1.462751
-0.41629997 -0.11434066 1.4642464
-0.421702 -0.107953 1.4603781
-0.41892299 -0.109641 1.4622771
-0.42302436 -0.10304112 1.4623967
-0.425587 -0.098398998 1.461926
-0.42406899 -0.097786501 1.4623075
-0.42683899 -0.093808502 1.4631135
-0.42363352 -0.090941504 1.462873
-0.42600948 -0.086916499 1.4630256
-0.42373151 -0.086021498 1.4639776
-0.427266 -0.08147075 1.4615953
-0.42369699 -0.082277998 1.464307
-0.42788768 -0.078537337 1.4624643
-0.42337868 -0.07577467 1.4610204
-0.432937 -0.070188001 1.462549
-0.42659897 -0.072057255 1.4628737
-0.422784 -0.072757997 1.4646699
-0.426222 -0.068028003 1.4623005
-0.424348 -0.069303997 1.464545
-0.41824999 -0.068208002 1.461225
-0.431954 -0.061340999 1.462171
-0.42028999 -0.064722002 1.460879
-0.41794699 -0.062804751 1.4628799
-0.42307299 -0.057135001 1.461532
-0.418035 -0.0582495 1.4631586
-0.41327277 -0.057045251 1.4621055
-0.41660601 -0.051249001 1.464806
-0.41310731 -0.052373853 1.462839
-0.41128701 -0.045297001 1.462487
-0.40727758 -0.047801197 1.4619219
-0.40767401 -0.043191999 1.46385
-0.40205231 -0.041195333 1.4619204
-0.40507901 -0.035592999 1.463276
-0.40268168 -0.037557665 1.4636492
-0.39960501 -0.033399001 1.464087
-0.40171301 -0.0290845 1.4620175
-0.39888299 -0.027943 1.46479
-0.40879101 -0.16179 1.465414
-0.40032801 -0.160744 1.466602
-0.401122 -0.15919501 1.467087
-0.41123199 -0.154801 1.465543
-0.405406 -0.153139 1.465811
-0.40155801 -0.153897 1.467672
-0.4069885 -0.148147 1.4675984
-0.3984293 -0.14862233 1.4669927
-0.41288999 -0.14266101 1.467929
-0.40467399 -0.140039 1.469009
-0.39425701 -0.143636 1.4653161
-0.41166267 -0.13763933 1.4668242
-0.40687165 -0.13874066 1.4683002
-0.40385801 -0.138409 1.468326
-0.41742101 -0.1319 1.469582
-0.41161203 -0.13172325 1.467479
-0.40886599 -0.1325435 1.4664695
-0.41536 -0.127389 1.46718
-0.41242301 -0.126706 1.465403
-0.40907198 -0.12822199 1.4680765
-0.41282398 -0.1228444 1.4676968
-0.41547301 -0.116182 1.465942
-0.41364399 -0.11650451 1.4683475
-0.41677424 -0.11160575 1.4680824
-0.41865501 -0.109474 1.4672465
-0.417822 -0.102921 1.469192
-0.42184827 -0.096643254 1.467797
-0.42148936 -0.09352567 1.468029
-0.43019399 -0.088022999 1.4673135
-0.42552599 -0.088342004 1.4664561
-0.42636299 -0.081138499 1.4664145
-0.42611676 -0.07865075 1.4672053
-0.430729 -0.071939997 1.4673049
-0.42774749 -0.072578996 1.4673092
-0.43188199 -0.066969998 1.466723
-0.42554501 -0.065646 1.466952
-0.42161036 -0.068019666 1.4663314
-0.433732 -0.062361501 1.4696009
-0.42698774 -0.06194425 1.4679258
-0.42292699 -0.063653 1.467609
-0.418879 -0.060662001 1.466885
-0.42131999 -0.057228498 1.4667771
-0.41866225 -0.057829 1.4662471
-0.420728 -0.054067001 1.466341
-0.41363651 -0.051114 1.4667995
-0.42348599 -0.0473755 1.468118
-0.41445801 -0.046764668 1.4688169
-0.40820348 -0.045239501 1.467922
-0.41675201 -0.044117 1.468338
-0.41348201 -0.044236999 1.466459
-0.40773401 -0.040559001 1.467675
-0.40896299 -0.039046999 1.4688143
-0.40323699 -0.0382865 1.4671514
-0.40595365 -0.033940334 1.4674658
-0.401362 -0.032862 1.46737
-0.41143101 -0.029655 1.468724
-0.40650502 -0.028258333 1.4688214
-0.404109 -0.028462 1.465434
-0.396014 -0.029581999 1.467741
-0.39381799 -0.029291 1.467235
-0.40571001 -0.023794999 1.466382
-0.400011 -0.023014 1.4668159
-0.39820966 -0.022770667 1.4684496
-0.38359901 -0.187665 1.470458
-0.38295999 -0.171946 1.474432
-0.398018 -0.155893 1.472482
-0.40779099 -0.154121 1.471987
-0.40268901 -0.15079349 1.4709406
-0.40796047 -0.14747751 1.471747
-0.402338 -0.14661799 1.472226
-0.4076485 -0.141894 1.472347
-0.39842033 -0.14175399 1.4728783
-0.41380599 -0.135397 1.472542
-0.39992499 -0.136613 1.474122
-0.3929835 -0.1378755 1.471658
-0.41763699 -0.13294201 1.470933
-0.41236499 -0.132732 1.470668
-0.409291 -0.13341799 1.471429
-0.40416849 -0.13268751 1.472965
-0.41257265 -0.12635799 1.4722424
-0.40779099 -0.125824 1.471951
-0.41103268 -0.123477 1.4719137
-0.407249 -0.122812 1.471864
-0.386879 -0.124926 1.474937
-0.41953701 -0.11786 1.473223
-0.41207397 -0.116955 1.4724933
-0.40963501 -0.117854 1.474999
-0.4125995 -0.110866 1.4748755
-0.41349599 -0.10830425 1.4731147
-0.41744065 -0.10257799 1.4731668
-0.41446799 -0.104969 1.472734
-0.42207101 -0.096775003 1.47126
-0.41773599 -0.090314999 1.4744
-0.42093101 -0.088008672 1.4732918
-0.432634 -0.082580999 1.470668
-0.42595899 -0.081403002 1.47132
-0.421624 -0.082641497 1.4705324
-0.42272601 -0.076651998 1.474727
-0.42673197 -0.073046669 1.471927
-0.42322451 -0.073916003 1.4728525
-0.43919101 -0.065159999 1.47405
-0.42814398 -0.068078503 1.4706705
-0.424714 -0.068063997 1.474614
-0.432753 -0.061216 1.472106
-0.42341799 -0.060963999 1.470165
-0.42662102 -0.056978799 1.4719102
-0.42383149 -0.057241999 1.4724951
-0.42661536 -0.053263668 1.4732981
-0.41934666 -0.051769 1.4717406
-0.42867801 -0.049559001 1.472378
-0.42137298 -0.048124798 1.4717319
-0.42745599 -0.040139001 1.4728481
-0.41642147 -0.042994998 1.471411
-0.41377902 -0.042259499 1.4704825
-0.406544 -0.041898999 1.4711241
-0.420524 -0.036040999 1.47129
-0.41432601 -0.038174499 1.472753
-0.40907699 -0.035105001 1.474098
-0.40456501 -0.037671998 1.471651
-0.41651249 -0.033666499 1.4741116
-0.41070101 -0.032405 1.470304
-0.40777647 -0.032022499 1.474174
-0.404423 -0.030354001 1.470584
-0.40944499 -0.027169 1.473063
-0.40364751 -0.027261499 1.47042
-0.41385001 -0.021888001 1.470997
-0.406964 -0.023539999 1.4735661
-0.394631 -0.020342 1.4741451
-0.40598601 -0.018319501 1.4730575
-0.400307 -0.017704001 1.472894
-0.398992 -0.015217 1.472989
-0.39893499 -0.014092 1.473704
-0.38724899 -0.014629 1.474565
-0.40486199 -0.0081850002 1.471915
-0.401568 -0.004861 1.473092
-0.37876299 -0.188352 1.4771399
-0.40789199 -0.145522 1.477651
-0.40064299 -0.14638799 1.4766639
-0.393424 -0.14726 1.475685
-0.41079301 -0.141306 1.475945
-0.40375432 -0.142096 1.4759003
-0.40579152 -0.13631949 1.478976
-0.40007001 -0.139679 1.476113
-0.397286 -0.137383 1.4766459
-0.38604301 -0.136489 1.478779
-0.41311899 -0.13417301 1.478125
-0.40053701 -0.13265601 1.478337
-0.39981601 -0.133724 1.478441
-0.41278699 -0.126194 1.4753031
-0.395592 -0.129778 1.4768029
-0.39141101 -0.127326 1.4757044
-0.410824 -0.122629 1.476755
-0.41075099 -0.118811 1.479682
-0.40792352 -0.1178295 1.4766605
-0.38760701 -0.117317 1.479648
-0.41521701 -0.110649 1.477085
-0.4106445 -0.1135285 1.4769094
-0.38637301 -0.111605 1.47947
-0.38259101 -0.108693 1.47848
-0.41688699 -0.10321949 1.4762764
-0.41273966 -0.10278533 1.4792293
-0.42129201 -0.098479494 1.4776435
-0.41726661 -0.096894003 1.4773612
-0.41324201 -0.097639002 1.4785039
-0.41640198 -0.092908002 1.4776165
-0.41938001 -0.085979 1.4761995
-0.4227235 -0.081956998 1.4764061
-0.41757798 -0.082941502 1.4789085
-0.42136201 -0.079671003 1.479423
-0.42502001 -0.071364999 1.477747
-0.42441899 -0.073354997 1.478068
-0.41989699 -0.073964 1.479146
-0.42681134 -0.065992661 1.4764709
-0.42461848 -0.067808002 1.4788744
-0.43399999 -0.062537998 1.479269
-0.42558399 -0.062376499 1.477429
-0.42802396 -0.058674004 1.4778296
-0.43228999 -0.052088 1.4770665
-0.42656499 -0.051146999 1.476647
-0.42797601 -0.047308002 1.476874
-0.42017999 -0.045451 1.478256
-0.42949301 -0.042794 1.478838
-0.42174435 -0.041554999 1.4765617
-0.422629 -0.037579499 1.478134
-0.417687 -0.037138499 1.4779396
-0.413966 -0.036711499 1.4765635
-0.435765 -0.033337999 1.479152
-0.42725152 -0.032182999 1.4791811
-0.42400801 -0.034481999 1.478704
-0.41701034 -0.032202002 1.4783961
-0.41030499 -0.030851001 1.475289
-0.42828199 -0.029298 1.478177
-0.42165801 -0.027285 1.477604
-0.418024 -0.027091 1.4779406
-0.4113155 -0.027001001 1.4767325
-0.40962499 -0.025093 1.477959
-0.41159299 -0.024383999 1.476218
-0.424081 -0.019340999 1.479889
-0.40681601 -0.019095 1.475363
-0.4042235 -0.019514501 1.476052
-0.40286401 -0.010848 1.475894
-0.40684399 -0.0082040001 1.4789
-0.39974299 -0.0071689999 1.478871
-0.402614 0.003879 1.479135
-0.37159401 -0.19361299 1.4807039
-0.39293 -0.143676 1.4809771
-0.41121 -0.136011 1.480808
-0.405081 -0.135635 1.480222
-0.40331 -0.13673399 1.480907
-0.411899 -0.134994 1.483979
-0.4062275 -0.13088849 1.48392
-0.40195352 -0.12709425 1.4826052
-0.39854199 -0.12783399 1.4825876
-0.409881 -0.124444 1.4802361
-0.39614534 -0.12238801 1.481958
-0.39321899 -0.121516 1.480155
-0.38972101 -0.121026 1.482094
-0.411385 -0.11869 1.481549
-0.40535101 -0.118809 1.482812
-0.39118299 -0.118102 1.480643
-0.41312501 -0.112828 1.482792
-0.40864635 -0.11160767 1.4806706
-0.392441 -0.110652 1.484746
-0.41371199 -0.108555 1.480135
-0.40881601 -0.105052 1.482558
-0.38670099 -0.106147 1.484549
-0.41376299 -0.103013 1.483408
-0.41504401 -0.096322998 1.484728
-0.41090751 -0.095386997 1.4842236
-0.420614 -0.090700999 1.484522
-0.412954 -0.091600001 1.4832425
-0.41675901 -0.088868998 1.4823346
-0.41459799 -0.085747004 1.483537
-0.41669399 -0.082477003 1.484362
-0.42006299 -0.079287998 1.480719
-0.41875851 -0.0784375 1.4823871
-0.41999999 -0.074399002 1.48199
-0.42488399 -0.066335998 1.4829741
-0.42622799 -0.061361 1.482512
-0.440299 -0.056816999 1.480029
-0.42586499 -0.057385001 1.484248
-0.43186799 -0.052894 1.480289
-0.42880401 -0.050838999 1.483034
-0.424716 -0.050092999 1.4817311
-0.436248 -0.045145001 1.480325
-0.425203 -0.046333 1.4810755
-0.43191701 -0.042679001 1.482287
-0.42714751 -0.043644 1.4832715
-0.427717 -0.038144 1.484748
-0.4218525 -0.036870003 1.4820166
-0.43433201 -0.034761 1.484565
-0.425201 -0.031985 1.4841501
-0.42245102 -0.027879 1.4816251
-0.41708899 -0.026944 1.483809
-0.43105 -0.023525 1.481344
-0.41861001 -0.023432 1.482424
-0.414143 -0.021516999 1.480045
-0.40966699 -0.021718999 1.484889
-0.421083 -0.016381999 1.4831624
-0.41176799 -0.017729999 1.482287
-0.413528 -0.012421 1.480826
-0.40665901 -0.0127165 1.4818435
-0.40483001 -0.011951 1.482167
-0.41825399 -0.0062839999 1.484617
-0.38805699 -0.0063590002 1.480678
-0.41688401 -0.0037390001 1.484663
-0.40790701 0.00052499998 1.484962
-0.396844 0.017044 1.483395
-0.36378601 -0.196596 1.4875489
-0.404789 -0.13231 1.485409
-0.40601999 -0.12693 1.485213
-0.40750152 -0.1221655 1.488634
-0.40028301 -0.120083 1.488897
-0.4082405 -0.1191235 1.4892825
-0.40228298 -0.11867434 1.4877504
-0.41175601 -0.112038 1.486293
-0.406106 -0.11347 1.4852639
-0.39720398 -0.11372875 1.4865351
-0.39148501 -0.1120645 1.486058
-0.415499 -0.106845 1.485903
-0.41404399 -0.106365 1.489374
-0.4065665 -0.1027385 1.486977
-0.393749 -0.102823 1.489465
-0.41116649 -0.096953005 1.4894691
-0.40932199 -0.098693997 1.487018
-0.38756901 -0.099242002 1.4899369
-0.41210699 -0.087330505 1.488201
-0.40948999 -0.088806003 1.48869
-0.41632199 -0.082781002 1.488083
-0.412644 -0.083897002 1.488709
-0.415791 -0.075191997 1.489869
-0.41499501 -0.078680001 1.4885401
-0.42047 -0.072518997 1.485465
-0.41791534 -0.072319001 1.4869304
-0.426514 -0.068618 1.486835
-0.420802 -0.068262003 1.486293
-0.425286 -0.059243001 1.487969
-0.43520001 -0.053915001 1.485508
-0.42856652 -0.054147001 1.487033
-0.43761399 -0.045998 1.4877861
-0.43019301 -0.036375001 1.485219
-0.426009 -0.039668001 1.485943
-0.4290365 -0.032288998 1.4885105
-0.43674701 -0.026844 1.486842
-0.42356101 -0.028092001 1.4856631
-0.44717601 -0.023894001 1.486728
-0.437033 -0.024333 1.485617
-0.42681399 -0.024754999 1.485284
-0.439161 -0.018926 1.48912
-0.42689249 -0.019684 1.4886889
-0.41800001 -0.01867 1.489906
-0.41331199 -0.013843 1.4868939
-0.42328301 -0.007032 1.489965
-0.414563 -0.003704 1.487004
-0.409895 -0.001103 1.487092
-0.402172 0.013668 1.489261
-0.408429 -0.113435 1.494096
-0.403258 -0.11055633 1.492967
-0.41112301 -0.109211 1.492998
-0.39805502 -0.10728151 1.4913425
-0.39878699 -0.104235 1.491731
-0.39319301 -0.10174 1.490836
-0.40792701 -0.097799003 1.4915454
-0.394234 -0.097002 1.494547
-0.40992099 -0.092357002 1.491429
-0.38866499 -0.094144002 1.49326
-0.41239032 -0.087217994 1.4933614
-0.42115301 -0.083362997 1.4901429
-0.41000301 -0.081614003 1.493961
-0.40905899 -0.081015997 1.494661
-0.41883999 -0.076027997 1.491039
-0.41323665 -0.078540996 1.4934987
-0.4165355 -0.071551502 1.4932195
-0.41586599 -0.066518001 1.491706
-0.41849351 -0.062223502 1.492967
-0.42373499 -0.050988998 1.494874
-0.419741 -0.050448 1.491604
-0.42859948 -0.047564 1.4910979
-0.42919999 -0.043370001 1.492129
-0.42224199 -0.044229001 1.494723
-0.440029 -0.038079999 1.490063
-0.436059 -0.035912 1.49016
-0.427899 -0.035726 1.490399
-0.44244301 -0.030162999 1.492341
-0.431153 -0.028217999 1.491225
-0.431943 -0.024053 1.490526
-0.43834499 -0.015293 1.491991
-0.43092149 -0.0125215 1.491325
-0.427809 -0.012121 1.49087
-0.42400801 -0.0096359998 1.490171
-0.41983899 -0.0070469999 1.492813
-0.41941801 0.0026430001 1.490958
-0.41689348 0.005254 1.492106
-0.41102201 0.007913 1.493536
-0.408948 0.0093299998 1.4911439
-0.40923199 0.010639 1.49446
-0.403896 0.012251 1.49193
-0.41140699 0.017224001 1.493454
-0.40580049 0.021358499 1.4928005
-0.39917701 0.024769001 1.492731
-0.41314501 0.025191 1.494296
-0.39639899 0.026961001 1.493513
-0.4077 0.030757001 1.493578
-0.40300801 0.031856999 1.4909641
-0.39996499 0.035099 1.492529
-0.40821701 -0.113398 1.495025
-0.40345299 -0.107097 1.497763
-0.40355799 -0.104241 1.498432
-0.39856499 -0.1015055 1.496444
-0.41061699 -0.092437997 1.495029
-0.394676 -0.091265999 1.499671
-0.39459401 -0.089411996 1.499846
-0.412469 -0.080951497 1.498973
-0.39085701 -0.083878003 1.497736
-0.38524601 -0.080899 1.496436
-0.41254497 -0.072779335 1.49891
-0.41773 -0.065489002 1.496779
-0.41339299 -0.068849504 1.4973
-0.380916 -0.069633 1.499994
-0.41813999 -0.063909002 1.497815
-0.424348 -0.059230998 1.495643
-0.437168 -0.027363 1.496278
-0.43305099 -0.015443 1.49664
-0.43216199 -0.0035044998 1.4977529
-0.42705297 -0.0020854999 1.496755
-0.423419 0.00148 1.495774
-0.42763799 0.007303 1.4988379
-0.42700601 0.010501 1.498662
-0.420598 0.011623 1.497314
-0.41873848 0.013831999 1.4965465
-0.41194898 0.017996 1.4982929
-0.42183301 0.023122 1.499928
-0.40322 0.022562001 1.495447
-0.41329998 0.026781999 1.499349
-0.40883899 0.02846 1.496592
-0.40569499 0.030509001 1.497772
-0.397416 0.035971999 1.499806
-0.401149 0.044590998 1.4991961
-0.40393099 -0.1014 1.502839
-0.406344 -0.093951002 1.502955
-0.400231 -0.094131 1.5009429
-0.39994401 -0.092767999 1.501557
-0.39515701 -0.085409999 1.5048079
-0.388697 -0.082309999 1.503651
