# .PCD v0.7 - Point Cloud Data file format
VERSION 0.7
FIELDS x y z
SIZE 4 4 4
TYPE F F F
COUNT 1 1 1
WIDTH 1548
HEIGHT 1
VIEWPOINT 0 0 0 1 0 0 0
POINTS 1548
DATA ascii
-1.338008 -0.95592999 2.787715
-1.354949 -0.95112097 2.7895999
-1.374922 -0.93834102 2.7866919
-1.339183 -0.93507397 2.788713
-1.3762029 -0.92986703 2.7895999
-1.354949 -0.92986703 2.7895999
-1.374404 -0.916924 2.787159
-1.373886 -0.89550698 2.787626
-1.395309 -0.894988 2.7875941
-1.3762029 -0.88735801 2.7895999
-1.416213 -0.873052 2.788029
-1.394791 -0.87357098 2.7880609
-1.373369 -0.87409002 2.788094
-1.4187109 -0.86610401 2.7895999
-1.397457 -0.86610401 2.7895999
-1.415695 -0.85163498 2.788496
-1.394273 -0.85215402 2.788528
-1.4187109 -0.84485 2.7895999
-1.397457 -0.84485 2.7895999
-1.415177 -0.83021802 2.7889631
-1.393755 -0.83073699 2.788995
-1.4187109 -0.823596 2.7895999
-1.41466 -0.808801 2.7894299
-1.4187109 -0.802342 2.7895999
-1.435564 -0.786865 2.789865
-1.414142 -0.78738302 2.789897
-1.439965 -0.78108799 2.7895999
-1.43317 -0.78378803 2.785161
-1.4187109 -0.78108799 2.7895999
-1.4352 -0.763484 2.7859859
-1.439965 -0.75983399 2.7895999
-1.461219 -0.73857999 2.7895999
-1.461219 -0.71732599 2.7895999
-1.439965 -0.69607198 2.7895999
-1.46777 -0.68737 2.788177
-1.438622 -0.68537402 2.7861979
-1.443321 -0.682271 2.7892849
-1.459956 -0.644333 2.7897501
-1.44946 -0.64474601 2.788496
-1.439274 -0.643933 2.788161
-1.428817 -0.64350301 2.7868371
-1.418918 -0.62281102 2.7875531
-1.3536119 -0.95422697 2.793664
-1.3450741 -0.94443399 2.792598
-1.382603 -0.93981701 2.7919929
-1.361755 -0.93941301 2.790391
-1.3594775 -0.93800348 2.7910745
-1.374573 -0.93269402 2.794353
-1.34712 -0.92396998 2.7934289
-1.382453 -0.91782701 2.7930191
-1.362084 -0.91852599 2.7913799
-1.3742861 -0.91144502 2.794663
-1.349166 -0.90350598 2.794261
-1.4014111 -0.89641702 2.791873
-1.38315 -0.895868 2.794054
-1.379984 -0.896622 2.7920451
-1.362412 -0.89763999 2.7923701
-1.383588 -0.87715602 2.79496
-1.3797801 -0.87519598 2.7922721
-1.422634 -0.87478501 2.7919271
-1.401207 -0.874991 2.7921
-1.363518 -0.87375998 2.7933781
-1.422431 -0.85335898 2.792155
-1.401004 -0.85356402 2.7923269
-1.422227 -0.83193302 2.792382
-1.4008 -0.832138 2.7925539
-1.400597 -0.81071103 2.7927811
-1.421821 -0.78908002 2.792836
-1.4430439 -0.76744801 2.792891
-1.435046 -0.76544797 2.7903321
-1.421617 -0.76765299 2.7930629
-1.456468 -0.764929 2.7902999
-1.4428411 -0.74602199 2.793118
-1.434528 -0.74403 2.7907989
-1.455433 -0.72209501 2.791234
-1.442637 -0.72459501 2.793345
-1.434011 -0.72261298 2.791266
-1.454915 -0.70067698 2.7917011
-1.442434 -0.70316899 2.7935719
-1.475819 -0.67874098 2.792136
-1.442027 -0.66031599 2.7940259
-1.4206001 -0.66052097 2.794199
-1.432457 -0.65836197 2.7926681
-1.480638 -0.64473403 2.7913389
-1.506104 -0.63827401 2.793736
-1.484678 -0.63847899 2.7939081
-1.463251 -0.63868397 2.794081
-1.453361 -0.63642597 2.793103
-1.441824 -0.63889003 2.7942531
-1.420397 -0.63909501 2.794426
-1.352066 -0.92448199 2.796952
-1.395534 -0.91116202 2.795043
-1.36954 -0.90562499 2.796277
-1.372942 -0.90325803 2.798569
-1.351886 -0.903409 2.7975359
-1.372762 -0.88218498 2.7991519
-1.3514595 -0.882689 2.7966056
-1.404436 -0.87756002 2.796562
-1.384326 -0.87501198 2.7950511
-1.3731074 -0.86290449 2.7988381
-1.353259 -0.86257797 2.7959239
-1.383917 -0.85627002 2.7959499
-1.385501 -0.85415697 2.7960479
-1.375679 -0.84423298 2.7987709
-1.355305 -0.84211397 2.7967551
-1.405093 -0.835787 2.7985411
-1.384245 -0.835383 2.7969389
-1.407485 -0.83455402 2.7987189
-1.386677 -0.83330101 2.797045
-1.415632 -0.82587999 2.7966599
-1.394383 -0.82616299 2.7962799
-1.373134 -0.82644498 2.7959001
-1.377725 -0.82376897 2.799603
-1.3573509 -0.82165003 2.7975869
-1.4070411 -0.81429899 2.799623
-1.387852 -0.81244498 2.798043
-1.415344 -0.80463099 2.7969689
-1.436305 -0.78309798 2.7976589
-1.4150569 -0.78338099 2.7972789
-1.436018 -0.76184899 2.7979679
-1.43573 -0.74059898 2.7982769
-1.456691 -0.71906698 2.7989669
-1.435442 -0.71934903 2.7985871
-1.456403 -0.69781703 2.7992761
-1.393458 -0.83988702 2.801353
-1.393278 -0.81881398 2.8019359
-1.379771 -0.80330497 2.8004341
-1.393098 -0.797741 2.80252
-1.40575 -0.79401302 2.800519
-1.381817 -0.78284103 2.801265
-1.413974 -0.77651697 2.804137
-1.406078 -0.77312601 2.8015079
-1.404238 -0.76449603 2.8041129
-1.383864 -0.76237702 2.8020971
-1.413794 -0.75544399 2.8047199
-1.412187 -0.75112998 2.8027079
-1.406284 -0.74403203 2.804945
-1.38591 -0.74191302 2.802928
-1.413363 -0.73027402 2.803705
-1.387956 -0.72144902 2.8037601
-1.414538 -0.70941901 2.804703
-1.476789 -0.63378501 2.8005841
-1.4555399 -0.634067 2.800204
-1.343608 -0.96862698 2.809402
-1.329342 -0.96677297 2.8089001
-1.326456 -0.961842 2.808799
-1.3646851 -0.946509 2.8098409
-1.343086 -0.94703197 2.8098731
-1.321486 -0.94755501 2.809906
-1.424611 -0.76661497 2.806129
-1.43467 -0.73421901 2.8063371
-1.413614 -0.73437101 2.8053041
-1.455546 -0.71299499 2.8079541
-1.43449 -0.71314597 2.806921
-1.43431 -0.69207299 2.8075039
-1.413254 -0.69222498 2.8064711
-1.432796 -0.68475902 2.8094549
-1.4124219 -0.68264002 2.8074391
-1.455186 -0.67084903 2.8091209
-1.43413 -0.671 2.8080881
-1.428896 -0.64820999 2.809046
-1.416515 -0.64171201 2.8091021
-1.3961411 -0.63959301 2.807086
-1.348787 -0.96921998 2.814837
-1.331604 -0.96964699 2.812077
-1.35069 -0.94612402 2.811512
-1.333666 -0.94902003 2.8129151
-1.344643 -0.9375 2.8125
-1.3510211 -0.92506897 2.8125091
-1.342563 -0.92543799 2.810344
-1.335729 -0.92839301 2.8137529
-1.320964 -0.92596102 2.8103769
-1.370778 -0.92231899 2.814182
-1.364163 -0.92491502 2.810312
-1.349802 -0.92105597 2.8124959
-1.366071 -0.916071 2.8125
-1.344643 -0.916071 2.8125
-1.363641 -0.90332001 2.8107829
-1.351352 -0.90401298 2.8135059
-1.342041 -0.90384299 2.8108151
-1.366071 -0.89464301 2.8125
-1.344643 -0.89464301 2.8125
-1.363119 -0.88172501 2.811254
-1.351683 -0.88295698 2.8145039
-1.3875 -0.87321401 2.8125
-1.384197 -0.85960799 2.811692
-1.3875 -0.85178602 2.8125
-1.383674 -0.83801299 2.8121631
-1.408929 -0.83035702 2.8125
-1.3875 -0.83035702 2.8125
-1.404752 -0.81589502 2.812602
-1.383152 -0.81641799 2.812634
-1.408929 -0.80892903 2.8125
-1.3875 -0.80892903 2.8125
-1.40423 -0.79430097 2.813072
-1.408929 -0.78750002 2.8125
-1.3875 -0.78750002 2.8125
-1.425308 -0.772183 2.8135109
-1.403708 -0.77270597 2.813544
-1.430357 -0.76607102 2.8125
-1.408929 -0.76607102 2.8125
-1.424785 -0.75058901 2.813982
-1.403186 -0.75111198 2.814014
-1.3599859 -0.75215799 2.81408
-1.451786 -0.74464297 2.8125
-1.430357 -0.74464297 2.8125
-1.424263 -0.72899401 2.8144529
-1.402663 -0.72951698 2.814486
-1.451786 -0.72321397 2.8125
-1.430357 -0.72321397 2.8125
-1.445341 -0.70687598 2.8148911
-1.423741 -0.70739901 2.814924
-1.402141 -0.70792198 2.8149569
-1.469934 -0.69079 2.810271
-1.430357 -0.68035698 2.8125
-1.366071 -0.68035698 2.8125
-1.470263 -0.66990399 2.81126
-1.434842 -0.66429502 2.810287
-1.451786 -0.65892899 2.8125
-1.436888 -0.64383101 2.8111179
-1.327183 -0.96942699 2.815011
-1.343179 -0.96215701 2.816268
-1.321756 -0.96244198 2.8158851
-1.341453 -0.95310098 2.818265
-1.348582 -0.94761598 2.8150661
-1.364313 -0.94044799 2.816963
-1.342889 -0.94073302 2.8165801
-1.369982 -0.92580497 2.8151219
-1.348377 -0.92601198 2.815295
-1.326773 -0.92621899 2.815469
-1.364022 -0.91902399 2.817275
-1.34109 -0.91061097 2.8194411
-1.371964 -0.90129399 2.8151879
-1.369777 -0.90420097 2.815351
-1.3481719 -0.90440798 2.8155241
-1.326568 -0.90461498 2.8156979
-1.385155 -0.89731503 2.81797
-1.363732 -0.8976 2.8175869
-1.372699 -0.88336402 2.816118
-1.369572 -0.88259703 2.8155799
-1.384865 -0.87589097 2.8182819
-1.3909709 -0.86078602 2.815635
-1.3730299 -0.86230898 2.817116
-1.369367 -0.86099303 2.815809
-1.3520139 -0.861902 2.815501
-1.374334 -0.859245 2.817199
-1.384575 -0.85446602 2.818594
-1.373361 -0.84125298 2.8181131
-1.352345 -0.840846 2.816498
-1.390766 -0.83918202 2.8158641
-1.362862 -0.833327 2.818522
-1.373692 -0.82019699 2.8191099
-1.390561 -0.81757802 2.816093
-1.376704 -0.81719601 2.8192101
-1.405418 -0.811333 2.8196011
-1.3839951 -0.81161797 2.819217
-1.41196 -0.79576802 2.816148
-1.3903559 -0.79597503 2.8163221
-1.405128 -0.78990901 2.819912
-1.411755 -0.77416402 2.8163769
-1.390151 -0.77437103 2.816551
-1.433154 -0.75235301 2.816432
-1.41155 -0.75256002 2.816606
-1.389946 -0.75276703 2.8167801
-1.368341 -0.75297397 2.8169539
-1.4329489 -0.73074901 2.8166609
-1.411345 -0.73095602 2.8168349
-1.38974 -0.73116302 2.817009
-1.368136 -0.73136997 2.817183
-1.432744 -0.70914501 2.81689
-1.454144 -0.687334 2.8169451
-1.444819 -0.68528199 2.815362
-1.432539 -0.68754101 2.8171189
-1.423219 -0.68580502 2.8153951
-1.466419 -0.68475902 2.81533
-1.465896 -0.66316402 2.8158009
-1.443774 -0.64209199 2.816304
-1.422175 -0.64261502 2.8163371
-1.410524 -0.64454001 2.8177509
-1.3409081 -0.88936502 2.82003
-1.361955 -0.86796802 2.82166
-1.383002 -0.84657001 2.8232901
-1.394708 -0.82060403 2.820725
-1.3686399 -0.806768 2.8208139
-1.4198411 -0.79869699 2.8235879
-1.3969525 -0.79849195 2.8218122
-1.377889 -0.79617202 2.820215
-1.370702 -0.78614098 2.8216519
-1.421026 -0.77767301 2.824594
-1.40005 -0.77640998 2.822907
-1.4262609 -0.76819998 2.8206079
-1.404838 -0.768484 2.820224
-1.3727649 -0.76551402 2.82249
-1.425971 -0.74677598 2.82092
-1.404548 -0.74706 2.8205359
-1.374827 -0.74488801 2.823328
-1.425681 -0.72535098 2.8212309
-1.404258 -0.72563601 2.820848
-1.4468139 -0.70364201 2.8219261
-1.467947 -0.68193299 2.8226221
-1.4248101 -0.66107798 2.822166
-1.403685 -0.782682 2.826097
-1.403504 -0.761437 2.826685
-1.416718 -0.75784397 2.825331
-1.403322 -0.740192 2.8272729
-1.4170491 -0.73678797 2.826328
-1.41738 -0.71573299 2.8273261
-1.3760099 -0.67280698 2.8260911
-1.383077 -0.66237998 2.8266799
-1.397357 -0.65215898 2.8287029
-1.333029 -0.97711998 2.8329451
-1.3112479 -0.97764701 2.832978
-1.318958 -0.9741165 2.8315251
-1.314731 -0.96786201 2.8302641
-1.33946 -0.95295697 2.8330159
-1.322057 -0.95366597 2.8335121
-1.337073 -0.94793898 2.832978
-1.324136 -0.93287402 2.834357
-1.303436 -0.93072098 2.8323081
-1.331449 -0.91179401 2.8343699
-1.330923 -0.890019 2.8348451
-1.352703 -0.88949198 2.8348119
-1.424006 -0.67630398 2.83008
-1.424149 -0.66665202 2.830745
-1.330633 -0.98216701 2.839855
-1.309231 -0.98232102 2.838805
-1.287828 -0.98247498 2.837755
-1.3164541 -0.97768098 2.8387139
-1.3109829 -0.97051299 2.838881
-1.355783 -0.96687299 2.8357999
-1.3341759 -0.96687299 2.8357999
-1.31257 -0.96687299 2.8357999
-1.290964 -0.96687299 2.8357999
-1.338033 -0.955688 2.8387699
-1.3162481 -0.95589602 2.8389449
-1.3332335 -0.94694555 2.8376908
-1.31163 -0.94708902 2.8374975
-1.316041 -0.93411201 2.8391759
-1.331998 -0.92702198 2.839896
-1.310398 -0.92730898 2.839509
-1.3341759 -0.92366099 2.8357999
-1.346916 -0.914235 2.83725
-1.340127 -0.91050202 2.835027
-1.36061 -0.90682 2.8367059
-1.3341759 -0.90205401 2.8357999
-1.359197 -0.89012498 2.839287
-1.348995 -0.89344299 2.838094
-1.361805 -0.88562399 2.837719
-1.340461 -0.889274 2.8360319
-1.377389 -0.88044798 2.8357999
-1.355783 -0.88044798 2.8357999
-1.351074 -0.87265098 2.838939
-1.373957 -0.86718899 2.835254
-1.35899 -0.86834103 2.8395181
-1.363 -0.86442697 2.838733
-1.377389 -0.85884202 2.8357999
-1.355783 -0.85884202 2.8357999
-1.353153 -0.85185897 2.8397839
-1.380569 -0.84634799 2.8395741
-1.37343 -0.84541398 2.8357289
-1.364195 -0.84323102 2.839747
-1.377389 -0.83723599 2.8357999
-1.355783 -0.83723599 2.8357999
-1.380362 -0.82456303 2.8398039
-1.3729039 -0.82363898 2.8362041
-1.377389 -0.81563002 2.8357999
-1.394158 -0.801337 2.8366461
-1.377389 -0.79402399 2.8357999
-1.371851 -0.78008902 2.837153
-1.393631 -0.779562 2.837121
-1.398995 -0.77241802 2.8357999
-1.377389 -0.77241802 2.8357999
-1.355783 -0.77241802 2.8357999
-1.393105 -0.75778699 2.837595
-1.420601 -0.75081199 2.8357999
-1.398995 -0.75081199 2.8357999
-1.377389 -0.75081199 2.8357999
-1.370798 -0.73653901 2.8381031
-1.349018 -0.73706597 2.838136
-1.420601 -0.68599403 2.8357999
-1.398995 -0.68599403 2.8357999
-1.442207 -0.66438699 2.8357999
-1.420601 -0.66438699 2.8357999
-1.398995 -0.66438699 2.8357999
-1.377389 -0.66438699 2.8357999
-1.3304501 -0.96074802 2.8404491
-1.351669 -0.939174 2.842092
-1.330267 -0.93932801 2.841042
-1.353599 -0.92673498 2.8402829
-1.330084 -0.91790801 2.841635
-1.353307 -0.90513301 2.8405969
-1.331706 -0.90542001 2.84021
-1.329901 -0.89648902 2.8422279
-1.374615 -0.88324499 2.8412981
-1.353014 -0.88353199 2.8409109
-1.331413 -0.88381898 2.8405249
-1.35112 -0.874915 2.8438711
-1.3743221 -0.86164302 2.8416121
-1.352721 -0.86193001 2.8412261
-1.350938 -0.85349602 2.844465
-1.385342 -0.844504 2.8414471
-1.352429 -0.84032798 2.8415401
-1.36265 -0.826002 2.8406761
-1.373737 -0.81843901 2.842241
-1.352136 -0.818726 2.8418541
-1.357311 -0.81027502 2.8414741
-1.384172 -0.80518401 2.8433089
-1.380155 -0.80277902 2.840035
-1.395045 -0.79655099 2.842942
-1.373444 -0.79683697 2.842555
-1.35939 -0.78948301 2.8423181
-1.388926 -0.78091598 2.8444879
-1.379948 -0.780994 2.840266
-1.373152 -0.77523601 2.84287
-1.394753 -0.77494901 2.843256
-1.361469 -0.768691 2.843163
-1.3579561 -0.75941902 2.840672
-1.39446 -0.75334698 2.8435709
-1.335965 -0.73784298 2.841079
-1.31418 -0.738051 2.841254
-1.394168 -0.731745 2.8438849
-1.437077 -0.70956898 2.8449731
-1.422484 -0.671655 2.8410699
-1.37234 -0.853342 2.845515
-1.393559 -0.83176899 2.847158
-1.372157 -0.83192301 2.846108
-1.393376 -0.81034899 2.8477509
-1.371974 -0.81050301 2.8467009
-1.393193 -0.78893 2.8483441
-1.371791 -0.789083 2.8472941
-1.4056931 -0.78436702 2.845942
-1.39301 -0.76751 2.848938
-1.371608 -0.76766402 2.847887
-1.4112689 -0.760993 2.8472021
-1.406027 -0.76313901 2.8469479
-1.38484 -0.76272899 2.84532
-1.392828 -0.74609101 2.8495309
-1.406361 -0.74191201 2.8479531
-1.386327 -0.72926098 2.8469009
-1.414891 -0.66665298 2.8452151
-1.306316 -0.98086798 2.852145
-1.308185 -0.97936302 2.8536389
-1.287317 -0.97719198 2.8515739
-1.302784 -0.97395802 2.85201
-1.328014 -0.95987999 2.8548
-1.31028 -0.95840198 2.854491
-1.3066519 -0.95946598 2.853159
-1.289412 -0.95623201 2.8524261
-1.32531 -0.95387203 2.8547461
-1.306989 -0.93806398 2.8541729
-1.449738 -0.67904902 2.8542249
-1.413265 -0.669038 2.8514841
-1.300308 -0.98628801 2.8569181
-1.321741 -0.96379697 2.857363
-1.301753 -0.95316702 2.8594999
-1.32121 -0.94183898 2.857842
-1.349712 -0.93889201 2.857455
-1.328351 -0.93847799 2.855814
-1.347836 -0.93378502 2.857482
-1.326514 -0.93250102 2.855768
-1.32354 -0.93137997 2.8594999
-1.33534 -0.91865301 2.858259
-1.328687 -0.91707599 2.856827
-1.3206789 -0.91987997 2.858321
-1.314472 -0.91648197 2.856194
-1.34904 -0.91241503 2.8585041
-1.327719 -0.91113102 2.8567901
-1.337436 -0.89769202 2.8591101
-1.329024 -0.89567399 2.857841
-1.350245 -0.89104497 2.8595259
-1.345327 -0.88780701 2.8594999
-1.328923 -0.88976097 2.8578119
-1.341581 -0.875431 2.859246
-1.3395309 -0.87673199 2.859962
-1.3635449 -0.87489903 2.8592131
-1.345327 -0.86602002 2.8594999
-1.330128 -0.86839098 2.858834
-1.363014 -0.85294002 2.8596921
-1.367113 -0.822447 2.8594999
-1.367113 -0.80066001 2.8594999
-1.367113 -0.75708699 2.8594999
-1.4324729 -0.7353 2.8594999
-1.4324729 -0.71351302 2.8594999
-1.305545 -0.98607397 2.862817
-1.283577 -0.98628402 2.862993
-1.300034 -0.97872198 2.862272
-1.3192739 -0.96852797 2.8630209
-1.297695 -0.968683 2.8619621
-1.305337 -0.96410602 2.86305
-1.31909 -0.94692999 2.8636191
-1.29751 -0.94708502 2.86256
-1.318905 -0.92533302 2.864217
-1.326888 -0.91995901 2.863338
-1.32093 -0.913086 2.8636129
-1.3187211 -0.903736 2.864815
-1.348648 -0.89778101 2.863394
-1.3484401 -0.87581301 2.863627
-1.350722 -0.874686 2.860496
-1.351449 -0.86967498 2.860548
-1.342122 -0.869232 2.8646359
-1.341627 -0.85577202 2.8608141
-1.3702 -0.853634 2.863683
-1.351059 -0.853284 2.86151
-1.348231 -0.853845 2.8638599
-1.364591 -0.83698201 2.86373
-1.3699909 -0.83166599 2.8639159
-1.362483 -0.83098203 2.8601711
-1.351395 -0.831882 2.862524
-1.3751791 -0.82821798 2.864306
-1.353858 -0.82693398 2.862592
-1.383916 -0.80849099 2.860616
-1.369783 -0.80969799 2.8641491
-1.3619519 -0.80902302 2.8606501
-1.355063 -0.80556399 2.8636141
-1.369574 -0.78772998 2.864382
-1.361421 -0.78706402 2.861129
-1.356267 -0.78419399 2.8646359
-1.35001 -0.77193099 2.8642199
-1.36089 -0.76510602 2.861608
-1.336151 -0.76154 2.8639431
-1.404287 -0.74208403 2.86202
-1.369157 -0.74379402 2.8648479
-1.3817919 -0.72065699 2.8625319
-1.381261 -0.69869798 2.8630109
-1.359297 -0.69923002 2.863045
-1.4246579 -0.67567599 2.8634241
-1.340116 -0.881984 2.866472
-1.318537 -0.88213903 2.865413
-1.339932 -0.86038703 2.86707
-1.3613271 -0.83863503 2.868727
-1.339747 -0.83879 2.8676679
-1.341532 -0.82566702 2.8652699
-1.361142 -0.817038 2.8693249
-1.339563 -0.81719297 2.8682661
-1.373093 -0.81089401 2.8651781
-1.376384 -0.80684799 2.8653281
-1.363018 -0.80359602 2.865977
-1.360958 -0.79544097 2.8699231
-1.394791 -0.78990501 2.8678329
-1.377589 -0.78547698 2.8663499
-1.37343 -0.78949201 2.8661921
-1.362723 -0.78181303 2.8662939
-1.3391941 -0.77399898 2.869462
-1.4001141 -0.76539099 2.869086
-1.3737659 -0.76809001 2.8672061
-1.378793 -0.76410699 2.867372
-1.3574719 -0.76282299 2.865658
-1.3188649 -0.76060897 2.8658309
-1.384209 -0.75974202 2.8670011
-1.372974 -0.753142 2.867137
-1.395465 -0.74710101 2.8698599
-1.374103 -0.74668801 2.8682189
-1.379997 -0.742737 2.8683939
-1.383914 -0.73795903 2.8673179
-1.3320529 -0.70305699 2.8669641
-1.358393 -0.68809098 2.867626
-1.289433 -1.001709 2.873106
-1.267935 -1.000415 2.871377
-1.29451 -0.98808599 2.87429
-1.272971 -0.98766899 2.8726349
-1.290648 -0.98016202 2.874136
-1.26915 -0.97886801 2.8724079
-1.273311 -0.96608901 2.873657
-1.2205 -0.96807498 2.872334
-1.270364 -0.95731997 2.8734379
-1.2237951 -0.94779497 2.8735671
-1.2736501 -0.94450998 2.8746791
-1.271579 -0.93577302 2.874469
-1.360773 -0.773844 2.8705211
-1.382169 -0.752092 2.8721781
-1.360589 -0.75224698 2.871119
-1.295025 -0.70682299 2.8719389
-1.426254 -0.68119401 2.8748879
-1.404932 -0.67991 2.873174
-1.383611 -0.678626 2.87146
-1.240549 -0.97152299 2.8754661
-1.294849 -0.966506 2.8753121
-1.31336 -0.95990902 2.876895
-1.291862 -0.95861501 2.8751669
-1.263893 -0.95469099 2.8798311
-1.243844 -0.95124298 2.876699
-1.300439 -0.94209599 2.876709
-1.295189 -0.94492698 2.876334
-1.314574 -0.938362 2.8779261
-1.293077 -0.93706799 2.8761971
-1.317067 -0.923765 2.8790109
-1.2955281 -0.92334801 2.8773561
-1.273989 -0.92293102 2.875701
-1.315789 -0.91681498 2.8789561
-1.294291 -0.91552001 2.877228
-1.317003 -0.89526701 2.879987
-1.296207 -0.880189 2.8794
-1.246814 -1.005141 2.8836
-1.28776 -0.99672353 2.8827825
-1.290754 -0.98316997 2.8836
-1.268784 -0.98316997 2.8836
-1.246814 -0.98316997 2.8836
-1.286157 -0.97659701 2.884913
-1.310792 -0.97239 2.881705
-1.290754 -0.9612 2.8836
-1.310257 -0.95024502 2.8821881
-1.3127249 -0.93923002 2.8836
-1.309721 -0.92809999 2.8826711
-1.334695 -0.91725898 2.8836
-1.3127249 -0.91725898 2.8836
-1.331336 -0.90541798 2.8831201
-1.325703 -0.902022 2.8805079
-1.3174061 -0.90218598 2.880033
-1.334695 -0.895289 2.8836
-1.3127249 -0.895289 2.8836
-1.273777 -0.89385098 2.883533
-1.3392839 -0.881024 2.88271
-1.330801 -0.88327301 2.8836031
-1.327816 -0.88089001 2.881367
-1.317745 -0.88060701 2.8810551
-1.334695 -0.87331897 2.8836
-1.318218 -0.87371999 2.881017
-1.277072 -0.87357098 2.8847661
-1.352416 -0.86059201 2.884053
-1.330265 -0.86112797 2.8840859
-1.339623 -0.85944402 2.8837321
-1.329929 -0.85975897 2.882226
-1.318085 -0.85902703 2.882077
-1.356665 -0.851349 2.8836
-1.34093 -0.85346699 2.8837759
-1.35188 -0.83844602 2.884536
-1.339962 -0.837865 2.8847539
-1.32973 -0.838983 2.8845689
-1.318424 -0.837448 2.8830991
-1.342145 -0.83192003 2.8848059
-1.334155 -0.817496 2.8839431
-1.356665 -0.80740798 2.8836
-1.356665 -0.785438 2.8836
-1.289199 -1.009037 2.8857379
-1.267234 -1.009328 2.885345
-1.288901 -0.98707098 2.8860581
-1.2942359 -0.97245198 2.8875539
-1.288604 -0.965105 2.8863771
-1.310568 -0.96481299 2.88677
-1.3161809 -0.95008498 2.8876109
-1.294026 -0.950297 2.887789
-1.310271 -0.94284701 2.88709
-1.307544 -0.932886 2.887187
-1.315971 -0.92793 2.887846
-1.309973 -0.92088097 2.8874099
-1.307359 -0.91110802 2.88779
-1.337916 -0.905563 2.887902
-1.31576 -0.90577501 2.8880811
-1.331641 -0.89862299 2.888123
-1.3071719 -0.88933098 2.8883929
-1.337705 -0.88340801 2.8881371
-1.337495 -0.86125398 2.8883719
-1.3624279 -0.854761 2.885504
-1.353011 -0.85439998 2.8891549
-1.280367 -0.85329098 2.8859999
-1.35308 -0.84081602 2.8851659
-1.35944 -0.83888698 2.8884289
-1.337285 -0.83909899 2.888607
-1.36184 -0.81670302 2.8874309
-1.3572116 -0.81820798 2.8873444
-1.3513449 -0.81630099 2.8850191
-1.340302 -0.81628603 2.885776
-1.329195 -0.81683803 2.885052
-1.352416 -0.81046802 2.8897941
-1.343359 -0.81037301 2.8858371
-1.36218 -0.79512399 2.888453
-1.357306 -0.79855299 2.886883
-1.359019 -0.794577 2.8888979
-1.350809 -0.79415601 2.8855021
-1.340641 -0.794707 2.8867979
-1.336864 -0.79479003 2.8890769
-1.290252 -0.79245102 2.8897009
-1.344574 -0.78882498 2.886867
-1.3383811 -0.77523297 2.8856599
-1.362519 -0.77354503 2.8894751
-1.358809 -0.77242303 2.889133
-1.350274 -0.77201098 2.8859849
-1.340981 -0.77312702 2.88782
-1.3366539 -0.77263498 2.889312
-1.319442 -0.77271003 2.8861649
-1.324291 -0.765984 2.886169
-1.361532 -0.75629002 2.8886001
-1.340494 -0.75410199 2.886518
-1.349739 -0.74986601 2.8864679
-1.3075939 -0.74515301 2.889967
-1.363645 -0.73515898 2.8894589
-1.342607 -0.73297101 2.887377
-1.415655 -0.72611201 2.8868501
-1.371354 -0.727184 2.8869171
-1.349203 -0.72772002 2.886951
-1.3447191 -0.71183902 2.888236
-1.402488 -0.70553398 2.8894811
-1.348668 -0.70557499 2.887434
-1.437269 -0.70343 2.8873
-1.4151191 -0.70396602 2.8873329
-1.424433 -0.68316698 2.889538
-1.414584 -0.68182099 2.887816
-1.4022779 -0.68337899 2.8897159
-1.392433 -0.68235701 2.88785
-1.370283 -0.68289399 2.8878829
-1.260676 -1.008513 2.8936579
-1.25541 -1.0068949 2.893862
-1.225044 -0.99513203 2.8939309
-1.2628061 -0.98720801 2.8945241
-1.328746 -0.86739701 2.890064
-1.32856 -0.84561998 2.890667
-1.328374 -0.82384199 2.8912699
-1.349948 -0.80190802 2.892941
-1.3281879 -0.802064 2.8918729
-1.328002 -0.78028703 2.8924761
-1.373786 -0.76624399 2.8908269
-1.3518209 -0.766536 2.890434
-1.411497 -0.749614 2.8941131
-1.300136 -0.73161203 2.8934021
-1.305685 -0.71511102 2.8932171
-1.388909 -0.69508398 2.8932581
-1.260792 -0.99500698 2.8951471
-1.245252 -0.99860799 2.8970881
-1.284017 -0.98941398 2.8966229
-1.261134 -0.97324699 2.8961771
-1.286147 -0.96811002 2.8974881
-1.2578599 -0.96344 2.8959401
-1.261477 -0.951487 2.897208
-1.288278 -0.946805 2.8983541
-1.267066 -0.94459897 2.896255
-1.235007 -0.93380803 2.897661
-1.290408 -0.92549998 2.89922
-1.432994 -0.75090802 2.8958421
-1.39291 -0.73626298 2.8968861
-1.306726 -0.69105202 2.89587
-1.265461 -1.0020829 2.900244
-1.268782 -0.98164201 2.9014881
-1.275424 -0.940759 2.903975
-1.255216 -0.93728399 2.9008181
-1.311619 -0.927706 2.901319
-1.2585371 -0.91684198 2.9020619
-1.313749 -0.90640098 2.902184
-1.305598 -0.90880901 2.902606
-1.28388 -0.90838897 2.900938
-1.304889 -0.90086901 2.9025431
-1.261858 -0.89640099 2.9033051
-1.315879 -0.88509601 2.9030499
-1.284222 -0.88662899 2.901968
-1.265179 -0.87595999 2.9045489
-1.306283 -0.86528999 2.9046669
-1.31801 -0.863792 2.9039149
-1.296798 -0.86158502 2.9018159
-1.32014 -0.84248698 2.9047811
-1.255723 -1.0180039 2.909519
-1.233572 -1.018298 2.9091229
-1.23525 -1.0136811 2.9080999
-1.2746119 -1.0066071 2.907644
-1.252668 -1.0067641 2.9065671
-1.2778471 -1.0039999 2.9059899
-1.2554229 -0.99585199 2.909842
-1.299647 -0.98112398 2.9064431
-1.277307 -0.98166502 2.906477
-1.274424 -0.98464602 2.908252
-1.279564 -0.96936703 2.9080999
-1.2574069 -0.96936703 2.9080999
-1.29618 -0.96252698 2.9099369
-1.299107 -0.95878899 2.90693
-1.276767 -0.95933002 2.9069641
-1.301721 -0.94721001 2.9080999
-1.279564 -0.94721001 2.9080999
-1.2985671 -0.936454 2.907418
-1.276227 -0.93699503 2.9074509
-1.301721 -0.925053 2.9080999
-1.2787451 -0.92031801 2.9052191
-1.320367 -0.91357899 2.907871
-1.298027 -0.91412002 2.9079051
-1.275687 -0.91466099 2.907938
-1.301721 -0.90289599 2.9080999
-1.319827 -0.89124399 2.9083581
-1.297487 -0.89178503 2.908392
-1.275147 -0.892326 2.908426
-1.323878 -0.88073897 2.9080999
-1.301721 -0.88073897 2.9080999
-1.3192869 -0.868909 2.9088449
-1.296947 -0.86944997 2.908879
-1.346035 -0.85858202 2.9080999
-1.329015 -0.85871899 2.906364
-1.323878 -0.85858202 2.9080999
-1.301721 -0.85858202 2.9080999
-1.2685 -0.85551798 2.905792
-1.318747 -0.84657401 2.909333
-1.341351 -0.84469301 2.9068799
-1.368192 -0.83642501 2.9080999
-1.346035 -0.83642501 2.9080999
-1.33024 -0.83699203 2.907403
-1.323878 -0.83642501 2.9080999
-1.301721 -0.83642501 2.9080999
-1.32227 -0.82118201 2.905647
-1.318207 -0.82423902 2.9098201
-1.346035 -0.81426799 2.9080999
-1.275142 -0.81463599 2.9082789
-1.345611 -0.80208302 2.9086111
-1.329028 -0.80043203 2.9094279
-1.3243999 -0.79987699 2.906512
-1.3265311 -0.77857202 2.907378
-1.2615761 -0.77027798 2.9076099
-1.368192 -0.76995403 2.9080999
-1.4346631 -0.74779701 2.9080999
-1.332921 -0.71465802 2.9099751
-1.283149 -1.003279 2.9122231
-1.277575 -0.99555701 2.910238
-1.212622 -0.998501 2.913898
-1.228853 -0.99011099 2.9144001
-1.282936 -0.98093402 2.9124589
-1.277275 -0.973405 2.9105611
-1.282724 -0.95858997 2.9126959
-1.299126 -0.95095801 2.911279
-1.276975 -0.95125198 2.9108829
-1.304857 -0.93603098 2.9127531
-1.2825119 -0.93624502 2.9129331
-1.298826 -0.92880499 2.911602
-1.276675 -0.92909998 2.9112051
-1.3046449 -0.91368699 2.9129901
-1.320678 -0.90635902 2.9123211
-1.298526 -0.90665299 2.9119239
-1.295617 -0.896644 2.911761
-1.3267781 -0.891128 2.9130471
-1.304433 -0.89134198 2.9132271
-1.3425291 -0.88391203 2.913039
-1.320377 -0.884206 2.912643
-1.298226 -0.88450003 2.912246
-1.317373 -0.87452501 2.9134459
-1.326566 -0.86878401 2.9132841
-1.304221 -0.86899799 2.9134641
-1.281876 -0.86921197 2.9136441
-1.342229 -0.86175901 2.913362
-1.320078 -0.86205399 2.9129651
-1.317185 -0.85256398 2.9140539
-1.295242 -0.85272199 2.912977
-1.326354 -0.84644002 2.9135211
-1.304009 -0.846654 2.9137011
-1.341929 -0.839607 2.9136839
-1.319777 -0.83990097 2.9132881
-1.29203 -0.838552 2.910193
-1.316998 -0.830603 2.9146619
-1.3484859 -0.82388097 2.913578
-1.326141 -0.82409501 2.913758
-1.303797 -0.82430899 2.913938
-1.341629 -0.81745398 2.914006
-1.319477 -0.81774801 2.91361
-1.3400069 -0.801364 2.9102731
-1.325929 -0.80175102 2.913995
-1.317667 -0.80190498 2.9103069
-1.36348 -0.79500699 2.9147251
-1.341329 -0.79530197 2.9143291
-1.319178 -0.795596 2.9139321
-1.339467 -0.77902901 2.9107599
-1.325717 -0.77940601 2.914232
-1.281027 -0.77983397 2.9145911
-1.318877 -0.77344298 2.9142549
-1.373149 -0.75775403 2.9148259
-1.338927 -0.75669402 2.911247
-1.325505 -0.75706202 2.9144681
-1.30316 -0.757276 2.9146481
-1.338387 -0.73435903 2.9117341
-1.375343 -0.71907002 2.9141729
-1.330397 -0.71339399 2.9135499
-1.291748 -0.71242899 2.9144969
-1.356263 -0.69555902 2.9129391
-1.335052 -0.693353 2.91084
-1.229645 -1.022609 2.915827
-1.2480921 -1.013817 2.9156439
-1.242674 -1.013485 2.9167249
-1.26577 -0.99289 2.9195311
-1.25024 -0.99233598 2.916517
-1.21597 -0.97789598 2.9151509
-1.273775 -0.97307903 2.9195061
-1.252388 -0.970855 2.9173889
-1.245144 -0.96966398 2.9188211
-1.254536 -0.94937301 2.918262
-1.316623 -0.786681 2.9158781
-1.3053139 -0.756787 2.9151671
-1.3850321 -0.75040799 2.915766
-1.378494 -0.752693 2.915045
-1.394424 -0.74258101 2.915406
-1.417766 -0.72348201 2.91837
-1.3965549 -0.72127599 2.916271
-1.337816 -0.69867897 2.9193881
-1.26824 -0.94906902 2.921627
-1.27807 -0.930116 2.9212511
-1.291335 -0.92847502 2.924432
-1.301605 -0.91085899 2.9242401
-1.280218 -0.90863502 2.9221239
-1.282366 -0.88715398 2.922997
-1.253078 -0.87837398 2.9246011
-1.284514 -0.86567199 2.9238701
-1.286662 -0.84419101 2.924742
-1.2695709 -0.79900402 2.924371
-1.225729 -0.788948 2.92325
-1.29257 -0.90656501 2.9254799
-1.315665 -0.88597 2.9282849
-1.303753 -0.88937801 2.925113
-1.293805 -0.88465399 2.926528
-1.3169 -0.86405998 2.929333
-1.29504 -0.86274397 2.9275751
-1.256426 -0.85776901 2.925854
-1.308049 -0.84641498 2.9268589
-1.2949719 -0.82777297 2.929718
-1.310197 -0.82493401 2.927732
-1.28881 -0.82270998 2.9256151
-1.263121 -0.81655902 2.9283609
-1.312345 -0.80345303 2.9286039
-1.290958 -0.80122799 2.9264879
-1.266469 -0.79595399 2.929615
-1.246099 -0.79245102 2.9264331
-1.196642 -1.022711 2.9329751
-1.240548 -1.015134 2.9302781
-1.245827 -1.000013 2.9330001
-1.243704 -1.00448 2.934413
-1.200016 -1.0019391 2.934238
-1.262488 -0.99282801 2.931977
-1.240358 -0.99298698 2.930891
-1.243402 -0.98213798 2.9347379
-1.245827 -0.97766697 2.9330001
-1.284429 -0.97052097 2.933676
-1.2622989 -0.97068 2.93259
-1.268173 -0.95532 2.9330001
-1.245827 -0.95532 2.9330001
-1.28424 -0.94837302 2.9342899
-1.26211 -0.94853199 2.9332039
-1.29052 -0.93297303 2.9330001
-1.268173 -0.93297303 2.9330001
-1.2840509 -0.92622602 2.9349029
-1.29052 -0.91062701 2.9330001
-1.29052 -0.88827997 2.9330001
-1.285616 -0.87739098 2.934135
-1.316529 -0.85013998 2.930361
-1.307605 -0.85431701 2.934593
-1.318135 -0.84214902 2.9303811
-1.280144 -0.84066701 2.93029
-1.338775 -0.82862097 2.9330831
-1.34123 -0.82155502 2.9331861
-1.3352129 -0.82124001 2.9330001
-1.31937 -0.82023901 2.931428
-1.312867 -0.82124001 2.9330001
-1.303862 -0.82356602 2.934726
-1.35756 -0.79889297 2.9330001
-1.342465 -0.79964501 2.9342339
-1.320605 -0.79832798 2.932476
-1.298745 -0.79701197 2.9307189
-1.286839 -0.79945803 2.932797
-1.317564 -0.784311 2.9334791
-1.29998 -0.77510202 2.931767
-1.29052 -0.77654701 2.9330001
-1.274451 -0.739577 2.9321921
-1.320936 -0.71752799 2.9320951
-1.27986 -0.71353501 2.934629
-1.25949 -0.71003097 2.931447
-1.35756 -0.70950699 2.9330001
-1.217177 -1.026242 2.936182
-1.229719 -1.020183 2.9399681
-1.235302 -1.019213 2.9380081
-1.213737 -1.01697 2.935874
-1.207673 -1.018856 2.938195
-1.271685 -1.0121239 2.9376249
-1.215902 -0.99531001 2.936754
-1.265743 -0.98184103 2.935138
-1.203391 -0.98116702 2.9355021
-1.239634 -0.97589201 2.9397681
-1.227301 -0.96392697 2.9399731
-1.26544 -0.95949799 2.935463
-1.243099 -0.959795 2.9350629
-1.3063689 -0.94821501 2.9353759
-1.265138 -0.93715602 2.9357879
-1.30618 -0.92606699 2.9359889
-1.293368 -0.92175698 2.9384
-1.287176 -0.91451699 2.9365129
-1.264835 -0.914814 2.9361141
-1.283861 -0.90407801 2.9355161
-1.293154 -0.89921898 2.938638
-1.2868741 -0.89217502 2.9368391
-1.305802 -0.88177198 2.937216
-1.283672 -0.88192999 2.93613
-1.261542 -0.88208902 2.9350441
-1.308912 -0.86953598 2.9375639
-1.286571 -0.86983299 2.9371641
-1.283483 -0.85978299 2.936743
-1.292726 -0.85414302 2.939116
-1.30861 -0.84719402 2.9378891
-1.2862689 -0.84749001 2.937489
-1.2639281 -0.84778702 2.937089
-1.305424 -0.83747602 2.938442
-1.283294 -0.83763498 2.937356
-1.30706 -0.83178902 2.9350841
-1.2925121 -0.83160502 2.9393549
-1.3083071 -0.82485199 2.9382141
-1.305235 -0.81532902 2.939055
-1.314837 -0.808851 2.9394131
-1.292298 -0.80906701 2.939594
-1.308005 -0.80250901 2.938539
-1.314623 -0.786313 2.939651
-1.3077019 -0.78016698 2.938864
-1.3667949 -0.75713998 2.938087
-1.296883 -0.737643 2.936558
-1.349404 -0.71805602 2.9374731
-1.25755 -1.032611 2.941957
-1.235462 -1.032184 2.9402609
-1.257898 -1.010482 2.943006
-1.23581 -1.010054 2.941309
-1.25301 -0.99941403 2.9427969
-1.2309639 -0.99808699 2.941025
-1.2582459 -0.98835301 2.9440539
-1.236158 -0.98792499 2.9423571
-1.236506 -0.96579599 2.9434049
-1.255501 -0.955221 2.944911
-1.2334549 -0.95389301 2.9431379
-1.2306761 -0.943156 2.941237
-1.2655309 -0.93481302 2.9436619
-1.23405 -0.92238402 2.9425011
-1.267697 -0.91315198 2.9445419
-1.237425 -0.90161198 2.943764
-1.327364 -0.81516999 2.940141
-1.29187 -0.763991 2.9400721
-1.314195 -0.74123698 2.940129
-1.258594 -0.966223 2.945102
-1.281029 -0.94452202 2.9478469
-1.258942 -0.944094 2.9461501
-1.278793 -0.93445098 2.9477401
-1.256747 -0.93312401 2.945967
-1.254585 -0.92591602 2.945709
-1.281377 -0.92239201 2.948895
-1.25929 -0.921965 2.9471979
-1.280038 -0.91235501 2.948797
-1.257992 -0.91102701 2.9470241
-1.25796 -0.90514398 2.9469719
-1.281725 -0.90026301 2.9499431
-1.259638 -0.89983499 2.948246
-1.281283 -0.89025801 2.9498529
-1.269863 -0.891491 2.9454219
-1.2408 -0.88084102 2.9450281
-1.244175 -0.86006898 2.946291
-1.27636 -0.826509 2.9480619
-1.228402 -1.045978 2.953757
-1.228211 -1.023641 2.954376
-1.228021 -1.001304 2.954994
-1.304161 -0.87856102 2.952688
-1.282073 -0.878133 2.9509909
-1.282529 -0.86816102 2.9509101
-1.304509 -0.85643202 2.9537361
-1.282421 -0.856004 2.952039
-1.30582 -0.84739202 2.9537389
-1.283774 -0.84606498 2.951967
-1.268084 -0.84282899 2.950763
-1.282769 -0.833875 2.953088
-1.307066 -0.82529598 2.9547961
-1.28502 -0.82396799 2.953023
-1.286265 -0.801871 2.9540801
-1.323823 -0.787673 2.9540911
-1.257674 -0.77698302 2.9513459
-1.306589 -0.74210799 2.953717
-1.308755 -0.72044802 2.954597
-1.232455 -1.0456311 2.956388
-1.2321171 -1.035816 2.959151
-1.234075 -1.031214 2.9584
-1.211535 -1.031214 2.9584
-1.277366 -1.021805 2.956815
-1.254636 -1.022356 2.9568501
-1.231812 -1.01328 2.9594791
-1.234075 -1.008674 2.9584
-1.2315069 -0.99074501 2.9598069
-1.2762671 -0.97635603 2.9578071
-1.251843 -0.97785604 2.9572744
-1.2278301 -0.978966 2.9556119
-1.249958 -0.956469 2.9573259
-1.275717 -0.95363098 2.958302
-1.256616 -0.94105297 2.9584
-1.2751679 -0.93090701 2.9587979
-1.272087 -0.93397099 2.9590399
-1.249768 -0.93413198 2.9579451
-1.227448 -0.93429202 2.9568501
-1.279156 -0.918513 2.9584
-1.256616 -0.918513 2.9584
-1.271896 -0.91163403 2.9596591
-1.249577 -0.91179401 2.9585631
-1.274618 -0.90818202 2.9592941
-1.279156 -0.89597303 2.9584
-1.274069 -0.88545698 2.95979
-1.249386 -0.88945699 2.959182
-1.3016959 -0.87343198 2.9584
-1.3016959 -0.85089201 2.9584
-1.3269449 -0.83473003 2.956481
-1.3016959 -0.82835197 2.9584
-1.279156 -0.82835197 2.9584
-1.327293 -0.81260097 2.95753
-1.305205 -0.81217301 2.955833
-1.346776 -0.805812 2.9584
-1.324236 -0.805812 2.9584
-1.3316031 -0.78242999 2.9586821
-1.283813 -0.76748598 2.9562321
-1.3016959 -0.76073098 2.9584
-1.306249 -0.745785 2.958977
-1.3016959 -0.73819101 2.9584
-1.290002 -0.73558199 2.9572501
-1.193043 -1.047937 2.9607351
-1.2374851 -1.044062 2.9633701
-1.2226371 -1.040082 2.963901
-1.2003599 -1.039651 2.962189
-1.260004 -1.0211101 2.963428
-1.222988 -1.017764 2.964958
-1.200711 -1.017332 2.9632471
-1.21779 -1.004704 2.964654
-1.282523 -0.99815702 2.963486
-1.259788 -0.998375 2.9636691
-1.282307 -0.97542298 2.963727
-1.259572 -0.97564101 2.9639101
-1.231202 -0.96820903 2.960135
-1.214725 -0.96712297 2.960732
-1.282091 -0.95268798 2.963968
-1.253431 -0.94537401 2.960866
-1.2308969 -0.94567299 2.960463
-1.218128 -0.94618201 2.9620061
-1.281875 -0.92995399 2.9642091
-1.22153 -0.92523998 2.96328
-1.253126 -0.92283797 2.961194
-1.275355 -0.90000302 2.961926
-1.252821 -0.90030199 2.9615221
-1.230286 -0.90060198 2.9611189
-1.224932 -0.90429902 2.9645541
-1.27505 -0.87746698 2.962254
-1.252516 -0.87776703 2.9618499
-1.2715141 -0.86695898 2.960896
-1.29625 -0.86218202 2.9602511
-1.2812279 -0.86175001 2.964932
-1.27352 -0.86273199 2.9602849
-1.2721469 -0.84231502 2.9611475
-1.2957 -0.83945698 2.960747
-1.2969739 -0.83209699 2.9633131
-1.2744401 -0.83239597 2.962909
-1.293452 -0.822124 2.963228
-1.2711329 -0.822285 2.9621329
-1.317881 -0.81618202 2.9612081
-1.296669 -0.80956101 2.9636409
-1.3400609 -0.792907 2.961669
-1.294601 -0.79400802 2.9617381
-1.316782 -0.770733 2.962199
-1.294052 -0.77128297 2.962234
-1.271322 -0.77183402 2.9622681
-1.318593 -0.76419002 2.9647
-1.328337 -0.74621201 2.960674
-1.316232 -0.74800801 2.9626949
-1.293502 -0.748559 2.962729
-1.338413 -0.724733 2.963156
-1.328685 -0.72408301 2.9617219
-1.306597 -0.72365499 2.9600251
-1.223339 -0.99544501 2.9660151
-1.241281 -0.98375702 2.9675081
-1.219046 -0.982418 2.9657199
-1.22369 -0.97312599 2.967072
-1.250596 -0.96143198 2.965564
-1.220302 -0.960132 2.9667859
-1.246318 -0.95123798 2.969841
-1.224041 -0.95080698 2.9681289
-1.243793 -0.93918502 2.96964
-1.221558 -0.937846 2.9678521
-1.2243921 -0.92848802 2.969187
-1.228335 -0.883358 2.9658279
-1.231737 -0.86241698 2.9671021
-1.239769 -0.849953 2.967849
-1.235139 -0.84147501 2.9683759
-1.2807961 -0.81628102 2.965414
-1.348354 -0.74742502 2.9655881
-1.2466691 -0.92891902 2.9708979
-1.245049 -0.91689903 2.970705
-1.24702 -0.90660101 2.9719551
-1.224743 -0.906169 2.970243
-1.26854 -0.89595199 2.9735589
-1.246305 -0.89461398 2.971771
-1.269648 -0.88471299 2.9747241
-1.247371 -0.88428199 2.973012
-1.269796 -0.87366599 2.9746239
-1.247561 -0.87232798 2.972837
-1.225327 -0.87098902 2.9710491
-1.283264 -0.85447699 2.9721529
-1.261517 -0.85221499 2.970001
-1.255842 -0.84503597 2.9716101
-1.259244 -0.824094 2.9728839
-1.245346 -0.778651 2.972198
-1.2485059 -0.76257998 2.9713991
-1.248749 -0.75770998 2.9734721
-1.193369 -1.055011 2.977231
-1.188197 -1.054803 2.976619
-1.2156889 -1.032318 2.97896
-1.193177 -1.03248 2.977855
-1.143067 -1.016467 2.9789231
-1.215497 -1.009787 2.979584
-1.269999 -0.86239398 2.975781
-1.271052 -0.851381 2.9756899
-1.27035 -0.84007502 2.9768381
-1.272308 -0.82909501 2.9767561
-1.292978 -0.81818801 2.9796059
-1.2707011 -0.817756 2.977895
-1.273564 -0.80680901 2.9778221
-1.271052 -0.79543799 2.9789519
-1.311564 -0.79120898 2.9769671
-1.269451 -0.76126999 2.976706
-1.272854 -0.74032903 2.9779799
-1.179451 -1.055066 2.9848111
-1.206864 -1.052307 2.9829719
-1.184932 -1.0500261 2.9808021
-1.2200021 -1.044952 2.9846089
-1.209067 -1.030278 2.9838669
-1.187135 -1.027997 2.9816971
-1.222101 -1.01747 2.9842
-1.211269 -1.008249 2.984762
-1.189337 -1.005968 2.9825921
-1.244838 -0.99473298 2.9842
-1.222101 -0.99473298 2.9842
-1.215304 -0.987257 2.9802079
-1.201918 -0.97035003 2.9817569
-1.237624 -0.96456403 2.981936
-1.215112 -0.96472597 2.9808309
-1.205348 -0.94923699 2.983041
-1.214919 -0.942195 2.9814551
-1.208779 -0.928123 2.9843259
-1.237239 -0.91950297 2.9831841
-1.267574 -0.903786 2.9842
-1.237047 -0.896972 2.983808
-1.290311 -0.88104999 2.9842
-1.290311 -0.85831302 2.9842
-1.267574 -0.85831302 2.9842
-1.267574 -0.835576 2.9842
-1.313048 -0.81283897 2.9842
-1.290311 -0.81283897 2.9842
-1.315606 -0.79629999 2.9823749
-1.293329 -0.79586899 2.980664
-1.315957 -0.77398098 2.9834321
-1.271403 -0.77311897 2.9800091
-1.290311 -0.76736599 2.9842
-1.2919335 -0.744259 2.982707
-1.277333 -0.73995101 2.981019
-1.187147 -1.047706 2.986295
-1.203145 -1.033937 2.987689
-1.187501 -1.025194 2.987361
-1.204412 -1.011458 2.988764
-1.187855 -1.002681 2.9884269
-1.219386 -0.999488 2.98527
-1.235404 -0.98850101 2.9878271
-1.213472 -0.98622 2.985657
-1.2056791 -0.98897898 2.9898391
-1.1882091 -0.980169 2.9894929
-1.219079 -0.97675502 2.9856009
-1.237607 -0.96647203 2.9887221
-1.215675 -0.96419102 2.986552
-1.218771 -0.954023 2.9859321
-1.239809 -0.94444299 2.9896171
-1.217877 -0.94216198 2.987447
-1.241194 -0.93098903 2.98667
-1.22008 -0.92013299 2.988342
-1.2405781 -0.88552397 2.9873309
-1.259367 -0.87427998 2.9855371
-1.263002 -0.86249 2.9880691
-1.2591749 -0.851749 2.986161
-1.182824 -0.84948403 2.9866869
-1.2225 -0.84367102 2.989464
-1.262694 -0.83975798 2.9884
-1.2589819 -0.82921797 2.986784
-1.239655 -0.81732798 2.988323
-1.281302 -0.80652601 2.988513
-1.338233 -0.77441299 2.9851429
-1.154025 -1.055169 2.994684
-1.210325 -1.003117 2.9901531
-1.2106791 -0.98060399 2.99122
-1.211033 -0.95809197 2.992286
-1.261742 -0.94672501 2.9917879
-1.211387 -0.93558002 2.9933519
-1.263944 -0.92469603 2.9926829
-1.242012 -0.922414 2.9905119
-1.266147 -0.90266699 2.993578
-1.244215 -0.90038502 2.9914069
-1.26835 -0.880638 2.994473
-1.246417 -0.87835598 2.9923019
-1.150936 -0.84848398 2.9910531
-1.233296 -0.78795898 2.9937119
-1.352387 -0.747621 2.9913499
-1.329656 -0.74792302 2.990943
-1.143057 -1.064666 2.998759
-1.175071 -1.058789 2.997972
-1.17853 -1.037501 2.9992671
-1.1574841 -1.0338809 2.9959791
-1.160943 -1.012593 2.9972739
-1.234565 -0.89099097 2.997211
-1.290282 -0.88291901 2.9966431
-1.258136 -0.85680699 2.9998951
-1.235709 -0.85545701 2.9980919
-1.17103 -0.852341 2.9953771
-1.272755 -0.83657998 2.996263
-1.2749569 -0.814551 2.9971581
-1.217082 -0.78667003 2.9995129
-1.171262 -1.0558619 3.0042689
-1.149142 -1.053561 3.00208
-1.1995749 -1.0411201 3.0025539
-1.180223 -1.0412951 3.002815
-1.14658 -1.043985 3.000833
-1.2028855 -1.0191185 3.004204
-1.181988 -1.016212 3.000561
-1.153585 -1.0091259 3.003886
-1.153628 -1.002622 3.0049789
-1.185447 -0.99492401 3.001857
-1.188906 -0.97363597 3.0031519
-1.192364 -0.95234799 3.004447
-1.257388 -0.86891401 3.0000031
-1.257742 -0.84640199 3.00107
-1.323227 -0.77505499 3.003289
-1.258805 -0.77886498 3.0042679
-1.218349 -0.76419097 3.0005879
-1.303497 -0.750745 3.002013
-1.173483 -1.033644 3.005172
-1.175705 -1.011427 3.006074
-1.206493 -0.99854398 3.0051439
-1.202543 -0.99567801 3.005188
-1.2000459 -0.99150997 3.009166
-1.177927 -0.989209 3.0069771
-1.157151 -0.98193997 3.0070529
-1.2023489 -0.97294998 3.0058169
-1.202155 -0.95022303 3.0064471
-1.2246701 -0.927333 3.0081911
-1.1992821 -0.90977198 3.0070369
-1.224476 -0.90460598 3.0088201
-1.20274 -0.888484 3.008332
-1.206199 -0.86719602 3.0096271
-1.185153 -0.86357599 3.0063391
-1.3451591 -0.777336 3.0054591
-1.347362 -0.75530702 3.0063541
-1.281628 -0.75678802 3.007061
-1.173687 -1.055887 3.010776
-1.189508 -1.0409909 3.0121651
-1.190786 -1.018316 3.0132489
-1.202268 -0.96929199 3.0100689
-1.204489 -0.94707501 3.0109711
-1.164199 -0.94057697 3.011199
-1.2067111 -0.92485702 3.011874
-1.220327 -0.91339099 3.010324
-1.231052 -0.90494001 3.014966
-1.223786 -0.89210302 3.01162
-1.24699 -0.881715 3.0105641
-1.227245 -0.87081498 3.0129149
-1.154513 -0.87464303 3.0130601
-1.246796 -0.85898799 3.011193
-1.129741 -1.0680439 3.0187449
-1.1405081 -1.059195 3.016376
-1.143995 -1.037729 3.0176821
-1.147483 -1.016263 3.0189879
-1.215965 -0.97432899 3.0172369
-1.197781 -0.96549201 3.016819
-1.217243 -0.95165402 3.018321
-1.1712461 -0.89921302 3.0153461
-1.233274 -0.88272202 3.0158679
-1.174769 -0.87853199 3.0174201
-1.235495 -0.86050498 3.0167711
-1.259837 -0.84058797 3.0198629
-1.237717 -0.838287 3.017674
-1.215597 -0.83598602 3.015485
-1.241079 -0.78566301 3.018095
-1.133294 -1.0471931 3.0208349
-1.1368459 -1.026342 3.0229261
-1.172192 -0.998447 3.0236089
-1.2411439 -0.93034101 3.021225
-1.221161 -0.92051399 3.0207119
-1.242422 -0.90766603 3.0223091
-1.221519 -0.89780498 3.0217879
-1.244541 -0.87553602 3.024605
-1.222355 -0.86095399 3.0226591
-1.2222331 -0.85238802 3.0239389
-1.199567 -0.85194898 3.022197
-1.176901 -0.85150999 3.0204561
-1.223634 -0.83827901 3.0237429
-1.244381 -0.77163398 3.0203819
-1.159619 -1.0394109 3.029124
-1.140399 -1.005492 3.0250161
-1.1439511 -0.98464102 3.027106
-1.186142 -0.91258299 3.0288329
-1.2688791 -0.84100401 3.0273809
-1.267921 -0.83055699 3.028497
-1.268278 -0.80784899 3.029572
-1.24597 -0.784702 3.0289071
-1.246327 -0.76199299 3.0299821
-1.095595 -1.0675009 3.0345509
-1.164101 -0.994591 3.0309451
-1.188653 -0.97450203 3.0340641
-1.167925 -0.96771097 3.033592
-1.190894 -0.95209199 3.0349741
-1.1510561 -0.94294 3.031287
-1.203876 -0.93769801 3.0308421
-1.154608 -0.92208999 3.0333769
-1.18963 -0.89111698 3.030139
-1.268993 -0.76243198 3.031723
-1.1161849 -1.071453 3.0389819
-1.099177 -1.046479 3.036659
-1.1302789 -1.041642 3.039752
-1.102759 -1.025458 3.0387659
-1.193135 -0.92968202 3.0358851
-1.217687 -0.90959197 3.0390029
-1.158161 -0.90123898 3.0354681
-1.219927 -0.887182 3.0399139
-1.119766 -1.050431 3.04109
-1.123348 -1.02941 3.0431969
-1.1063401 -1.004436 3.040874
-1.222168 -0.86477202 3.0408239
-1.248961 -0.82227302 3.044853
-1.22665 -0.81995201 3.042645
-1.12693 -1.008388 3.045305
-1.158713 -1.002028 3.0457289
-1.130511 -0.98736602 3.0474119
-1.16223 -0.98038203 3.0470459
-1.134093 -0.96634501 3.04952
-1.140978 -1.090476 3.0516131
-1.0780391 -1.092137 3.052984
-1.143239 -1.067871 3.052532
-1.145499 -1.045265 3.0534501
-1.147759 -1.02266 3.054369
-1.1836309 -0.98406202 3.0503891
-1.154682 -0.97029698 3.053951
-1.187148 -0.96241498 3.0517061
-1.137674 -0.94532299 3.0516269
-1.190665 -0.940768 3.0530231
-1.141256 -0.92430103 3.053735
-1.109233 -1.08928 3.059531
-1.079695 -1.087899 3.0588219
-1.08165 -1.070941 3.05511
-1.085261 -1.049745 3.057235
-1.1770459 -0.95718402 3.059351
-1.144837 -0.90327901 3.0558419
-1.130815 -1.0929919 3.062902
-1.134362 -1.071161 3.06423
-1.08276 -1.06701 3.0612681
-1.116327 -1.045619 3.062187
-1.085825 -1.04612 3.0637131
-1.179306 -0.93457901 3.0602701
-1.204073 -0.91431397 3.0634151
-1.181567 -0.911973 3.061188
-1.206333 -0.89170903 3.0643339
-1.141456 -1.027499 3.0668869
-1.08889 -1.025231 3.0661581
-1.145003 -1.005668 3.0682149
-1.116855 -0.99014199 3.0680771
-1.14855 -0.98383802 3.0695429
-1.063833 -1.0958149 3.07388
-1.173679 -0.96571797 3.0742421
-1.120466 -0.96894699 3.0702021
-1.098085 -0.96256298 3.073494
-1.127689 -0.92655498 3.0744519
-1.065546 -1.0916311 3.0784881
-1.177225 -0.943887 3.0755711
-1.1807719 -0.92205697 3.0768991
-1.184319 -0.900226 3.078227
-1.0686359 -1.07057 3.0809541
-1.071726 -1.04951 3.0834191
-1.095691 -1.035714 3.0848131
-1.120319 -1.075418 3.0870459
-1.127474 -1.031383 3.089725
-1.074816 -1.0284491 3.085885
-1.099333 -1.014341 3.086956
-1.1029741 -0.99296802 3.089098
-1.098359 -1.011006 3.093621
-1.1310509 -1.009365 3.0910649
-1.1346281 -0.98734701 3.0924039
-1.106616 -0.97159499 3.0912409
-1.138206 -0.96532899 3.093744
-1.116439 -0.961586 3.090343
-1.048052 -1.116667 3.0960169
-1.051168 -1.095432 3.0985031
-1.101449 -0.98994499 3.096086
-1.159972 -0.969073 3.0971439
-1.131191 -0.95424002 3.0978889
-1.16355 -0.94705498 3.098484
-1.141783 -0.94331098 3.095083
-1.167127 -0.92503703 3.099823
-1.14536 -0.92129397 3.0964229
-1.090266 -0.923145 3.098212
-1.076883 -1.120412 3.104198
-1.0741709 -1.082054 3.1018319
-1.054284 -1.0741971 3.1009879
-1.057399 -1.052961 3.1034739
-1.1076289 -0.947824 3.101017
-1.110719 -0.926763 3.103482
-1.102447 -1.101979 3.108979
-1.060515 -1.031726 3.1059599
-1.072969 -1.005594 3.107523
-1.106055 -1.079771 3.1103301
-1.109663 -1.0575629 3.111681
-1.113271 -1.035354 3.1130321
-1.116879 -1.013146 3.114383
-1.084253 -1.0141391 3.11376
-1.094924 -1.00937 3.1109531
-1.052282 -1.129178 3.1191289
-1.033411 -1.120712 3.1163559
-1.036552 -1.099299 3.1188631
-1.120488 -0.99093699 3.1157341
-1.087368 -0.99290299 3.116246
-1.117314 -0.95678699 3.119339
-1.127704 -0.94651997 3.1184361
-1.131312 -0.924312 3.119787
-1.039955 -1.1213731 3.1243291
-1.055985 -1.107442 3.121309
-1.059689 -1.085706 3.1234879
-1.0936 -0.95043302 3.121218
-1.120986 -0.93523401 3.1215
-1.124658 -0.91368097 3.123661
-1.156876 -0.90587902 3.124568
-1.062102 -1.125182 3.127789
-1.065742 -1.10278 3.1291521
-1.063392 -1.063969 3.1256671
-1.145768 -0.91773301 3.1282041
-1.178831 -0.90965497 3.1279981
-1.0065221 -1.123593 3.1317489
-1.087889 -1.106588 3.132612
-1.0915281 -1.084186 3.1339741
-1.069381 -1.080377 3.1305151
-1.084681 -1.068056 3.130249
-1.088385 -1.04632 3.1324279
-1.076661 -1.035573 3.13324
-1.092088 -1.024583 3.1346071
-1.069914 -1.017327 3.134248
-1.078205 -0.97702402 3.134383
-1.1494401 -0.89617997 3.1303649
-1.027003 -1.1269521 3.1377571
-1.021691 -1.103232 3.1395669
-1.095168 -1.061784 3.1353371
-1.0988081 -1.039382 3.1366999
-1.095791 -1.002847 3.136786
-1.073055 -0.99591398 3.136755
-1.106087 -0.994578 3.139426
-1.0994951 -0.98111099 3.1389649
-1.037483 -1.1332591 3.141098
-1.041218 -1.111336 3.143296
-1.029768 -1.105667 3.1402321
-1.032533 -1.0843821 3.1427071
-1.096992 -0.97817999 3.1446199
-1.109727 -0.97217602 3.140789
-1.1031981 -0.95937502 3.141144
-1.079339 -0.953089 3.141768
-1.113366 -0.94977301 3.1421511
-1.08248 -0.93167597 3.144275
-0.98863101 -1.149394 3.149152
-1.0458291 -1.085348 3.1474991
-1.044953 -1.089414 3.145494
-1.0486881 -1.067492 3.147691
-1.052423 -1.0455689 3.149889
-1.038063 -1.0418119 3.147656
-1.110605 -0.91590202 3.1455021
-0.99141902 -1.127931 3.1516471
-1.048997 -1.063755 3.150027
-1.073895 -1.049691 3.15451
