# .PCD v0.7 - Point Cloud Data file format
VERSION 0.7
FIELDS x y z
SIZE 4 4 4
TYPE F F F
COUNT 1 1 1
WIDTH 1623
HEIGHT 1
VIEWPOINT 0 0 0 1 0 0 0
POINTS 1623
DATA ascii
0.494084 -1.242775 2.4925289
0.51368397 -1.240736 2.4905889
0.53990501 -1.2428941 2.4941771
0.55582702 -1.244078 2.491585
0.44492501 -1.231667 2.492979
0.47090301 -1.227695 2.4920571
0.51159102 -1.228848 2.4949181
0.531968 -1.22949 2.4937861
0.492174 -1.2218289 2.4926329
0.50146502 -1.2200429 2.492763
0.51171499 -1.22105 2.491389
0.47165701 -1.2098221 2.490339
0.47936001 -1.207674 2.4930301
0.48919299 -1.207754 2.4909339
0.49014699 -1.203401 2.494128
0.50974703 -1.201363 2.4921889
0.48230201 -1.1954221 2.494854
0.52903152 -1.1981134 2.4918439
0.46082401 -1.189103 2.4946339
0.491247 -1.18647 2.4933619
0.48817801 -1.183715 2.4949279
0.50777799 -1.181676 2.4929891
0.45017901 -1.178552 2.4948449
0.46173999 -1.17865 2.493515
0.52737898 -1.179637 2.4910491
0.429061 -1.161061 2.493737
0.467013 -1.163123 2.491365
0.474796 -1.163239 2.4936271
0.48523101 -1.163825 2.4912479
0.50581002 -1.161989 2.493789
0.46332899 -1.156303 2.494952
0.48329332 -1.1541437 2.4921064
1.0449539 -1.675853 2.4994559
0.99195898 -1.6716191 2.4958069
1.0182281 -1.673707 2.4975979
1.13293 -1.653779 2.4961319
1.1653171 -1.653218 2.4965041
1.021587 -1.636211 2.498497
1.1533329 -1.63903 2.4974461
1.0709209 -1.630599 2.499048
1.127308 -1.6294301 2.4976859
1.116671 -1.615954 2.4998901
1.086856 -1.6132931 2.496423
1.0899889 -1.606078 2.498899
1.155565 -1.585326 2.497926
1.097265 -1.584568 2.4985781
1.129567 -1.579573 2.495229
1.0912679 -1.570347 2.499836
1.112824 -1.55407 2.4996209
1.0816129 -1.5446531 2.4991751
1.0877531 -1.523743 2.4982989
1.1140831 -1.523752 2.4990649
1.133118 -1.507877 2.4979539
1.265466 -1.505475 2.496531
1.180282 -1.4909101 2.499589
1.180874 -1.471826 2.4973979
1.153703 -1.460925 2.496228
1.179705 -1.460081 2.495944
1.2084661 -1.442138 2.499125
1.2003649 -1.432555 2.497334
1.216471 -1.426679 2.4990449
1.213334 -1.423061 2.4977729
1.054634 -1.399514 2.4961891
1.092716 -1.3879091 2.4950349
1.053825 -1.3848521 2.497601
1.074072 -1.377124 2.499388
1.08705 -1.378865 2.4966111
1.108106 -1.3794841 2.4991629
1.083892 -1.3713551 2.4977951
1.086002 -1.37384 2.495857
1.083631 -1.3673919 2.4958091
1.123997 -1.360319 2.499316
1.055403 -1.356463 2.497875
1.084262 -1.357402 2.4991059
1.062705 -1.346689 2.498462
1.084589 -1.344293 2.4967041
1.126031 -1.338927 2.4972601
0.677544 -1.334712 2.495409
1.109111 -1.330467 2.4960251
0.64555198 -1.326854 2.4957831
0.66296601 -1.326342 2.4982951
0.70350802 -1.326514 2.4997351
1.0982831 -1.325237 2.497452
1.112704 -1.32531 2.4953721
0.67302698 -1.324841 2.497705
0.691643 -1.322443 2.496551
0.67304897 -1.316918 2.496475
1.088724 -1.318041 2.498477
1.098907 -1.317243 2.4981689
0.62776703 -1.313697 2.4991131
0.63912302 -1.3137389 2.497205
0.64736599 -1.312232 2.499784
0.673356 -1.314461 2.499506
1.099337 -1.311089 2.498039
1.137512 -1.3126791 2.497766
1.106564 -1.305288 2.4997361
0.67977601 -1.302449 2.495579
0.56215 -1.295023 2.4985721
0.67767102 -1.295462 2.4976549
1.210701 -1.296723 2.498666
0.58701903 -1.29024 2.497901
0.59723097 -1.294067 2.4979229
0.62374997 -1.293998 2.4955029
0.666035 -1.292335 2.4988091
0.72376001 -1.293066 2.497931
0.57383299 -1.286417 2.4986379
0.61233503 -1.289968 2.498317
0.6273495 -1.287588 2.4978671
0.56621301 -1.284477 2.4984889
0.64007199 -1.28376 2.4958689
0.56092203 -1.27855 2.4983981
0.50248998 -1.2716841 2.4966731
0.52187032 -1.2734524 2.496567
0.48953399 -1.269568 2.4993939
0.50724202 -1.267844 2.499963
0.51255798 -1.265431 2.4989171
0.52540302 -1.267652 2.499074
0.497843 -1.263607 2.4977801
0.49593499 -1.252766 2.4990239
0.507806 -1.2549289 2.495914
0.51688802 -1.251552 2.499965
0.48872399 -1.245214 2.498939
0.50705898 -1.246591 2.4954851
0.51895201 -1.2489671 2.498986
0.53635699 -1.247815 2.495775
0.48607701 -1.244877 2.499572
0.505481 -1.240352 2.49793
0.46910799 -1.2329201 2.497479
0.48966199 -1.232685 2.4962969
0.49227601 -1.226429 2.495321
0.50593698 -1.226693 2.4964371
0.51197302 -1.220196 2.496779
0.51229799 -1.215669 2.498992
0.468086 -1.21162 2.49931
0.53173298 -1.212326 2.4959559
0.47054601 -1.20544 2.496068
0.504816 -1.206794 2.4973879
0.50839102 -1.208858 2.497596
0.49733999 -1.200429 2.496671
0.509359 -1.200078 2.4991181
0.44895101 -1.196753 2.4955931
0.46090099 -1.187259 2.498945
0.474733 -1.188984 2.497649
0.467747 -1.1792099 2.4989171
0.47697601 -1.1779571 2.4998779
0.46706399 -1.171932 2.497365
0.485957 -1.170301 2.4989221
0.45764899 -1.169268 2.497292
0.46661001 -1.1660661 2.497668
0.44492999 -1.160688 2.4996059
0.499055 -1.160423 2.49634
0.45914701 -1.158689 2.495836
0.46372899 -1.159403 2.4958301
0.43153301 -1.152493 2.495446
0.45074499 -1.152959 2.4954751
1.078032 -1.689326 2.5042541
1.0997289 -1.680252 2.503267
1.1567 -1.682719 2.504961
1.072144 -1.6780519 2.5013731
1.098297 -1.663556 2.5029111
1.08775 -1.655512 2.5013349
1.0120471 -1.654814 2.5040951
1.05036 -1.6390131 2.501915
1.070776 -1.637048 2.5011771
1.098497 -1.63241 2.500922
1.126544 -1.6342601 2.5028441
1.094782 -1.6169519 2.501374
1.033251 -1.6129169 2.500634
1.068329 -1.599272 2.5014939
1.092819 -1.599521 2.5012331
1.117753 -1.599808 2.5010221
1.080617 -1.593259 2.502286
1.153815 -1.587505 2.5024209
1.053287 -1.58311 2.500077
1.063477 -1.554245 2.500114
1.152562 -1.5388629 2.5000379
1.195768 -1.534009 2.5023329
1.179852 -1.521682 2.5005889
1.195685 -1.523775 2.5014319
1.2237951 -1.523783 2.502248
1.2523789 -1.523792 2.503078
1.153214 -1.513546 2.5013411
1.1192549 -1.488498 2.5046289
1.2201329 -1.4752311 2.5006471
1.273994 -1.425042 2.5006571
1.172525 -1.4220099 2.50401
1.19397 -1.411586 2.503366
0.99553001 -1.401525 2.50454
1.2068779 -1.402334 2.5038381
1.04759 -1.395535 2.5044889
1.073736 -1.396397 2.5035269
1.1165 -1.3974921 2.502562
1.047895 -1.3918149 2.500556
1.10576 -1.39369 2.5012331
1.10701 -1.38627 2.5037711
1.041218 -1.384487 2.5047531
1.05365 -1.381044 2.503783
1.066399 -1.3822531 2.5026691
1.06327 -1.375003 2.503109
1.103636 -1.377332 2.502995
1.0361871 -1.37431 2.502964
1.03529 -1.367806 2.502286
1.044853 -1.366693 2.5000989
1.058167 -1.365949 2.501245
1.086484 -1.367475 2.500912
1.115804 -1.368685 2.5019519
1.096783 -1.364152 2.5016241
1.0713215 -1.357519 2.5015221
1.061792 -1.3547291 2.5015969
1.079669 -1.354481 2.5025129
1.080776 -1.3501199 2.5002811
1.0411561 -1.349054 2.500205
1.158577 -1.340474 2.5003181
1.066967 -1.335423 2.5035689
1.0814739 -1.33594 2.5016019
0.66054899 -1.331336 2.504513
0.68468201 -1.325016 2.5035551
1.115412 -1.328356 2.501267
1.1694911 -1.327396 2.504472
0.66406298 -1.321292 2.5036991
0.68156099 -1.322808 2.501339
0.61930698 -1.31881 2.5033441
0.71004099 -1.3191071 2.504025
1.09324 -1.317171 2.5000739
1.119858 -1.315509 2.5008891
0.66721803 -1.310733 2.500433
0.68570298 -1.313977 2.5034089
1.146859 -1.313794 2.5016639
1.191859 -1.313483 2.5039749
0.639983 -1.308592 2.501035
0.65997398 -1.305952 2.5006821
0.68248999 -1.308832 2.503607
0.64191502 -1.304729 2.501987
0.64868999 -1.303043 2.503098
0.66823554 -1.302814 2.5019965
0.68734998 -1.3020279 2.5006189
0.60278302 -1.2992229 2.504674
0.58967102 -1.293129 2.504251
0.61053598 -1.290284 2.5020599
0.58875698 -1.288769 2.5027249
0.59824198 -1.2888089 2.5005331
0.49502301 -1.282945 2.504344
0.631881 -1.281649 2.5001669
0.46298999 -1.276682 2.5012131
0.60535502 -1.27829 2.5045381
0.49229899 -1.265372 2.5037839
0.49112499 -1.262905 2.504946
0.49864399 -1.2526325 2.5026684
0.507231 -1.24915 2.5045159
0.521653 -1.2476881 2.502394
0.50244099 -1.237336 2.5009749
0.492735 -1.232776 2.5017021
0.48268402 -1.2267165 2.5037036
0.45878899 -1.223564 2.5012269
0.492616 -1.223371 2.5024581
0.50132799 -1.2206711 2.501456
0.463669 -1.2177089 2.5033569
0.46423399 -1.214143 2.50405
0.48826 -1.2115231 2.5026305
0.44167 -1.203495 2.5014811
0.454667 -1.204036 2.5047269
0.49000201 -1.203253 2.504797
0.49717399 -1.20099 2.5049829
0.462832 -1.1955611 2.504832
0.50910401 -1.19601 2.5001881
0.43573999 -1.194568 2.502147
0.49321601 -1.180814 2.5005791
0.48647499 -1.179693 2.504421
0.452384 -1.172408 2.5001609
0.45563 -1.170336 2.503897
0.47010499 -1.170293 2.5022681
0.48271999 -1.168193 2.5008881
0.4627175 -1.1577775 2.5026522
1.0185159 -1.68769 2.5090699
1.0792789 -1.6845109 2.5096481
1.0933959 -1.660893 2.509923
0.99036902 -1.64127 2.506789
1.040242 -1.643142 2.5084169
1.141338 -1.628004 2.509625
1.011652 -1.5966721 2.506068
1.088166 -1.598447 2.5085239
1.110379 -1.595751 2.5058019
1.106662 -1.590469 2.505167
1.061801 -1.581516 2.508754
1.086241 -1.5816261 2.508549
1.111122 -1.581772 2.5083959
1.0743769 -1.573226 2.5081489
1.118916 -1.566503 2.5071909
1.147375 -1.5678231 2.5091889
1.154917 -1.561355 2.505985
1.084651 -1.551842 2.5069871
1.110956 -1.552078 2.507823
1.137718 -1.552335 2.5087011
1.156981 -1.535543 2.506568
1.1043299 -1.519309 2.5085521
1.1461231 -1.519181 2.5068059
1.081136 -1.5052381 2.5054491
1.1074131 -1.505097 2.506273
1.134146 -1.50497 2.507138
1.161265 -1.50481 2.5079651
1.173452 -1.501133 2.506603
1.188849 -1.504657 2.5088201
1.147004 -1.492411 2.506974
1.126435 -1.489697 2.5053871
1.108155 -1.469101 2.5063519
1.21324 -1.455953 2.508096
1.231799 -1.422226 2.5080259
1.036781 -1.4058141 2.506088
1.181586 -1.408358 2.5056429
1.108803 -1.4022681 2.5068121
1.045763 -1.399886 2.5059381
1.105823 -1.3979419 2.509737
1.06749 -1.3935241 2.5095251
1.033228 -1.384964 2.508178
1.086287 -1.382814 2.5078051
1.041658 -1.375204 2.508301
1.051355 -1.379264 2.5082829
1.0500979 -1.360193 2.5058739
1.101814 -1.3592809 2.505075
1.074892 -1.346628 2.507812
1.080253 -1.347041 2.5067899
1.090113 -1.345498 2.508832
0.58323503 -1.340048 2.5059581
1.100065 -1.342891 2.509583
1.065883 -1.338732 2.5074279
1.07985 -1.335043 2.5087631
0.63241202 -1.334509 2.5084651
0.70505601 -1.332781 2.509578
1.104849 -1.33321 2.5085809
0.664859 -1.328267 2.5093701
0.67409003 -1.328226 2.5070469
0.72013003 -1.325668 2.5056469
1.056421 -1.329954 2.5062649
0.64028198 -1.318175 2.5050659
0.66152602 -1.317508 2.5067639
0.68310601 -1.316846 2.5085199
1.1523679 -1.31934 2.5059509
0.614586 -1.303303 2.5070231
0.65977502 -1.300975 2.50734
0.682006 -1.304414 2.50595
0.570086 -1.296497 2.5073099
0.58033901 -1.299713 2.508563
0.64158499 -1.296062 2.506032
0.65664899 -1.2959189 2.505527
0.54907799 -1.290122 2.5087349
0.624349 -1.290484 2.507324
0.66139603 -1.294449 2.506726
0.52768302 -1.288529 2.5080869
0.55934697 -1.286526 2.509341
0.612216 -1.284874 2.5059371
0.487248 -1.2782021 2.5077779
0.50682902 -1.279838 2.5067959
0.52289301 -1.27988 2.5072141
0.52517301 -1.277166 2.5089481
0.464876 -1.274935 2.5087221
0.47992101 -1.269184 2.507206
0.49514699 -1.2623039 2.508132
0.458363 -1.257992 2.505832
0.459609 -1.253924 2.5076239
0.47185799 -1.25077 2.5090239
0.48405901 -1.254256 2.505311
0.48814601 -1.2456909 2.5073111
0.47352099 -1.2374516 2.5075879
0.494032 -1.235411 2.5061481
0.48272601 -1.234051 2.508399
0.51790398 -1.227724 2.5057149
0.49049801 -1.223049 2.506834
0.49064499 -1.215533 2.508141
0.49707499 -1.2197419 2.506036
0.47545999 -1.2107919 2.509547
0.493572 -1.212273 2.508708
0.48047501 -1.205985 2.5067561
0.464499 -1.203364 2.5067451
0.469735 -1.202744 2.506984
0.49018499 -1.2031209 2.5077779
0.45960599 -1.195452 2.5086689
0.48169699 -1.194091 2.5064399
0.50672799 -1.191918 2.505944
0.43642101 -1.185632 2.506243
0.466557 -1.189744 2.5093529
0.489871 -1.183193 2.5087221
0.43114701 -1.176018 2.506731
0.50334102 -1.17204 2.507937
0.44699401 -1.164916 2.505836
1.121401 -1.66298 2.511919
1.054778 -1.645281 2.514431
1.042537 -1.626078 2.510308
1.01739 -1.62108 2.5137761
1.07338 -1.621832 2.51126
1.038708 -1.591604 2.514149
1.1392879 -1.593702 2.5114119
1.068137 -1.553192 2.5140109
1.148577 -1.540567 2.5119641
1.204466 -1.521058 2.5108559
1.12472 -1.51762 2.5142319
1.139683 -1.499499 2.5135739
1.100742 -1.486442 2.5134809
1.127421 -1.486163 2.514405
1.140795 -1.471277 2.5126081
1.145237 -1.470746 2.5126359
1.167295 -1.451214 2.5132389
1.237738 -1.4539731 2.510736
1.101999 -1.448149 2.5119359
1.185277 -1.441344 2.5118971
1.199391 -1.431895 2.513123
1.1402299 -1.424274 2.5112121
1.166123 -1.423134 2.51105
1.146795 -1.419202 2.5129881
1.2463731 -1.419596 2.510541
0.99593699 -1.413654 2.514878
1.027032 -1.4125119 2.5116301
1.143963 -1.413877 2.514524
0.99009502 -1.397745 2.5126171
1.086459 -1.399635 2.511678
1.0936559 -1.3924789 2.5103819
1.064887 -1.387338 2.5105391
1.094516 -1.388095 2.5141251
1.035867 -1.383651 2.510494
1.060104 -1.382214 2.510303
1.074568 -1.382965 2.5115139
1.083649 -1.382583 2.5119939
1.041411 -1.375273 2.5103171
0.56461698 -1.362865 2.5108321
1.080974 -1.361353 2.513109
1.0615309 -1.354853 2.5146
1.111203 -1.347566 2.5115719
1.142301 -1.348851 2.513803
0.60805303 -1.340978 2.5114901
1.143681 -1.342587 2.510566
0.62691301 -1.339519 2.5125239
1.095521 -1.339079 2.510987
1.101174 -1.33451 2.5111599
0.66580403 -1.325323 2.5105181
1.091867 -1.327003 2.5144711
0.57778603 -1.321501 2.510901
0.65619099 -1.3201981 2.510318
1.096593 -1.321202 2.5124891
0.61343598 -1.316636 2.513978
0.62684298 -1.316247 2.5137179
0.62450403 -1.310465 2.512399
1.091318 -1.311744 2.5139019
0.66218299 -1.307665 2.511765
0.547975 -1.302318 2.5103159
0.57402098 -1.297949 2.5121019
0.61737901 -1.292567 2.5132749
0.52218097 -1.2880321 2.5100009
0.54920799 -1.285973 2.5112951
0.47496399 -1.270712 2.513166
0.50230598 -1.2731016 2.5130329
0.50089598 -1.268973 2.510211
0.45962301 -1.258877 2.5142441
0.46047899 -1.25931 2.514055
0.482586 -1.2593679 2.5124331
0.47461301 -1.252142 2.512193
0.50340098 -1.252483 2.510612
0.48978201 -1.24471 2.5131929
0.45588899 -1.234117 2.5109179
0.46773401 -1.231155 2.512933
0.47764999 -1.233744 2.5144939
0.499652 -1.232519 2.513932
0.455926 -1.228492 2.5134311
0.48399201 -1.22601 2.510838
0.45860001 -1.219189 2.5122991
0.469138 -1.218735 2.5106261
0.47197798 -1.2172343 2.512409
0.427912 -1.210575 2.5128801
0.452169 -1.214309 2.5142119
0.45897499 -1.210851 2.512393
0.47064501 -1.2064281 2.5104749
0.479839 -1.206329 2.514364
0.420728 -1.2009881 2.5130839
0.46645051 -1.199331 2.5144439
0.48725799 -1.195655 2.510134
0.43951499 -1.191067 2.5139
0.44951701 -1.194472 2.5114779
0.45914301 -1.1912071 2.5129361
0.49062699 -1.192202 2.5110581
0.46440899 -1.1852781 2.512007
0.47635001 -1.18637 2.510664
0.51040399 -1.187796 2.5123551
0.436014 -1.177879 2.5104721
0.454979 -1.176762 2.513288
0.457578 -1.179502 2.510354
0.483872 -1.175777 2.5121269
0.43968299 -1.171423 2.5144441
0.45931 -1.171564 2.5134799
0.48768201 -1.1721309 2.513407
0.491449 -1.172177 2.5149579
0.432475 -1.166436 2.5126019
0.46283701 -1.169937 2.5126469
0.41540301 -1.160454 2.5139439
1.015487 -1.71513 2.5175531
1.062696 -1.671976 2.517868
1.088578 -1.673151 2.518748
1.012055 -1.66962 2.516052
1.073047 -1.664077 2.5155261
1.139623 -1.6559269 2.51847
1.040875 -1.653139 2.5188811
1.064978 -1.653814 2.5187719
1.059209 -1.625742 2.5163431
1.0850641 -1.626547 2.517211
1.0601259 -1.6087869 2.5173931
1.06714 -1.6017981 2.517123
1.090526 -1.598773 2.5185349
1.165007 -1.580297 2.5189991
1.081549 -1.579942 2.5156741
1.134295 -1.577907 2.5153329
1.108453 -1.567603 2.51547
1.055274 -1.56376 2.5160129
1.1044919 -1.563735 2.51577
1.140936 -1.548141 2.5159571
1.180681 -1.542799 2.5168951
1.061897 -1.5331579 2.5198741
1.166029 -1.530441 2.5158069
1.104427 -1.497137 2.5189421
1.210008 -1.485227 2.5171461
1.160651 -1.460036 2.5186291
1.196643 -1.451573 2.5153151
1.206347 -1.436675 2.5155449
1.178882 -1.4203759 2.5179279
1.069564 -1.416482 2.515588
1.1538481 -1.418364 2.5165009
1.074232 -1.411703 2.515156
1.1616729 -1.41018 2.5154381
0.97980201 -1.409619 2.517571
1.0584151 -1.409698 2.5190101
1.033012 -1.4040281 2.5185599
1.042161 -1.401354 2.516397
1.02244 -1.390673 2.515981
1.140461 -1.392002 2.5174551
1.032843 -1.385452 2.519943
1.02841 -1.377344 2.5182171
1.035211 -1.376212 2.515811
1.071781 -1.3760411 2.5151041
1.081835 -1.377723 2.515604
1.0869859 -1.373825 2.51759
1.02934 -1.365894 2.5177529
1.058647 -1.367305 2.516402
1.053525 -1.364319 2.5176201
1.068235 -1.363606 2.5181711
1.0772099 -1.35581 2.519531
0.58758801 -1.354548 2.5190139
0.67828 -1.350705 2.519882
0.56895101 -1.347399 2.517792
1.0796061 -1.347152 2.5169439
0.63324898 -1.341917 2.517096
0.67407 -1.340506 2.5185261
0.61135101 -1.33645 2.518775
0.644701 -1.338114 2.5160589
1.07566 -1.339891 2.5184131
0.65653598 -1.334008 2.517544
1.045269 -1.331354 2.516387
0.58876997 -1.327348 2.5152309
0.60934597 -1.326759 2.516984
1.0683939 -1.329198 2.5154409
1.076134 -1.3254631 2.51985
1.136091 -1.327716 2.5194359
0.60256201 -1.322288 2.5164721
0.67354703 -1.3216799 2.5167921
0.62363601 -1.319047 2.5152669
0.667871 -1.3163559 2.5157189
1.048635 -1.318939 2.5162289
1.0732189 -1.3170069 2.5161369
1.089229 -1.318876 2.5168991
1.098166 -1.31503 2.5160141
0.563447 -1.305359 2.5192029
0.59440702 -1.3074909 2.518322
0.59683299 -1.308771 2.5166299
0.64187902 -1.306487 2.517025
0.55486399 -1.301939 2.518995
0.644584 -1.303564 2.5188091
0.59757698 -1.29607 2.518378
0.50470901 -1.293413 2.5194571
0.57288402 -1.291325 2.5174749
0.49020201 -1.285396 2.5172689
0.50811201 -1.286791 2.517694
0.51014102 -1.2873091 2.519522
0.59346801 -1.285823 2.5176251
0.50616699 -1.281124 2.5157859
0.46845701 -1.276449 2.5198281
0.49342701 -1.276932 2.5155959
0.52849197 -1.277552 2.516217
0.45264199 -1.271616 2.5153201
0.50489402 -1.2669801 2.518899
0.44323701 -1.26446 2.5168531
0.454992 -1.256326 2.51911
0.47846499 -1.257841 2.5159171
0.485149 -1.257277 2.5188301
0.49761501 -1.256824 2.517684
0.47081101 -1.251031 2.5166919
0.45436901 -1.242818 2.5197661
0.45666599 -1.243714 2.517081
0.47792301 -1.240535 2.517087
0.45753399 -1.239239 2.5164051
0.469304 -1.235099 2.5171809
0.49116701 -1.236828 2.517514
0.48441699 -1.2271169 2.518254
0.449108 -1.220611 2.51507
0.451821 -1.220641 2.5179501
0.443405 -1.2186069 2.519058
0.45458901 -1.2191679 2.518754
0.45591599 -1.215961 2.5172551
0.49003601 -1.216776 2.518472
0.46360901 -1.2115411 2.5168409
0.495902 -1.212554 2.517252
0.43479201 -1.204522 2.5161309
0.453347 -1.20313 2.5178211
0.488906 -1.1967241 2.5194311
0.42266399 -1.1927119 2.5176411
0.44844899 -1.194501 2.5175059
0.473683 -1.194069 2.5161059
0.44867399 -1.189486 2.5184929
0.45279101 -1.187287 2.5151119
0.41613501 -1.182438 2.517668
0.44424701 -1.177549 2.5164299
0.46440199 -1.1795141 2.5163169
0.468191 -1.175579 2.5184309
0.43025899 -1.170429 2.5158429
0.45908299 -1.1678129 2.517031
0.40580201 -1.674368 2.5221109
1.05452 -1.667902 2.5235059
1.030677 -1.652585 2.5240049
0.94292402 -1.641117 2.521837
0.96862501 -1.6429681 2.5238559
1.080729 -1.6221761 2.523237
1.002162 -1.606041 2.521533
1.052645 -1.607384 2.5234361
1.078447 -1.608042 2.5243609
1.053599 -1.591031 2.524652
1.196298 -1.582759 2.5227799
1.08437 -1.577821 2.5241201
1.1073869 -1.575703 2.522979
1.1399601 -1.570068 2.520421
1.074932 -1.561437 2.522824
1.073085 -1.545836 2.5231819
1.123005 -1.545542 2.523078
1.091502 -1.535143 2.5235381
1.088194 -1.527613 2.52192
1.134497 -1.528458 2.5227251
1.071418 -1.514832 2.521287
1.159629 -1.509892 2.521821
1.162065 -1.480417 2.5224681
1.203115 -1.4659491 2.524595
1.191905 -1.461457 2.5224071
1.16438 -1.451507 2.5200379
1.138177 -1.448704 2.521445
1.060251 -1.431389 2.5241981
1.160802 -1.431366 2.5200641
1.219875 -1.431742 2.5243549
1.128376 -1.429008 2.523874
0.99518698 -1.41513 2.5229549
1.0082541 -1.418698 2.5228579
1.123329 -1.418175 2.5219481
1.097273 -1.411468 2.522599
1.0671591 -1.40558 2.5221231
1.022384 -1.395063 2.5217271
1.0689189 -1.390241 2.5204589
1.063661 -1.387833 2.520993
0.98379099 -1.380836 2.5200181
1.0268331 -1.383767 2.524389
1.035925 -1.384743 2.524142
1.062619 -1.373103 2.521399
0.59157002 -1.368034 2.5236771
1.044785 -1.3582619 2.524869
1.054257 -1.356514 2.5238259
1.0667285 -1.35596 2.522485
1.059147 -1.351414 2.5243051
1.1334569 -1.3482521 2.5233171
0.60252202 -1.342788 2.520632
0.655936 -1.3439029 2.5220151
1.061901 -1.344247 2.524828
1.0715179 -1.344709 2.5249121
0.65080899 -1.33895 2.5232711
1.050644 -1.339564 2.5222249
1.089273 -1.338382 2.5235071
0.58333403 -1.334393 2.522625
0.62674201 -1.3335435 2.5220351
1.029053 -1.334749 2.5219741
1.0725861 -1.3338979 2.5234571
0.56350201 -1.328853 2.5227361
0.63902599 -1.325935 2.5211289
0.604325 -1.323069 2.5222149
0.62771499 -1.323082 2.5221159
0.60709298 -1.3162 2.52281
0.63985199 -1.318531 2.5208991
1.070347 -1.3184299 2.5237169
0.58329201 -1.310605 2.520988
0.622536 -1.314168 2.523396
0.60382903 -1.309896 2.5227821
0.51864201 -1.300916 2.5234871
0.532673 -1.296227 2.5219979
0.577775 -1.299572 2.5234821
0.51628703 -1.291882 2.5219359
0.53749299 -1.293395 2.5241909
0.55108601 -1.294681 2.5228031
0.48716101 -1.2850831 2.522624
0.45539099 -1.282505 2.5217111
0.47064701 -1.2820359 2.5237279
0.50785148 -1.282414 2.5214524
0.457629 -1.276051 2.522547
0.484826 -1.276962 2.5235994
0.47573301 -1.272001 2.520745
0.485309 -1.270348 2.5219591
0.48248899 -1.269678 2.52035
0.48614401 -1.265779 2.5212369
0.50344402 -1.263768 2.523633
0.463148 -1.259406 2.5248151
0.44735399 -1.253621 2.520117
0.48209 -1.250538 2.523164
0.438609 -1.24577 2.521472
0.50167501 -1.247169 2.5201039
0.47317499 -1.241672 2.521477
0.442067 -1.235625 2.524914
0.45086801 -1.236711 2.5230179
0.48140001 -1.237313 2.52215
0.47887099 -1.230727 2.524369
0.498456 -1.2273591 2.5213089
0.45264 -1.224249 2.521018
0.43406001 -1.219066 2.5223651
0.46399599 -1.218056 2.5221679
0.405716 -1.207407 2.5240209
0.49523801 -1.207548 2.5225151
0.43813401 -1.201685 2.5240099
0.448614 -1.204784 2.524956
0.451644 -1.199097 2.5211041
0.4689 -1.197929 2.52104
0.45184201 -1.1926 2.524137
0.45948401 -1.191926 2.52075
0.49215201 -1.19259 2.5205719
0.42957401 -1.188572 2.521616
0.448093 -1.187071 2.5233431
0.41964301 -1.183351 2.5207839
0.448699 -1.179027 2.523454
0.46777001 -1.1778769 2.5219989
0.41741601 -1.174849 2.522402
0.444729 -1.1746939 2.5208001
0.44606 -1.169368 2.5208321
0.41154301 -1.1638891 2.5222521
0.42836499 -1.6777281 2.527528
1.076721 -1.678237 2.5285189
0.400554 -1.656505 2.5268731
1.081962 -1.654646 2.525898
1.097651 -1.646708 2.5263109
0.99470699 -1.644827 2.525872
1.034398 -1.635519 2.5260839
1.082864 -1.636595 2.5259631
1.1077189 -1.637175 2.5259471
1.1329401 -1.637747 2.525903
1.059904 -1.630371 2.5260971
0.93684101 -1.622523 2.5282309
1.0605839 -1.623209 2.527281
1.108629 -1.623942 2.5253429
1.074396 -1.602818 2.5298929
1.1313421 -1.59957 2.528878
0.9957 -1.587971 2.5285161
1.020705 -1.588503 2.5295291
1.093624 -1.576242 2.529783
1.189842 -1.562032 2.528846
1.101001 -1.5561841 2.529691
1.02635 -1.55108 2.525805
1.068316 -1.542932 2.529974
1.099758 -1.507946 2.5273271
1.128058 -1.5087759 2.5294931
1.153229 -1.489343 2.5278339
1.136771 -1.480566 2.5290451
1.155571 -1.460569 2.5292931
1.2236741 -1.4628839 2.5262189
1.17019 -1.450135 2.526459
1.185449 -1.44073 2.5284729
1.0246119 -1.432784 2.526804
1.1317641 -1.434095 2.527621
1.237626 -1.429742 2.527493
1.056864 -1.41913 2.5278101
1.0188479 -1.413481 2.527185
0.98331898 -1.40714 2.5283091
1.050751 -1.402467 2.525779
1.057772 -1.403118 2.525363
1.003662 -1.396859 2.52721
1.0276639 -1.3931659 2.526392
1.035846 -1.392236 2.525084
1.063133 -1.39209 2.5271721
1.053968 -1.388564 2.529212
1.062534 -1.3836679 2.5260501
1.016196 -1.375195 2.5275409
1.04216 -1.377365 2.5287609
1.0754631 -1.370579 2.5260601
1.063605 -1.36878 2.525763
1.113147 -1.365339 2.528038
1.0455329 -1.363086 2.527854
1.05791 -1.361755 2.5299759
1.07162 -1.3634731 2.5263591
1.126024 -1.357227 2.527288
0.62604898 -1.3519239 2.527844
1.057377 -1.348932 2.528439
0.59393901 -1.342185 2.529187
0.62885201 -1.344891 2.527606
0.630849 -1.342481 2.528415
0.65460402 -1.34456 2.5255301
1.0684789 -1.34206 2.5288661
1.089645 -1.343711 2.526947
0.57888001 -1.335241 2.528774
0.63898301 -1.3397911 2.5280399
0.64928901 -1.339625 2.529717
0.66344899 -1.3387851 2.5261669
0.66922402 -1.335799 2.5254271
1.0593179 -1.335173 2.526859
0.59173399 -1.331707 2.525809
0.63038099 -1.3290009 2.527463
0.63810498 -1.329144 2.526844
1.046167 -1.327237 2.528127
1.055675 -1.329725 2.527211
1.129956 -1.326377 2.526248
0.59771198 -1.32336 2.525434
0.61370403 -1.323902 2.5264001
0.6522755 -1.3239009 2.5280635
0.64779401 -1.318397 2.525677
0.65957803 -1.31817 2.5295961
0.66575599 -1.315446 2.527467
0.579081 -1.314239 2.526237
0.535707 -1.3059289 2.525888
0.58445501 -1.305478 2.5272329
0.55797303 -1.303075 2.528585
0.57579601 -1.301404 2.5266681
0.48723599 -1.298795 2.5289121
0.56357998 -1.299796 2.526576
0.48920101 -1.284502 2.5263431
0.49332401 -1.28078 2.525255
0.514862 -1.280793 2.526834
0.46546999 -1.2784261 2.5287781
0.47588399 -1.272577 2.5259669
0.45013699 -1.266446 2.5272329
0.48382199 -1.267534 2.5278561
0.48393601 -1.264935 2.5253241
0.486233 -1.264273 2.5287111
0.45347601 -1.2563699 2.5260739
0.470406 -1.253871 2.525578
0.47712299 -1.252085 2.5254109
0.482346 -1.254949 2.5254121
0.480409 -1.2474999 2.5298641
0.43729201 -1.2427419 2.526639
0.45784 -1.242363 2.529803
0.44932199 -1.236689 2.5295999
0.459286 -1.234095 2.5274279
0.47748202 -1.2335429 2.5278192
0.43398201 -1.22708 2.5260911
0.44911501 -1.226759 2.5252881
0.44674301 -1.217097 2.526927
0.47764999 -1.2173491 2.52547
0.47493601 -1.212332 2.52882
0.47565299 -1.210916 2.525574
0.43033999 -1.199258 2.5256591
0.45835 -1.191988 2.527272
0.47352701 -1.1916776 2.528275
0.432863 -1.184762 2.5289619
0.42662001 -1.179451 2.5289531
0.44651601 -1.175135 2.529161
0.424355 -1.172622 2.527101
1.109087 -1.682236 2.5349679
0.423078 -1.659732 2.532325
1.02363 -1.655949 2.531342
1.021909 -1.649115 2.5306361
1.0495681 -1.63526 2.5320549
1.015012 -1.627694 2.534508
1.0913661 -1.626099 2.532239
1.051924 -1.618302 2.5332911
1.074389 -1.607077 2.531904
1.1022429 -1.604423 2.5320549
1.0460809 -1.589026 2.530529
1.07183 -1.589537 2.531512
0.999497 -1.573159 2.531914
1.0470721 -1.573275 2.5319109
1.129311 -1.557418 2.531877
1.048421 -1.541697 2.5347099
1.094488 -1.5430959 2.5309961
1.116322 -1.527362 2.5305099
1.127281 -1.528494 2.5323801
1.171972 -1.495451 2.5325699
1.199883 -1.495222 2.5336461
1.184418 -1.4910181 2.531692
1.146829 -1.4687949 2.5338471
1.16834 -1.447301 2.530982
1.1962219 -1.4466701 2.5320439
0.98947603 -1.424884 2.5340869
1.026943 -1.419901 2.5309789
1.147851 -1.418939 2.5306561
1.018433 -1.412522 2.5326321
1.036371 -1.4122735 2.532151
1.047858 -1.411525 2.532568
1.023362 -1.3988791 2.533087
1.05155 -1.397669 2.533113
1.014331 -1.391639 2.5316041
1.033173 -1.392242 2.53457
1.02153 -1.386881 2.534147
1.02557 -1.38573 2.531523
1.021137 -1.37541 2.5336521
1.0451699 -1.375844 2.531239
1.0568 -1.372731 2.533829
1.0509884 -1.3665299 2.5310495
0.534361 -1.360562 2.5328
1.020653 -1.363505 2.5302169
0.72044998 -1.357924 2.5348301
1.010007 -1.355328 2.533355
1.0386879 -1.355675 2.531667
1.036788 -1.3528841 2.532871
1.051825 -1.352351 2.5346861
0.58679903 -1.349512 2.532088
0.60613298 -1.3498189 2.533829
1.047684 -1.3457381 2.534225
1.058292 -1.347319 2.5310669
0.644602 -1.3437361 2.5346529
1.038337 -1.340964 2.532439
1.109005 -1.343285 2.5317061
0.56558198 -1.339861 2.532233
0.61037499 -1.337829 2.5327539
0.65591401 -1.335778 2.5333171
1.04764 -1.338009 2.5309761
1.053285 -1.339843 2.5339019
1.090089 -1.335597 2.5318129
1.100103 -1.335011 2.5330811
1.119815 -1.3360929 2.532922
0.62186098 -1.331673 2.5319409
1.035215 -1.333986 2.5345731
1.075639 -1.327487 2.5318611
0.58968103 -1.321936 2.533221
0.62783301 -1.321927 2.5308211
0.57340199 -1.3184969 2.5345311
0.58603197 -1.31576 2.531971
0.64582199 -1.319272 2.5317571
0.63251901 -1.311209 2.5320921
0.50024498 -1.305748 2.53177
0.51655 -1.309919 2.5327799
0.53817099 -1.306578 2.5336881
0.55601901 -1.3052011 2.530925
0.489034 -1.3047349 2.532825
0.513888 -1.301002 2.5347819
0.54503602 -1.3046679 2.534925
0.592902 -1.303931 2.5302351
0.49047801 -1.297904 2.533051
0.49738899 -1.2947381 2.5318301
0.46955499 -1.287977 2.531405
0.456992 -1.283713 2.532449
0.467673 -1.2842979 2.5343101
0.46951699 -1.271336 2.5317099
0.46493 -1.268893 2.532162
0.48486099 -1.262481 2.5331981
0.462836 -1.258149 2.531136
0.42348301 -1.252238 2.5324919
0.44488299 -1.250387 2.5327549
0.461705 -1.248745 2.534862
0.43400201 -1.242267 2.533103
0.460201 -1.237872 2.533493
0.47175801 -1.2344919 2.530472
0.43202099 -1.2258199 2.5315909
0.436142 -1.229763 2.53141
0.44325301 -1.219604 2.532546
0.44516799 -1.217008 2.5331271
0.42015201 -1.19609 2.534517
0.442619 -1.197482 2.5308349
0.454577 -1.192638 2.531311
0.403658 -1.181929 2.5337999
0.423814 -1.179876 2.5346129
0.44756201 -1.706023 2.537225
0.97494102 -1.705019 2.538969
0.95071 -1.70362 2.5379369
0.441439 -1.6923 2.536988
0.41471601 -1.672035 2.53774
0.99610299 -1.660919 2.5385001
0.422102 -1.643725 2.53756
1.017442 -1.6360821 2.5371561
1.015729 -1.628853 2.536464
0.99267101 -1.61541 2.536999
1.095858 -1.584904 2.5387671
1.065214 -1.571032 2.538662
1.064818 -1.555426 2.5392051
1.087339 -1.555634 2.5357111
1.114606 -1.555284 2.539356
1.094615 -1.536665 2.5364029
1.122872 -1.5377361 2.538645
1.061699 -1.5244271 2.5371251
1.135042 -1.5087121 2.537961
1.110819 -1.477107 2.5377679
1.137747 -1.476719 2.538846
1.130035 -1.46224 2.5365369
1.155846 -1.4614069 2.5365789
1.12322 -1.457418 2.535882
1.149078 -1.440721 2.536118
1.0803 -1.433607 2.5374391
0.98576403 -1.4278049 2.5398409
1.008186 -1.429266 2.5376711
1.134145 -1.428965 2.537271
1.058032 -1.420573 2.5361731
1.085744 -1.420669 2.5383871
1.21065 -1.42107 2.538455
1.01552 -1.417333 2.5374229
1.050148 -1.419288 2.535033
1.1250269 -1.415769 2.5351131
0.99770099 -1.401329 2.538379
1.002772 -1.402832 2.537518
1.009019 -1.403532 2.5364411
0.955266 -1.391875 2.5364871
0.97701502 -1.390231 2.5357101
1.012254 -1.39226 2.53846
1.0301909 -1.394281 2.539983
1.035639 -1.392091 2.5355711
1.043233 -1.389612 2.536494
1.01978 -1.377858 2.5351939
1.046237 -1.376207 2.5384171
1.092985 -1.370635 2.5371161
1.044538 -1.3661079 2.5396631
1.0508471 -1.3641731 2.535172
0.60888499 -1.357661 2.538656
0.61567098 -1.35267 2.5395379
0.63015997 -1.350322 2.5383329
0.57652801 -1.347921 2.539598
1.044868 -1.349174 2.5381839
0.65302402 -1.340676 2.5353179
1.014474 -1.343243 2.5360451
1.07122 -1.34339 2.5398591
0.583359 -1.339975 2.539458
1.003819 -1.3354599 2.5391691
0.58198899 -1.330084 2.5368891
0.600564 -1.331557 2.5390821
0.62588799 -1.323099 2.536047
0.64073002 -1.323121 2.5380809
0.51710701 -1.315689 2.5360179
0.543769 -1.317657 2.5395131
0.56132799 -1.319707 2.5358441
0.57519799 -1.318558 2.5386281
0.65032601 -1.319908 2.5377331
0.51741701 -1.3114365 2.539114
0.53624201 -1.308997 2.535181
0.46976399 -1.304177 2.538368
0.524468 -1.304327 2.5353689
0.52684402 -1.3020356 2.536783
0.541188 -1.304383 2.538352
0.45694801 -1.2965111 2.5382149
0.45827901 -1.288744 2.5385931
0.478441 -1.2875299 2.536972
0.496465 -1.285625 2.5351169
0.44643301 -1.2720375 2.538918
0.448645 -1.266866 2.535265
0.451684 -1.26667 2.537437
0.47730201 -1.2673219 2.5379381
0.49746299 -1.266109 2.5363171
0.44332501 -1.261349 2.536859
0.46495801 -1.264552 2.535167
0.46446499 -1.25946 2.5376289
0.44489601 -1.246902 2.5385859
0.476163 -1.247115 2.538904
0.42820799 -1.242757 2.536396
0.44069099 -1.2410721 2.539217
0.46295899 -1.244561 2.53598
0.41885599 -1.233548 2.537111
0.43963 -1.234329 2.5382769
0.45737401 -1.231233 2.5360961
0.44105801 -1.22664 2.5387609
0.47502401 -1.226907 2.539871
0.429878 -1.222652 2.5370121
0.45756701 -1.217595 2.535851
0.46639299 -1.216899 2.535532
0.432116 -1.210299 2.535347
0.45396101 -1.2112 2.5381041
0.42675099 -1.2088979 2.5365429
0.45896101 -1.2045799 2.5376041
0.477328 -1.203584 2.535815
0.44101501 -1.197327 2.536654
0.40851101 -1.184208 2.537107
0.456963 -1.184589 2.5384159
0.99953502 -1.706429 2.5400009
1.079488 -1.691564 2.543376
1.104316 -1.692579 2.543498
0.44286299 -1.687045 2.5419159
0.436113 -1.674835 2.542012
1.082822 -1.655347 2.5406229
1.046428 -1.638911 2.5409341
1.035675 -1.610299 2.543313
1.0091655 -1.6086195 2.5416741
1.116385 -1.608284 2.5433149
1.045396 -1.600546 2.54055
0.92916602 -1.599228 2.5402081
1.076907 -1.5927711 2.5416379
1.078796 -1.584882 2.544095
1.0411839 -1.5702699 2.543685
1.1759 -1.5708669 2.5441949
1.062078 -1.565174 2.5430729
1.144784 -1.568507 2.54023
1.118663 -1.557995 2.540837
1.024264 -1.5414211 2.542114
1.071619 -1.5235519 2.5444119
1.0882289 -1.517146 2.5431149
1.139406 -1.4981019 2.543052
1.114602 -1.486919 2.5443389
1.1929899 -1.475944 2.541095
1.171506 -1.449564 2.543823
1.123298 -1.443915 2.544029
1.039495 -1.426558 2.5404639
1.103579 -1.426603 2.54198
0.994726 -1.421011 2.5427821
0.97660351 -1.4177539 2.5431845
1.0285569 -1.41747 2.5430131
1.043819 -1.412078 2.541832
1.048053 -1.4127131 2.5411999
0.98218298 -1.4067841 2.541949
1.067337 -1.4053169 2.5440481
0.995709 -1.403941 2.542218
1.01763 -1.402576 2.5420814
1.0245039 -1.401287 2.5406139
0.98860198 -1.3987989 2.5423889
0.99581802 -1.397827 2.5432639
1.002831 -1.383664 2.5422549
0.97071099 -1.3733211 2.5431111
1.006075 -1.371998 2.5442879
1.029536 -1.3713191 2.5411079
1.015131 -1.369715 2.541661
1.038231 -1.3677859 2.5406709
1.1097471 -1.365604 2.5407741
1.0969501 -1.363569 2.5419109
0.57107598 -1.356236 2.5435431
1.0146101 -1.357654 2.540911
1.03868 -1.3560129 2.5409589
1.068342 -1.356301 2.54091
0.67011499 -1.351434 2.5408061
1.050467 -1.353372 2.5404861
1.063186 -1.3543741 2.5410621
0.62575501 -1.3486871 2.543139
1.088843 -1.348582 2.5407829
0.60469598 -1.33741 2.542753
0.621889 -1.3373851 2.541302
1.032691 -1.335776 2.542964
1.003261 -1.3310831 2.5412059
0.57226998 -1.327672 2.543633
0.52966398 -1.316651 2.540483
0.59765202 -1.318701 2.5419669
0.48184699 -1.310581 2.5400529
0.57717901 -1.310655 2.5416901
0.47640899 -1.305144 2.5447061
0.47438899 -1.302513 2.5434
0.48277801 -1.3022034 2.5444646
0.49422199 -1.3042279 2.5405519
0.50111997 -1.3018481 2.5432379
0.56039101 -1.3033201 2.543237
0.49412599 -1.299119 2.5403161
0.44780701 -1.286373 2.5438819
0.47114599 -1.282548 2.5446141
0.45289001 -1.276894 2.5421829
0.44065201 -1.274016 2.5402219
0.44333649 -1.2518485 2.5414524
0.45909899 -1.2418669 2.54269
0.439473 -1.232555 2.544399
0.441006 -1.230764 2.5435729
0.454862 -1.228121 2.541492
0.42291999 -1.224762 2.541193
0.42783299 -1.222348 2.5425079
0.43805701 -1.220795 2.541574
0.434376 -1.2182699 2.5437989
0.43433899 -1.2149661 2.5423269
0.45372301 -1.207913 2.5424581
0.45525399 -1.2084481 2.540261
0.425753 -1.203038 2.54092
0.43542299 -1.200518 2.543932
0.42148 -1.191975 2.5414951
0.430926 -1.194932 2.5443349
0.45054701 -1.191166 2.540112
0.43706 -1.186659 2.540386
0.45230651 -1.1880031 2.5431924
0.41493401 -1.18014 2.5400021
0.42162901 -1.183423 2.5448279
0.43394899 -1.182456 2.54129
0.43220201 -1.712592 2.5484159
0.428873 -1.699621 2.5491171
0.46733201 -1.691767 2.5488801
0.40351999 -1.688905 2.54615
0.96853 -1.687089 2.545897
0.993074 -1.688359 2.546983
1.0180579 -1.689685 2.5481429
0.36470199 -1.684568 2.545702
0.40224001 -1.6793031 2.549782
0.430787 -1.657369 2.5470359
1.0368969 -1.657751 2.545639
1.064194 -1.659785 2.5478959
0.40393099 -1.648869 2.548604
0.975685 -1.641703 2.5480411
0.98964202 -1.642849 2.5454819
1.014599 -1.643816 2.5466299
1.0399261 -1.644779 2.547766
1.003763 -1.6366709 2.549912
0.97736698 -1.63484 2.5476489
1.043721 -1.627817 2.54919
1.062961 -1.611943 2.5455511
0.97616398 -1.588149 2.545361
0.99141997 -1.5825289 2.54757
1.038869 -1.58279 2.5478101
0.95530802 -1.5788471 2.5498459
1.070614 -1.5725681 2.54755
1.0894721 -1.565385 2.5454791
1.094316 -1.568187 2.549649
1.150506 -1.560379 2.54602
1.0349441 -1.550236 2.549547
1.058597 -1.552527 2.5458119
1.138384 -1.547958 2.546243
1.055922 -1.544222 2.5486579
1.107923 -1.537104 2.546788
1.112324 -1.537208 2.5468171
1.101552 -1.5254689 2.5483091
1.098174 -1.5175411 2.547431
1.107666 -1.5056649 2.546597
1.128306 -1.490386 2.5454531
1.14641 -1.488683 2.549552
1.095961 -1.4812011 2.5498509
1.133006 -1.477553 2.5490651
1.130967 -1.457757 2.5461731
1.1583 -1.457214 2.547344
1.148708 -1.437956 2.5470531
0.93573898 -1.430747 2.549721
1.0306979 -1.43299 2.5491869
1.0194449 -1.429538 2.549542
1.134028 -1.4276969 2.5458741
1.003854 -1.421016 2.5467031
1.034182 -1.4050961 2.545768
1.057924 -1.409194 2.547152
1.019641 -1.400324 2.548826
1.015928 -1.395249 2.547235
1.0239331 -1.395557 2.5469401
0.989232 -1.386322 2.5494211
1.012935 -1.384925 2.5495501
1.018223 -1.382086 2.5472169
1.045366 -1.381856 2.5494871
1.023954 -1.37767 2.5477281
1.045374 -1.375519 2.5463409
0.57887101 -1.369171 2.5484829
0.62415302 -1.367376 2.5491741
0.99664301 -1.363796 2.548069
0.59299397 -1.357474 2.5465109
0.59620398 -1.356725 2.5465419
1.084676 -1.358704 2.549839
0.69641399 -1.352483 2.5467911
1.031404 -1.350575 2.548492
1.068681 -1.353878 2.549861
0.61305797 -1.347232 2.5470431
1.037922 -1.347603 2.546813
0.59122199 -1.3440911 2.549942
1.0902261 -1.344762 2.5491779
1.103538 -1.34447 2.546407
0.566266 -1.336807 2.5483439
0.59289998 -1.3360879 2.5493071
1.008083 -1.339898 2.548171
1.032102 -1.338118 2.548275
1.056555 -1.336338 2.5484359
0.54240346 -1.3255196 2.5468569
0.56351203 -1.32639 2.548074
0.61035901 -1.326463 2.549458
0.62188298 -1.328072 2.546567
0.57765698 -1.324028 2.545619
0.47876599 -1.317086 2.5489969
0.53584301 -1.315493 2.545995
0.55627698 -1.319739 2.5489831
0.562751 -1.318068 2.549619
0.62045401 -1.318853 2.5453751
0.47941801 -1.31241 2.545994
0.51815802 -1.311035 2.5498309
0.52391601 -1.310073 2.5486801
0.474556 -1.307453 2.5463209
0.49269599 -1.308175 2.5466559
0.51406503 -1.308241 2.5499849
0.54056799 -1.306571 2.549052
0.45510399 -1.296875 2.5495911
0.465799 -1.2994469 2.5480089
0.474985 -1.297591 2.5492871
0.482602 -1.2994241 2.546634
0.49324799 -1.296397 2.545717
0.46040201 -1.282393 2.5473011
0.47923201 -1.284445 2.549237
0.43686 -1.278922 2.5457461
0.44651699 -1.2701271 2.548414
0.44248 -1.268243 2.5487151
0.45180601 -1.266835 2.5498469
0.46008399 -1.2621551 2.548259
0.467902 -1.262584 2.5458291
0.48028401 -1.261764 2.5467069
0.43539801 -1.257957 2.5457439
0.44883299 -1.257277 2.5461509
0.459766 -1.241918 2.549217
0.45373401 -1.224274 2.54775
0.46141499 -1.222654 2.5482581
0.41536701 -1.2161109 2.5490749
0.43714249 -1.2114705 2.5465202
0.417633 -1.206766 2.54599
0.41073099 -1.203609 2.5474181
0.42368001 -1.202667 2.5460351
0.45817101 -1.20269 2.5494721
0.409601 -1.196167 2.546349
0.41159201 -1.196349 2.5496759
0.41226199 -1.190133 2.5466671
0.43302199 -1.192258 2.549798
0.43506899 -1.190304 2.5483091
0.432423 -1.1889189 2.5450461
0.41952601 -1.182986 2.549562
1.102614 -1.720281 2.552274
0.38951099 -1.690556 2.5548871
0.400646 -1.691993 2.550493
0.42750299 -1.6936131 2.5531061
0.431835 -1.690975 2.5539379
0.392905 -1.674457 2.554538
0.46259701 -1.672641 2.553607
0.426658 -1.6520751 2.5542769
1.05786 -1.640426 2.5545521
0.36806899 -1.639002 2.550554
0.983181 -1.624779 2.552464
0.94168198 -1.619369 2.5500109
0.94529098 -1.614318 2.5519049
1.056628 -1.592584 2.5522079
1.0843281 -1.5941041 2.554554
1.029875 -1.580186 2.553335
1.055495 -1.580626 2.5544989
0.96184701 -1.565044 2.5545349
1.072511 -1.564273 2.5500231
1.169444 -1.55014 2.550261
1.083086 -1.545866 2.5521901
1.05198 -1.534022 2.5529621
1.07627 -1.519291 2.5540421
1.10124 -1.518924 2.5542209
1.105985 -1.51642 2.5527959
1.126577 -1.518532 2.554369
1.109993 -1.498372 2.552181
1.138618 -1.4991291 2.554575
1.100942 -1.486858 2.553864
1.121569 -1.472061 2.5529449
1.040791 -1.435367 2.551646
0.98781699 -1.430698 2.553354
1.060039 -1.434131 2.553098
1.041882 -1.428877 2.5510559
1.046598 -1.429698 2.551831
1.116562 -1.425589 2.5515211
1.009256 -1.4234149 2.553458
0.98645198 -1.410307 2.5537839
0.995655 -1.4119999 2.5511539
1.037289 -1.413492 2.5545759
1.069345 -1.405804 2.550925
0.94853902 -1.4012001 2.552063
0.997675 -1.400754 2.552532
1.056803 -1.403281 2.551604
1.028868 -1.383635 2.5510709
1.066509 -1.383976 2.553463
1.009364 -1.376891 2.554328
1.013538 -1.379552 2.5543621
0.64007503 -1.3733521 2.5521269
1.019308 -1.3736449 2.5508659
0.576738 -1.360779 2.553546
0.618352 -1.355341 2.55388
1.039091 -1.358784 2.5541439
0.53899598 -1.35142 2.5538039
0.55911702 -1.353657 2.550009
0.60690802 -1.3536381 2.551625
0.63657898 -1.352836 2.554184
0.99989599 -1.351737 2.550117
1.055084 -1.3516949 2.5532279
0.574983 -1.348243 2.5531061
0.58753097 -1.343147 2.553565
0.613976 -1.344434 2.5534091
0.58742499 -1.3392119 2.551764
0.52948499 -1.325008 2.551348
0.56331098 -1.32609 2.5517149
0.49518201 -1.320285 2.5502939
0.51277202 -1.322297 2.5511229
0.54285902 -1.321488 2.552727
0.55837399 -1.320673 2.5524061
0.56145602 -1.317379 2.5531459
0.45967099 -1.2952909 2.5516829
0.452236 -1.29024 2.554466
0.44810501 -1.289722 2.551378
0.443919 -1.2698849 2.5549331
0.466591 -1.259809 2.5540221
0.44492099 -1.246013 2.550127
0.44644099 -1.2492419 2.554908
0.43014401 -1.2418979 2.551266
0.422894 -1.231733 2.550123
0.42728999 -1.22849 2.5530081
0.45944801 -1.22168 2.5501759
0.41914499 -1.211768 2.553443
0.40888801 -1.208594 2.5510049
0.42746001 -1.208546 2.55356
0.448369 -1.206681 2.5528109
0.43893 -1.201833 2.552686
0.41542399 -1.193779 2.5533719
0.40476301 -1.188979 2.554914
0.40551299 -1.187659 2.552902
0.42138299 -1.189777 2.5534191
0.41327801 -1.183441 2.5520129
0.416843 -1.71916 2.5596061
1.040336 -1.71889 2.55791
0.47255999 -1.705772 2.558053
0.39505199 -1.7039109 2.5568371
1.046898 -1.700116 2.5592079
0.38827801 -1.695423 2.557255
0.38535401 -1.670786 2.558826
0.39535901 -1.673997 2.55529
0.427645 -1.671048 2.557909
0.43909001 -1.673058 2.556097
0.41822001 -1.664691 2.559165
1.018119 -1.654403 2.557636
1.0855711 -1.642343 2.5569179
0.42013401 -1.622439 2.5570829
1.037194 -1.610061 2.5564489
0.97671998 -1.606709 2.5594471
1.0133049 -1.609723 2.556267
1.0633169 -1.601382 2.5565989
1.063967 -1.593521 2.558408
1.032342 -1.565034 2.555069
1.056551 -1.565016 2.555228
0.948897 -1.560917 2.5567739
0.973288 -1.5612 2.557945
0.998115 -1.56152 2.5591919
1.0580291 -1.532163 2.5593741
1.0767 -1.526347 2.558902
1.162989 -1.529413 2.5563259
1.099645 -1.495633 2.5587749
1.182865 -1.48594 2.5575941
1.042852 -1.465894 2.5587959
1.157564 -1.4583991 2.5591719
0.92944801 -1.437873 2.5579851
0.93261802 -1.433902 2.556664
1.040783 -1.430631 2.557014
0.96976501 -1.425929 2.5596941
1.038334 -1.422308 2.5570381
1.016813 -1.412524 2.5584221
1.004632 -1.401502 2.557385
1.024457 -1.40382 2.555825
0.98946601 -1.392132 2.556968
1.033787 -1.3916169 2.557507
1.045506 -1.387421 2.559624
0.963934 -1.3827159 2.5588031
0.99149603 -1.380492 2.5583601
1.0413409 -1.38076 2.5582819
1.008251 -1.379253 2.557591
1.03482 -1.375703 2.555501
1.006407 -1.367169 2.5568099
1.026878 -1.366658 2.558208
1.017717 -1.361059 2.5554731
1.054752 -1.364912 2.555872
0.59823 -1.358901 2.5590661
0.616485 -1.356693 2.5585079
1.007435 -1.35878 2.5598991
0.53489399 -1.350883 2.5561211
0.55801398 -1.35116 2.557745
0.57946402 -1.350606 2.5579031
0.55054301 -1.343531 2.5597999
0.573434 -1.340142 2.5563109
0.63708001 -1.344787 2.5569401
0.51380801 -1.335325 2.557507
0.52582401 -1.3306431 2.555058
0.533557 -1.334795 2.55952
0.55045098 -1.3335789 2.558147
0.56928098 -1.332296 2.559268
0.60303599 -1.333023 2.555053
0.61531198 -1.334621 2.5563059
0.50449598 -1.322709 2.5596969
0.52024299 -1.3221641 2.5573599
0.58185601 -1.320951 2.5570171
0.50664502 -1.315763 2.5590079
0.45590001 -1.30089 2.5563335
0.44451299 -1.291803 2.5570049
0.46206701 -1.2779191 2.5596361
0.432206 -1.262835 2.5566239
0.43491101 -1.256892 2.5550461
0.448037 -1.25554 2.557786
0.43973199 -1.250049 2.5584869
0.419469 -1.232029 2.555501
0.44107601 -1.231649 2.5599689
0.42489001 -1.225839 2.556788
0.44400799 -1.215248 2.559423
0.40219101 -1.188326 2.558943
0.41630599 -1.706943 2.5612471
0.41470101 -1.69662 2.564184
0.959113 -1.696385 2.5612431
0.418053 -1.680359 2.563087
0.37674299 -1.676046 2.561058
0.420546 -1.677929 2.5644469
0.44711801 -1.67926 2.5648839
1.025715 -1.676023 2.564744
0.99690098 -1.672886 2.5607691
1.022707 -1.669341 2.563977
0.39007199 -1.656002 2.560086
0.423455 -1.651121 2.5618801
0.41289401 -1.647226 2.564189
0.426633 -1.635214 2.5605299
1.011642 -1.636784 2.5648389
1.026711 -1.627416 2.5616331
0.441746 -1.624918 2.561563
1.001575 -1.607389 2.5607049
0.41480801 -1.604974 2.5621071
0.96500498 -1.597054 2.560642
1.077943 -1.574585 2.5612659
1.023311 -1.561828 2.5604279
1.021468 -1.558776 2.564384
1.025815 -1.547278 2.5623291
1.049973 -1.547121 2.5625441
1.098446 -1.5463846 2.5621595
1.045364 -1.515517 2.560112
1.022465 -1.510169 2.5612719
1.045083 -1.5017411 2.5611529
1.069639 -1.501255 2.5614159
1.094557 -1.500744 2.5616541
1.11984 -1.5002069 2.561862
1.08886 -1.48472 2.5602331
1.1611741 -1.4798779 2.563885
1.121008 -1.467589 2.5624011
1.008906 -1.452958 2.561507
1.08959 -1.4546421 2.560241
1.114833 -1.453735 2.560437
1.030176 -1.434521 2.56071
1.046387 -1.42821 2.562655
1.016655 -1.4177901 2.562001
0.95652997 -1.406601 2.560425
1.0235389 -1.406063 2.5611579
1.036641 -1.408577 2.5606811
1.006287 -1.404767 2.562947
1.013153 -1.395915 2.5649309
0.98022097 -1.391261 2.560333
1.0083055 -1.3914876 2.5616488
1.0115 -1.391062 2.563725
1.0182199 -1.3872091 2.5635691
1.000008 -1.37959 2.561311
0.98327798 -1.372265 2.562783
1.0061181 -1.370643 2.562676
1.030285 -1.369742 2.5604379
1.042671 -1.365594 2.5621619
0.59639102 -1.36055 2.5628331
0.98531699 -1.36023 2.564188
1.024472 -1.360185 2.5645449
0.58806098 -1.3585891 2.5601101
1.028203 -1.357198 2.5626509
1.038173 -1.359167 2.5608089
0.556687 -1.3543659 2.5618081
0.579247 -1.351679 2.5631261
0.94892001 -1.351951 2.564631
0.57232547 -1.3478761 2.5644116
0.99988002 -1.349413 2.564069
1.026783 -1.347867 2.563369
0.59289598 -1.340034 2.564889
1.039835 -1.343766 2.5646999
0.584189 -1.337974 2.563539
0.59518999 -1.338181 2.561491
0.61299002 -1.336177 2.560565
0.51520199 -1.332359 2.5631821
0.52943099 -1.333341 2.561254
0.55362201 -1.334282 2.5616169
0.49588001 -1.327943 2.561763
0.50281399 -1.325704 2.563828
0.54533398 -1.32827 2.5649929
0.50505602 -1.322558 2.564091
0.45921701 -1.298417 2.563935
0.466479 -1.2918741 2.5615449
0.439147 -1.27421 2.5620661
0.42536101 -1.255957 2.5625179
0.44060001 -1.258777 2.5622439
0.46091899 -1.257553 2.5606101
0.42726001 -1.252589 2.5649879
0.42814901 -1.2432179 2.5605929
0.44337401 -1.243413 2.560302
0.42960301 -1.239849 2.5600331
0.43945199 -1.2384109 2.5632181
0.42409101 -1.223601 2.5645609
0.43830401 -1.218045 2.5641921
0.41414201 -1.214564 2.5605249
0.95610702 -1.723612 2.5696599
0.46980399 -1.702757 2.5678461
0.38149899 -1.6811301 2.566772
0.40744501 -1.6812021 2.5689869
1.0403709 -1.6823601 2.566468
0.42209399 -1.670625 2.56738
0.46175 -1.670325 2.568249
0.43445301 -1.649886 2.5687201
1.016476 -1.6489069 2.569854
1.035519 -1.637332 2.565088
1.05602 -1.630196 2.565649
1.085819 -1.633018 2.569726
0.40756801 -1.62976 2.5692129
1.074181 -1.6272089 2.5653541
1.055424 -1.622769 2.566792
0.43638101 -1.607325 2.566623
1.020472 -1.6073821 2.5674951
1.018052 -1.600148 2.5654459
1.045194 -1.601709 2.5678661
1.018715 -1.599473 2.5674191
0.99506199 -1.5891761 2.5677421
1.020234 -1.589705 2.569047
0.95882398 -1.578162 2.5671389
1.071557 -1.555066 2.5679779
0.99160302 -1.5433069 2.5662291
1.03363 -1.531574 2.567611
1.098368 -1.5076489 2.5681
0.99719799 -1.494576 2.568347
1.019611 -1.493696 2.567817
1.0423681 -1.492802 2.5672779
1.0654711 -1.491891 2.566725
1.088921 -1.490961 2.566153
1.063009 -1.483218 2.56879
1.0878741 -1.482564 2.569087
1.113104 -1.481881 2.5693541
1.082514 -1.4643461 2.566195
1.090762 -1.451369 2.568372
0.92634898 -1.446313 2.567116
0.95467198 -1.446185 2.5697041
1.087492 -1.449244 2.568398
1.114228 -1.448627 2.5697269
0.97543198 -1.4421999 2.5652361
0.99952197 -1.4439631 2.566494
1.004758 -1.441412 2.5657721
0.94538498 -1.43672 2.569593
0.99374902 -1.437562 2.569797
1.0086385 -1.4382775 2.5659714
0.97182101 -1.4210041 2.5673611
0.98229003 -1.420468 2.5658679
0.99602002 -1.422088 2.5694251
1.006337 -1.416139 2.5694089
1.016479 -1.413874 2.5697589
0.983096 -1.409248 2.5666029
0.985331 -1.407447 2.5678301
1.00257 -1.409772 2.5665619
0.96820998 -1.399808 2.5694859
0.98109299 -1.395764 2.565197
0.98896998 -1.395823 2.5650179
1.0245039 -1.390866 2.5657849
