# .PCD v0.7 - Point Cloud Data file format
VERSION 0.7
FIELDS x y z
SIZE 4 4 4
TYPE F F F
COUNT 1 1 1
WIDTH 172
HEIGHT 1
VIEWPOINT 0 0 0 1 0 0 0
POINTS 172
DATA ascii
-1.23587 -1.06672 2.859834
-1.244123 -1.07637 2.8724289
-1.18823 -1.093863 2.8845561
-1.237705 -1.081624 2.8893559
-1.231968 -1.080373 2.892113
-1.187589 -1.095081 2.900903
-1.175513 -1.0980231 2.904448
-1.2576669 -1.0938801 2.9040749
-1.235327 -1.094421 2.904109
-1.231475 -1.094766 2.9030571
-1.209532 -1.094924 2.9019799
-1.21262 -1.107203 2.9074371
-1.237735 -1.101127 2.912534
-1.216994 -1.098664 2.9104066
-1.261652 -1.09287 2.9114549
-1.239307 -1.093084 2.9116349
-1.223462 -1.10431 2.9293239
-1.2005351 -1.116784 2.931988
-1.189894 -1.119846 2.9326739
-1.22348 -1.111747 2.9330001
-1.202691 -1.107242 2.933969
-1.205073 -1.103614 2.932353
-1.183508 -1.101371 2.9302189
-1.2276779 -1.125246 2.9367931
-1.20514 -1.1254621 2.936975
-1.184527 -1.135648 2.9490919
-1.166804 -1.131093 2.9473071
-1.1843359 -1.1133111 2.9497111
-1.189193 -1.13763 2.9544749
-1.165784 -1.1357419 2.954684
-1.189629 -1.1316561 2.954159
-1.154403 -1.128064 2.9545381
-1.211373 -1.114355 2.954936
-1.188995 -1.1439151 2.9584
-1.166455 -1.1439151 2.9584
-1.188018 -1.13708 2.9564719
-1.188269 -1.1265579 2.9570329
-1.17668 -1.128495 2.95625
-1.211535 -1.121374 2.9584
-1.188995 -1.121374 2.9584
-1.166455 -1.121374 2.9584
-1.1185991 -1.160077 2.9645259
-1.192878 -1.135435 2.9627719
-1.170143 -1.135653 2.962955
-1.153603 -1.135666 2.9682209
-1.122095 -1.1395611 2.966583
-1.151987 -1.15789 2.9741559
-1.171626 -1.145295 2.9736309
-1.149114 -1.145457 2.9725261
-1.150689 -1.166109 2.977633
-1.173919 -1.160171 2.976326
-1.128261 -1.164759 2.9758289
-1.140437 -1.1593961 2.97751
-1.176121 -1.138142 2.977221
-1.154189 -1.135861 2.9750509
-1.1407911 -1.136884 2.9785769
-1.176079 -1.159217 2.982141
-1.153348 -1.159519 2.981734
-1.1156861 -1.15799 2.984921
-1.175771 -1.136485 2.9824719
-1.136732 -1.16161 2.988209
-1.140191 -1.140322 2.9895041
-1.119145 -1.1367019 2.9862161
-1.157778 -1.165229 2.9914961
-1.067583 -1.185307 2.9974129
-1.1380351 -1.164649 2.9975669
-1.140256 -1.142432 2.9984691
-1.0880049 -1.189227 3.0018079
-1.091557 -1.168376 3.0038979
-1.160495 -1.153003 3.0049241
-1.137872 -1.151641 3.0031049
-1.108427 -1.1931469 3.0062029
-1.098361 -1.184342 3.0052259
-1.111979 -1.172296 3.0082929
-1.101848 -1.162876 3.006532
-1.115532 -1.151446 3.0103841
-1.123863 -1.171551 3.0214529
-1.077688 -1.17261 3.024014
-1.101859 -1.15554 3.0305519
-1.061306 -1.213235 3.0441501
-1.1071711 -1.2011631 3.0447941
-1.059983 -1.1981159 3.0423601
-1.063594 -1.1769201 3.0444851
-1.06637 -1.216554 3.0481911
-1.069917 -1.194723 3.0495191
-1.064371 -1.192345 3.0465961
-1.067436 -1.171456 3.049041
-1.087952 -1.220265 3.051563
-1.091499 -1.198434 3.052891
-1.095046 -1.176604 3.054219
-1.023463 -1.2354389 3.055959
-1.043916 -1.239056 3.0612299
-1.041985 -1.224053 3.061024
-1.047006 -1.217996 3.0636959
-1.0481679 -1.244074 3.06953
-1.026401 -1.24033 3.0661299
-1.029978 -1.218313 3.0674689
-1.050096 -1.1969351 3.0661609
-1.033555 -1.196295 3.068809
-1.0531861 -1.175874 3.0686271
-1.0517451 -1.222056 3.0708699
-1.0553221 -1.200038 3.0722089
-1.0589 -1.17802 3.073549
-1.008736 -1.240431 3.0757871
-1.0806659 -1.181764 3.0769489
-1.032474 -1.2228431 3.0835869
-1.011323 -1.246111 3.089232
-1.052138 -1.211373 3.0888669
-1.0355901 -1.2016079 3.0860729
-0.99062401 -1.266923 3.093451
-1.002182 -1.2671 3.0950091
-1.004925 -1.24599 3.0974629
-1.008773 -1.255509 3.1014731
-1.017702 -1.2277761 3.1038229
-1.01041 -1.20377 3.1023719
-1.030062 -1.259596 3.106055
-1.033765 -1.23786 3.1082339
-1.020844 -1.206363 3.1063299
-0.98716599 -1.272588 3.1144259
-1.037469 -1.216123 3.1104131
-1.021757 -1.233384 3.1175151
-1.025396 -1.210981 3.1188779
-0.98986602 -1.282594 3.121093
-0.99360102 -1.260672 3.123291
-0.99951297 -1.254385 3.1218729
-0.948461 -1.296247 3.1256261
-0.95125002 -1.274784 3.1281209
-0.99733597 -1.238749 3.125488
-1.013177 -1.233377 3.1253841
-1.001071 -1.216827 3.127686
-1.00585 -1.211198 3.1269281
-0.96911299 -1.299634 3.1316841
-0.971901 -1.2781709 3.1341801
-1.018808 -1.242871 3.1301091
-1.022543 -1.220948 3.1323071
-0.97468901 -1.256708 3.1366749
-0.97747803 -1.235245 3.1391699
-0.981013 -1.281442 3.140219
-0.995341 -1.260095 3.1427331
-0.99812901 -1.238632 3.1452291
-1.008551 -1.24163 3.1507671
-0.962192 -1.308956 3.1588581
-0.944085 -1.2832201 3.1559319
-0.95919102 -1.262205 3.1567831
-0.94730699 -1.2612571 3.1585031
-0.96200299 -1.240561 3.1592989
-0.96541399 -1.286993 3.1614289
-0.93492001 -1.333274 3.1696091
-0.962488 -1.271302 3.16817
-0.98996502 -1.268803 3.169497
-0.97185898 -1.243067 3.1665709
-0.937756 -1.311447 3.172147
-0.98053402 -1.297801 3.170635
-0.94059098 -1.289619 3.174685
-0.98433399 -1.275496 3.1728711
-0.99318802 -1.24684 3.1720681
-0.96628797 -1.248997 3.1704061
-0.94305998 -1.336972 3.1778929
-0.98813403 -1.253191 3.175107
-0.94630998 -1.314819 3.1804869
-0.95606101 -1.248359 3.188267
-0.918809 -1.33951 3.1903119
-0.92166901 -1.317495 3.1928711
-0.97432399 -1.274318 3.1912179
-0.92686301 -1.343114 3.199831
-0.92452902 -1.295481 3.195431
-0.92738903 -1.273466 3.1979899
-0.93014199 -1.320767 3.2024469
-0.94857103 -1.2769409 3.204205
-0.93342102 -1.298421 3.2050631
-0.93669897 -1.2760741 3.207679
-0.95143098 -1.254926 3.206764
