# .PCD v0.7 - Point Cloud Data file format
VERSION 0.7
FIELDS x y z
SIZE 4 4 4
TYPE F F F
COUNT 1 1 1
WIDTH 852
HEIGHT 1
VIEWPOINT 0 0 0 1 0 0 0
POINTS 852
DATA ascii
-0.31664699 -0.10548 1.0746289
-0.31444198 -0.10798 1.0744095
-0.3038035 -0.107941 1.0729079
-0.29728523 -0.1074448 1.0733209
-0.29188466 -0.108392 1.0737209
-0.28729868 -0.10831966 1.0732647
-0.28350899 -0.10929033 1.073836
-0.30165201 -0.1036975 1.0743129
-0.29351252 -0.10327651 1.0739125
-0.28956699 -0.103991 1.074612
-0.304905 -0.110394 1.077329
-0.28390199 -0.110693 1.077252
-0.267584 -0.112248 1.07877
-0.32023501 -0.109656 1.079389
-0.31709734 -0.10792533 1.0777465
-0.31229335 -0.10769667 1.0775141
-0.30686483 -0.10758216 1.0768694
-0.30277142 -0.106842 1.0767578
-0.29742265 -0.10643933 1.0778679
-0.29168701 -0.10669374 1.0770295
-0.28728032 -0.108648 1.076995
-0.28231221 -0.1082826 1.0759284
-0.27800301 -0.107996 1.079348
-0.27396601 -0.108509 1.0781291
-0.310965 -0.1033455 1.0775011
-0.30779251 -0.103278 1.0787035
-0.3022323 -0.1029735 1.0777218
-0.29854181 -0.1027654 1.0772288
-0.29264051 -0.10337525 1.0772216
-0.28685957 -0.10272314 1.0779613
-0.28318456 -0.10298528 1.0780774
-0.30760634 -0.099194668 1.0787479
-0.300852 -0.098397501 1.0796571
-0.29685232 -0.098715663 1.0772243
-0.2884075 -0.098221496 1.0780675
-0.333359 -0.111185 1.083961
-0.31833422 -0.1117575 1.0811927
-0.31362501 -0.111027 1.08154
-0.276198 -0.112709 1.080634
-0.27048501 -0.113562 1.0814821
-0.26776016 -0.11280183 1.0816089
-0.32647043 -0.1069084 1.0840275
-0.32178089 -0.10740425 1.082898
-0.31823578 -0.1069664 1.0814414
-0.31376699 -0.105784 1.08056
-0.30873001 -0.106453 1.081656
-0.27657598 -0.10660429 1.08172
-0.27167639 -0.1078168 1.0822138
-0.268231 -0.106838 1.0837615
-0.32131132 -0.10286667 1.083788
-0.31779027 -0.10285575 1.0833802
-0.31291518 -0.1026263 1.0819782
-0.30794626 -0.1028615 1.0816672
-0.30271798 -0.1010235 1.0814755
-0.29055101 -0.1017455 1.081239
-0.286854 -0.101696 1.0819695
-0.2822395 -0.102536 1.0820236
-0.277466 -0.10284233 1.0825013
-0.27373549 -0.1017365 1.082582
-0.268713 -0.104845 1.084278
-0.31672698 -0.097569004 1.08275
-0.312812 -0.097598799 1.0834782
-0.30679902 -0.097356342 1.0835363
-0.30177632 -0.096595012 1.0816895
-0.29824924 -0.097672746 1.0816557
-0.29303309 -0.096926808 1.0815349
-0.28595299 -0.096198671 1.0813426
-0.28334048 -0.097847745 1.081772
-0.27827901 -0.098263755 1.0827645
-0.31157032 -0.093981333 1.0843483
-0.30719152 -0.092990167 1.0835876
-0.30286166 -0.092846997 1.0830632
-0.29747468 -0.093071669 1.0845103
-0.29168764 -0.092812605 1.0830131
-0.28705922 -0.0933052 1.0830663
-0.2826325 -0.0934375 1.0835035
-0.30835399 -0.089140996 1.083323
-0.30158964 -0.088568993 1.083922
-0.26168033 -0.11615467 1.086912
-0.335513 -0.114728 1.088087
-0.33189702 -0.11232867 1.0879725
-0.32811162 -0.11203913 1.0865108
-0.32358348 -0.11161549 1.085402
-0.262741 -0.11395234 1.087842
-0.3366195 -0.107969 1.088703
-0.33032399 -0.1063075 1.0887854
-0.32722774 -0.10719999 1.0872941
-0.32358497 -0.10722999 1.086843
-0.317545 -0.107121 1.0853
-0.271119 -0.105562 1.0850559
-0.26714864 -0.10713599 1.0869687
-0.263998 -0.10746334 1.0874656
-0.3302775 -0.10361899 1.088547
-0.32589924 -0.10251226 1.0887468
-0.32293424 -0.10268113 1.0882235
-0.31878033 -0.10318533 1.086603
-0.31454599 -0.102819 1.0854861
-0.27629301 -0.100093 1.085379
-0.2723965 -0.101106 1.0858419
-0.26809034 -0.10300001 1.086679
-0.25990799 -0.102719 1.089797
-0.32722351 -0.099349 1.0883574
-0.32226589 -0.098011777 1.0873876
-0.31860775 -0.097650506 1.0869412
-0.31261426 -0.096783996 1.0865545
-0.30940101 -0.099317998 1.0860013
-0.28116101 -0.096806496 1.086403
-0.27625316 -0.099377409 1.0863407
-0.27143401 -0.098196 1.0872407
-0.26905102 -0.096855998 1.0886459
-0.322716 -0.092324004 1.089468
-0.31614062 -0.092287749 1.0882882
-0.31241098 -0.092508398 1.0877246
-0.30832002 -0.091707289 1.0867504
-0.30183899 -0.091016747 1.087468
-0.29770899 -0.090956502 1.0860009
-0.29289097 -0.091589794 1.0858133
-0.28582633 -0.093156338 1.0872294
-0.28341499 -0.092801996 1.0867286
-0.32007501 -0.088799 1.089628
-0.33735126 -0.11772127 1.0931983
-0.26122499 -0.116767 1.091063
-0.256419 -0.11661 1.094429
-0.34138101 -0.114 1.093786
-0.33636943 -0.1119362 1.0921713
-0.33347067 -0.11228944 1.0932316
-0.32880223 -0.1119665 1.0913528
-0.26172099 -0.111999 1.0930769
-0.2573505 -0.1132885 1.0922645
-0.248064 -0.114651 1.0944
-0.33702999 -0.108283 1.094525
-0.33236688 -0.10779949 1.0928322
-0.32875577 -0.10627625 1.093024
-0.26267719 -0.10743999 1.0935222
-0.3315095 -0.10280512 1.0931439
-0.32808471 -0.10235942 1.0921291
-0.32154047 -0.10256 1.0912665
-0.266819 -0.10136167 1.0911723
-0.259592 -0.103891 1.094205
-0.32731086 -0.097412243 1.0933824
-0.32250458 -0.097471401 1.0925667
-0.31989598 -0.095751002 1.0935071
-0.2784425 -0.096245497 1.0913446
-0.27031201 -0.097130001 1.091246
-0.26862559 -0.097742803 1.0912445
-0.32644215 -0.093333162 1.0932976
-0.32279319 -0.0924429 1.0920202
-0.31796315 -0.091239005 1.0916549
-0.25360999 -0.120412 1.095572
-0.34008399 -0.117827 1.095511
-0.33859628 -0.11669344 1.0982641
-0.25714499 -0.115231 1.095476
-0.25443399 -0.117488 1.098034
-0.340675 -0.111192 1.099516
-0.33752257 -0.1121162 1.0970587
-0.33470899 -0.11385 1.095301
-0.340859 -0.106751 1.095263
-0.33718801 -0.1076874 1.0983055
-0.33413076 -0.1057225 1.0979637
-0.257521 -0.10619999 1.0969815
-0.253815 -0.109432 1.09804
-0.24885701 -0.106653 1.0979
-0.3364605 -0.104082 1.0986084
-0.33237702 -0.1020344 1.0973897
-0.32891101 -0.102189 1.095513
-0.26232967 -0.10177866 1.0980417
-0.25374299 -0.101043 1.098272
-0.33715001 -0.099350996 1.098666
-0.332535 -0.09744212 1.0972918
-0.32934299 -0.096954755 1.0978489
-0.324332 -0.096031502 1.0965765
-0.265129 -0.098251998 1.095829
-0.33213681 -0.093040399 1.0979936
-0.32812181 -0.092162333 1.0976499
-0.32451099 -0.093098998 1.096561
-0.34191334 -0.12265011 1.1023378
-0.34127638 -0.11689774 1.1029031
-0.33952335 -0.11796833 1.1022803
-0.256212 -0.115003 1.101774
-0.25445601 -0.118067 1.101334
-0.34118539 -0.1139822 1.1022362
-0.33854073 -0.11245875 1.1026745
-0.254271 -0.1135335 1.102064
-0.34089634 -0.10843733 1.1024753
-0.33781537 -0.10769284 1.1025859
-0.2568095 -0.10795125 1.1021187
-0.25483999 -0.10635 1.101222
-0.34269899 -0.104401 1.1046065
-0.33725539 -0.10315625 1.1013013
-0.33681688 -0.097877875 1.1031058
-0.33305952 -0.097210243 1.1018803
-0.33632699 -0.093982667 1.1036941
-0.33234513 -0.092621379 1.1024866
-0.32946599 -0.091370493 1.101159
-0.34689701 -0.125186 1.109517
-0.248404 -0.126992 1.108489
-0.34559301 -0.121087 1.1068079
-0.34253868 -0.12165666 1.1078296
-0.34276819 -0.11823756 1.107229
-0.339205 -0.116587 1.106112
-0.34537399 -0.114491 1.109988
-0.34159681 -0.11237955 1.1071051
-0.26045701 -0.110256 1.1063319
-0.34129661 -0.1083655 1.1065477
-0.3397755 -0.1061185 1.108456
-0.250934 -0.107935 1.1063499
-0.2493 -0.107316 1.109112
-0.34181136 -0.102 1.109195
-0.33875212 -0.10214957 1.1065015
-0.34067047 -0.097896747 1.1088045
-0.3376177 -0.097346134 1.1066549
-0.33346999 -0.093897998 1.108739
-0.347202 -0.12704399 1.112947
-0.259233 -0.128929 1.11329
-0.345496 -0.1237975 1.113132
-0.34310478 -0.12229814 1.1121017
-0.25523701 -0.123279 1.111612
-0.34768599 -0.118744 1.113724
-0.34374478 -0.11673649 1.112344
-0.34568751 -0.1141825 1.1122844
-0.342776 -0.11239745 1.1123226
-0.34551367 -0.10748801 1.113976
-0.34205797 -0.107875 1.1119055
-0.34206393 -0.10221753 1.1125376
-0.3386445 -0.10223925 1.1114192
-0.34063736 -0.09677583 1.1132766
-0.33720669 -0.097328998 1.111636
-0.34704074 -0.128043 1.1182377
-0.3437269 -0.12766875 1.1184961
-0.258755 -0.12676901 1.118083
-0.253203 -0.1266015 1.118158
-0.34533468 -0.123579 1.117797
-0.34344897 -0.12268072 1.1177186
-0.25833449 -0.12333325 1.1171077
-0.34617925 -0.117966 1.1165625
-0.3442418 -0.11749449 1.1173985
-0.250884 -0.11864 1.118675
-0.34853399 -0.112365 1.117985
-0.34380633 -0.112533 1.1175687
-0.34540647 -0.1081675 1.1177056
-0.34308529 -0.10675363 1.1176485
-0.347561 -0.101502 1.117304
-0.34294644 -0.10214414 1.1173115
-0.34729052 -0.13191101 1.1230116
-0.34231362 -0.132826 1.1229051
-0.2573545 -0.132963 1.1215795
-0.254558 -0.130766 1.122393
-0.3458555 -0.12716 1.122925
-0.34377819 -0.12712941 1.1229565
-0.256064 -0.12793851 1.1212621
-0.34568399 -0.1226985 1.1225365
-0.34367627 -0.12204586 1.1222655
-0.34640065 -0.118549 1.1217817
-0.34399337 -0.11703125 1.1224611
-0.257085 -0.1172388 1.1222446
-0.25264701 -0.119323 1.120433
-0.34691334 -0.112393 1.121168
-0.34463075 -0.11165425 1.1220033
-0.35051 -0.10795 1.12291
-0.34544432 -0.10809033 1.122237
-0.34376439 -0.10749171 1.1226008
-0.346109 -0.1037006 1.1237036
-0.34414849 -0.10188487 1.1222202
-0.34543499 -0.13579001 1.1282519
-0.256614 -0.13635667 1.1284419
-0.25166899 -0.13654551 1.126855
-0.346284 -0.130689 1.127601
-0.34304786 -0.13226512 1.1264836
-0.3399455 -0.13442799 1.129604
-0.25798264 -0.13164766 1.1266695
-0.25442472 -0.13271426 1.1276133
-0.35118201 -0.12593 1.127915
-0.34296572 -0.12712246 1.1276768
-0.255959 -0.12681401 1.1272609
-0.34654868 -0.12126166 1.12666
-0.34397975 -0.12274501 1.1269277
-0.255826 -0.122105 1.127921
-0.25448048 -0.123246 1.125878
-0.34792399 -0.11653066 1.125955
-0.3432188 -0.1187224 1.1272532
-0.25612801 -0.118741 1.128949
-0.34589666 -0.1129695 1.127124
-0.34421486 -0.11251172 1.1273335
-0.25645503 -0.112484 1.1277474
-0.34570003 -0.10606366 1.1276807
-0.3443734 -0.1079876 1.1272243
-0.34528175 -0.1034935 1.1272995
-0.34170151 -0.13811272 1.1326517
-0.33802316 -0.13868034 1.1335584
-0.25725532 -0.138071 1.1333814
-0.25318202 -0.13775335 1.133083
-0.35173899 -0.13168199 1.134691
-0.34795049 -0.1323895 1.1313529
-0.34181839 -0.13186143 1.1325128
-0.338294 -0.13011999 1.131106
-0.255743 -0.133257 1.13428
-0.25247601 -0.1319 1.131323
-0.35029 -0.12557299 1.133559
-0.34557399 -0.127086 1.132712
-0.34137562 -0.12774767 1.1328955
-0.25706524 -0.12703475 1.1322532
-0.25292465 -0.12678067 1.1318053
-0.34556752 -0.121701 1.1311564
-0.34218001 -0.12290222 1.1323755
-0.25755548 -0.12340701 1.131824
-0.351358 -0.117297 1.131566
-0.34371969 -0.11802011 1.1318359
-0.25667301 -0.117586 1.1323075
-0.25259399 -0.117025 1.130993
-0.35125101 -0.111268 1.131022
-0.34618101 -0.113081 1.1322975
-0.34333014 -0.1126955 1.1327513
-0.255916 -0.1148 1.132169
-0.25454399 -0.114459 1.1328779
-0.34628269 -0.10659584 1.132697
-0.34401152 -0.10741284 1.1324527
-0.2571288 -0.14266339 1.1375962
-0.34278899 -0.13619 1.136675
-0.33808923 -0.13770375 1.1377392
-0.26073301 -0.13733099 1.137826
-0.25685075 -0.13768625 1.1369205
-0.345633 -0.13165399 1.138417
-0.34275183 -0.13263883 1.1375264
-0.33821476 -0.13240312 1.1372527
-0.25642377 -0.13210499 1.1381438
-0.25290349 -0.13252351 1.136786
-0.34196702 -0.12809701 1.1366889
-0.33904248 -0.12778199 1.1397891
-0.25710002 -0.12677835 1.1384127
-0.25189734 -0.12743334 1.1370243
-0.34656432 -0.121023 1.1361086
-0.34094515 -0.12177215 1.1372939
-0.339001 -0.123414 1.138595
-0.25660133 -0.121273 1.1381673
-0.351055 -0.116602 1.136928
-0.34692401 -0.115768 1.135651
-0.34255326 -0.11698108 1.1374178
-0.25746977 -0.11685374 1.1362302
-0.25426334 -0.11829633 1.1372553
-0.34635448 -0.1137355 1.138909
-0.34338763 -0.11219162 1.1382493
-0.34053099 -0.141717 1.140729
-0.33664432 -0.14234766 1.1417531
-0.33160466 -0.14203615 1.1434753
-0.26035133 -0.14283735 1.1417207
-0.25812298 -0.1429145 1.1429968
-0.34091935 -0.136622 1.1435107
-0.33765048 -0.13667674 1.14256
-0.3340165 -0.13718149 1.1427692
-0.260382 -0.137779 1.14215
-0.25617859 -0.1373644 1.1428705
-0.34503999 -0.13123 1.140303
-0.340083 -0.13482501 1.142074
-0.337071 -0.13256221 1.1419713
-0.26034951 -0.13352251 1.1423094
-0.25765666 -0.13405366 1.1415657
-0.253932 -0.132539 1.141624
-0.34702301 -0.12747499 1.1443551
-0.34170401 -0.12676975 1.1409458
-0.33835033 -0.12684716 1.1421955
-0.25713 -0.12775333 1.1422497
-0.25349051 -0.12705401 1.143239
-0.3458775 -0.1226305 1.1412649
-0.344262 -0.12405699 1.1423768
-0.3383345 -0.122539 1.1432908
-0.256928 -0.12310425 1.1418487
-0.34160069 -0.11785085 1.1428157
-0.33913049 -0.11865126 1.1426924
-0.25414899 -0.119596 1.1425641
-0.347038 -0.1131095 1.142506
-0.34243855 -0.11230711 1.1430057
-0.33948401 -0.113197 1.144583
-0.33208224 -0.146383 1.1475677
-0.274055 -0.14693701 1.1484625
-0.26137918 -0.14835539 1.1480279
-0.342507 -0.14075001 1.146287
-0.33224797 -0.1428165 1.1470094
-0.32767475 -0.14178625 1.1485535
-0.324218 -0.14262301 1.147316
-0.26712301 -0.14218099 1.147959
-0.26229 -0.14342101 1.1478989
-0.25896201 -0.14176001 1.14843
-0.33717516 -0.13799201 1.147382
-0.33215767 -0.137058 1.1477002
-0.32951301 -0.139281 1.148602
-0.26163033 -0.13909434 1.1481036
-0.25812462 -0.1380714 1.1470588
-0.34088901 -0.133807 1.149243
-0.33692151 -0.13140801 1.146167
-0.33297604 -0.13313128 1.1475023
-0.26199535 -0.13304934 1.1469361
-0.25824952 -0.13321275 1.14745
-0.34054425 -0.12802474 1.1467648
-0.33751965 -0.12769687 1.14666
-0.3320885 -0.12884599 1.1488265
-0.26039034 -0.12739499 1.147624
-0.2577244 -0.12759161 1.1468503
-0.34799999 -0.120266 1.146942
-0.34137201 -0.1207825 1.1475747
-0.33765182 -0.122325 1.1473186
-0.33315799 -0.124689 1.149565
-0.25713661 -0.12224539 1.1471995
-0.25435299 -0.120945 1.148751
-0.3408815 -0.1176385 1.147503
-0.33794627 -0.1177185 1.147717
-0.32618901 -0.14769067 1.1511036
-0.32217899 -0.14750232 1.1519359
-0.31734723 -0.14787582 1.1527007
-0.31326601 -0.147505 1.154162
-0.30985901 -0.14651901 1.152838
-0.28371501 -0.14725199 1.154099
-0.27323899 -0.14678651 1.153453
-0.26826167 -0.14756466 1.1528716
-0.26340473 -0.14726575 1.1526396
-0.33136201 -0.14199349 1.1519539
-0.32708526 -0.14196025 1.1517055
-0.32335097 -0.14184329 1.1529964
-0.31992599 -0.14386 1.152279
-0.2758525 -0.14294949 1.1520641
-0.27417499 -0.14098699 1.15387
-0.26671901 -0.1426772 1.151986
-0.26360202 -0.1416394 1.1531719
-0.25891501 -0.14298999 1.151456
-0.33203301 -0.13708802 1.1517874
-0.32735682 -0.13708967 1.1524223
-0.26607099 -0.13699 1.15497
-0.26275817 -0.13787584 1.1521412
-0.25961 -0.1367 1.152289
-0.34010801 -0.13066299 1.1517071
-0.33616766 -0.13138266 1.151453
-0.33285764 -0.13211702 1.1525844
-0.32798341 -0.13263701 1.1533186
-0.26757699 -0.132377 1.153317
-0.26224598 -0.13247979 1.1524947
-0.25914702 -0.13164701 1.1517791
-0.33789933 -0.12676567 1.15201
-0.33219984 -0.12797999 1.1519295
-0.32878533 -0.12710334 1.1544451
-0.26242551 -0.127226 1.1517086
-0.25859374 -0.12773499 1.1526799
-0.34109768 -0.12244 1.1509546
-0.33688971 -0.12260701 1.1518348
-0.333343 -0.122863 1.1532331
-0.26041448 -0.1224235 1.152776
-0.25701568 -0.12204432 1.1512914
-0.25493699 -0.124192 1.153308
-0.34132037 -0.11789799 1.152289
-0.30634099 -0.151319 1.156467
-0.30260599 -0.1514985 1.1567595
-0.29752049 -0.15261251 1.1579421
-0.2765232 -0.152283 1.1573626
-0.273027 -0.1531332 1.1582823
-0.26454002 -0.15145549 1.156888
-0.32697299 -0.148176 1.155362
-0.32055399 -0.14947 1.1576101
-0.31895366 -0.14699201 1.1564617
-0.3117685 -0.1466845 1.157302
-0.30764979 -0.14744461 1.1575869
-0.30419999 -0.145656 1.159811
-0.29920566 -0.14771666 1.1590171
-0.29121399 -0.14954549 1.1574171
-0.286235 -0.14941999 1.157747
-0.27176461 -0.14787039 1.1587622
-0.26768348 -0.146533 1.1587672
-0.26493251 -0.14644951 1.1569641
-0.32600999 -0.14149199 1.156369
-0.32171601 -0.141249 1.1577491
-0.31843179 -0.14149819 1.1574056
-0.31291476 -0.14185901 1.1576042
-0.28343666 -0.14221035 1.157293
-0.27559766 -0.14256801 1.1597331
-0.27107602 -0.1427055 1.157747
-0.26838619 -0.1422254 1.1569536
-0.262514 -0.14467099 1.155046
-0.25833899 -0.140817 1.157932
-0.3260065 -0.1385525 1.1575251
-0.32191098 -0.13708101 1.1564487
-0.31960952 -0.137556 1.1571155
-0.30795601 -0.13795801 1.15999
-0.28518599 -0.13835999 1.156772
-0.27694148 -0.136338 1.1566811
-0.27301601 -0.13727801 1.157025
-0.26631549 -0.13776299 1.1576365
-0.26315299 -0.13752599 1.1583084
-0.33248395 -0.131734 1.1555799
-0.32725847 -0.13310552 1.1574607
-0.32355925 -0.13257851 1.15834
-0.31979099 -0.132817 1.1592571
-0.27503401 -0.13423701 1.158686
-0.26659098 -0.13283201 1.1572253
-0.26309481 -0.13249099 1.1573693
-0.259637 -0.134923 1.155232
-0.33705401 -0.12512566 1.1559973
-0.33170125 -0.126324 1.1578752
-0.32740283 -0.12851056 1.1580094
-0.27670699 -0.12812699 1.158909
-0.26746199 -0.126954 1.156707
-0.2619718 -0.12709859 1.1572005
-0.25940835 -0.12763667 1.1569583
-0.34041449 -0.1213775 1.1554865
-0.33226034 -0.12241355 1.1569412
-0.32805935 -0.12329867 1.157885
-0.26091865 -0.12339333 1.1560097
-0.30165601 -0.155562 1.164503
-0.32728702 -0.1520285 1.163064
-0.321042 -0.15381899 1.161767
-0.31788698 -0.15147932 1.1633056
-0.31175399 -0.1539865 1.1639609
-0.30564299 -0.154273 1.164227
-0.30431801 -0.15414999 1.160807
-0.29772949 -0.15486851 1.1636565
-0.290856 -0.15031999 1.163188
-0.2881375 -0.1519485 1.163353
-0.28100678 -0.1520506 1.162708
-0.27709898 -0.152073 1.1633954
-0.27020201 -0.152604 1.162159
-0.32764399 -0.14825201 1.1627525
-0.322862 -0.14760099 1.164368
-0.31501901 -0.149496 1.164939
-0.30774799 -0.14502899 1.163914
-0.303289 -0.1473525 1.1612461
-0.29186699 -0.14675499 1.160681
-0.2825684 -0.148302 1.1622356
-0.2774018 -0.1478222 1.1633154
-0.27274925 -0.14841121 1.1626487
-0.267138 -0.14541149 1.161234
-0.33173099 -0.141637 1.16423
-0.32124001 -0.141874 1.1624084
-0.31200302 -0.140882 1.162276
-0.30680099 -0.144862 1.160164
-0.30153549 -0.143029 1.162984
-0.29244766 -0.14212202 1.1612159
-0.28164199 -0.144614 1.164976
-0.27854499 -0.143462 1.164331
-0.27272016 -0.14243199 1.1633035
-0.26728401 -0.140606 1.1647731
-0.26430199 -0.14325 1.162232
-0.32508799 -0.137282 1.163835
-0.32146439 -0.13665119 1.1628532
-0.31759 -0.1373764 1.16273
-0.31358531 -0.13658766 1.1621219
-0.309304 -0.139695 1.163766
-0.30194047 -0.137685 1.1629519
-0.29506001 -0.13951001 1.162117
-0.29226699 -0.137582 1.164288
-0.28564799 -0.136352 1.1602401
-0.2817485 -0.1366775 1.1635475
-0.27560851 -0.13678449 1.164755
-0.27312452 -0.1376075 1.1632605
-0.26755217 -0.13785885 1.1617451
-0.330071 -0.13024101 1.164364
-0.3267625 -0.13376375 1.1613009
-0.32286164 -0.13290037 1.1632986
-0.318822 -0.13407519 1.1632426
-0.30594701 -0.133444 1.164927
-0.291807 -0.132787 1.164206
-0.28625301 -0.131669 1.161291
-0.28355533 -0.13279334 1.1631597
-0.27598599 -0.134673 1.164585
-0.27182502 -0.132375 1.1613326
-0.26711765 -0.133489 1.161327
-0.26321602 -0.13170278 1.162724
-0.33510399 -0.125872 1.160001
-0.33116001 -0.125848 1.160718
-0.3273142 -0.12729521 1.1624968
-0.32402483 -0.12818034 1.1634866
-0.283297 -0.12789901 1.164899
-0.27695101 -0.126858 1.1625431
-0.26724178 -0.12828499 1.1622725
-0.26285738 -0.12649579 1.1622324
-0.259509 -0.12911899 1.162982
-0.32645535 -0.12300513 1.1627848
-0.27846 -0.123911 1.164749
-0.340992 -0.15579499 1.16847
-0.31721848 -0.156167 1.1661479
-0.311627 -0.155847 1.166664
-0.29757851 -0.15752849 1.1668395
-0.29249468 -0.15776634 1.1679287
-0.28862175 -0.157882 1.1683017
-0.33490399 -0.15249801 1.1683379
-0.32558501 -0.15228 1.16723
-0.32181501 -0.152118 1.166803
-0.31915301 -0.1533 1.165246
-0.31200975 -0.15253101 1.1673332
-0.30767649 -0.1528995 1.1679895
-0.30221298 -0.152183 1.1689254
-0.29659998 -0.153475 1.1682607
-0.29215741 -0.1527566 1.1679369
-0.28803834 -0.15268834 1.1669654
-0.28281167 -0.15217365 1.1680814
-0.2773295 -0.15140051 1.1679435
-0.32767001 -0.14544401 1.169196
-0.317123 -0.14640599 1.169252
-0.31215534 -0.14816068 1.1677243
-0.30757135 -0.14892499 1.1694916
-0.30344725 -0.1487045 1.1684905
-0.297472 -0.14782166 1.1679202
-0.29161265 -0.14702767 1.1687837
-0.28789666 -0.14812399 1.167138
-0.28237259 -0.1484718 1.1680064
-0.27744299 -0.14779299 1.1684115
-0.27130151 -0.1468205 1.165844
-0.32713425 -0.1429745 1.1685609
-0.32189426 -0.14270726 1.168352
-0.317343 -0.14395933 1.1683747
-0.31268999 -0.14009599 1.169011
-0.297454 -0.144961 1.169482
-0.291181 -0.14384501 1.168196
-0.28570399 -0.14379001 1.168296
-0.281858 -0.14253329 1.1676881
-0.2769205 -0.14305 1.1683555
-0.272295 -0.14239599 1.1676331
-0.26901901 -0.14186899 1.1668741
-0.26213399 -0.140439 1.16676
-0.32525799 -0.137936 1.169786
-0.32280377 -0.13603875 1.1681943
-0.31819132 -0.13697682 1.1680983
-0.31392401 -0.135465 1.1675489
-0.30824301 -0.135933 1.167534
-0.30224851 -0.13749 1.165764
-0.294956 -0.13544101 1.1650881
-0.28134799 -0.13688751 1.169891
-0.27620667 -0.13734435 1.1680063
-0.27165866 -0.138267 1.1662403
-0.26951501 -0.136977 1.166117
-0.26433599 -0.136291 1.166625
-0.32579401 -0.13093966 1.1682724
-0.3226991 -0.13194109 1.1680725
-0.31860849 -0.132305 1.1656705
-0.311652 -0.131947 1.169318
-0.30245098 -0.13223933 1.168162
-0.29616001 -0.132929 1.166636
-0.29133698 -0.13261634 1.1682581
-0.28738099 -0.132183 1.166015
-0.27542299 -0.13320351 1.168386
-0.27197939 -0.1325828 1.1682338
-0.26772499 -0.13215275 1.1676233
-0.263771 -0.13128 1.165573
-0.32657903 -0.12770672 1.1669101
-0.32446632 -0.127232 1.1687752
-0.30248952 -0.12910101 1.1685336
-0.296094 -0.128802 1.169736
-0.29279199 -0.12634499 1.168841
-0.28665501 -0.12725849 1.1681039
-0.28202999 -0.128041 1.167881
-0.27627099 -0.128042 1.169662
-0.27207625 -0.12704775 1.1667747
-0.26634359 -0.127939 1.167551
-0.33107501 -0.15843099 1.1734445
-0.32810399 -0.1585976 1.1732026
-0.32121348 -0.15618649 1.1730144
-0.31076536 -0.15677834 1.173358
-0.30299568 -0.15753366 1.171456
-0.29743201 -0.158682 1.172383
-0.33269134 -0.15197466 1.1734143
-0.32851532 -0.15286434 1.1731447
-0.32462201 -0.154258 1.172539
-0.317404 -0.1516445 1.171175
-0.314264 -0.151041 1.1725399
-0.30374101 -0.15407966 1.172049
-0.296413 -0.15230399 1.170391
-0.29261351 -0.1525615 1.172369
-0.286982 -0.151205 1.173816
-0.28147751 -0.15238851 1.170988
-0.33363101 -0.14541499 1.174579
-0.32656598 -0.146612 1.1735886
-0.32297701 -0.14839333 1.1718847
-0.31901699 -0.148424 1.172066
-0.31221834 -0.14767633 1.1706403
-0.308081 -0.14529651 1.17224
-0.3038516 -0.147633 1.1729491
-0.29768875 -0.14729211 1.1734095
-0.29200819 -0.14818521 1.1714026
-0.28714651 -0.1476965 1.170848
-0.284863 -0.145138 1.173528
-0.27243599 -0.146227 1.173318
-0.32710886 -0.1422061 1.1737198
-0.3209295 -0.14169 1.171713
-0.31693199 -0.140916 1.173751
-0.31251535 -0.142152 1.173416
-0.30753323 -0.14153799 1.1731426
-0.30290624 -0.1429625 1.1743701
-0.29648468 -0.142983 1.1731039
-0.29265147 -0.14358225 1.172361
-0.28764421 -0.14324999 1.1717752
-0.28239667 -0.1424375 1.1722436
-0.27944699 -0.141986 1.173877
-0.27132869 -0.14176267 1.1702023
-0.33094352 -0.1365205 1.171227
-0.3273434 -0.13693476 1.1728586
-0.32356274 -0.13679451 1.171432
-0.3186335 -0.13870451 1.1730206
-0.305067 -0.13852499 1.174399
-0.2983095 -0.13902751 1.1741531
-0.29150701 -0.137347 1.173241
-0.28708234 -0.13703734 1.1729029
-0.28259999 -0.13679829 1.1731855
-0.27754501 -0.13683599 1.1716198
-0.2723 -0.13845401 1.1727455
-0.26715699 -0.135728 1.1720721
-0.32627055 -0.13168955 1.1721325
-0.32304555 -0.13342842 1.171682
-0.305832 -0.13167 1.1742491
-0.290488 -0.133781 1.172202
-0.28259701 -0.131538 1.1729245
-0.27712265 -0.13275565 1.1722983
-0.2722525 -0.130787 1.1712015
-0.26947701 -0.13026799 1.170928
-0.30918899 -0.12928399 1.17233
-0.280938 -0.129254 1.174962
-0.27651024 -0.12802725 1.1729255
-0.3366279 -0.16229799 1.1777655
-0.32852501 -0.16279501 1.1782531
-0.34038201 -0.15591601 1.175157
-0.33552021 -0.15763299 1.1774489
-0.33142048 -0.15565725 1.1765918
-0.33658898 -0.15394351 1.1770495
-0.33190182 -0.15249334 1.1773211
-0.32847175 -0.15138525 1.1762425
-0.311304 -0.150489 1.176529
-0.28612101 -0.154386 1.175262
-0.33219537 -0.14766288 1.1779312
-0.32866102 -0.14537701 1.1751781
-0.31756401 -0.146761 1.1784561
-0.31306198 -0.14806467 1.17818
-0.309475 -0.145822 1.175493
-0.30261001 -0.147742 1.1791821
-0.290436 -0.145908 1.1763819
-0.33207056 -0.14240278 1.1771501
-0.3287068 -0.14227 1.1760519
-0.323116 -0.143575 1.1776479
-0.31780702 -0.14250851 1.1768335
-0.311243 -0.14315051 1.17752
-0.306182 -0.14429501 1.175053
-0.30196264 -0.142636 1.1790481
-0.29937467 -0.14093266 1.1773987
-0.29213619 -0.14142001 1.1759642
-0.33138999 -0.13768899 1.1783843
-0.3277916 -0.13677701 1.1780167
-0.32216999 -0.13971999 1.176661
-0.31425732 -0.13823666 1.1773404
-0.30834234 -0.13734667 1.1780566
-0.3031455 -0.13726901 1.1788123
-0.29746762 -0.13762781 1.1780207
-0.29283431 -0.13735099 1.1779667
-0.28812021 -0.13766041 1.17658
-0.282451 -0.138229 1.177302
-0.27834401 -0.135538 1.176397
-0.270861 -0.136305 1.175177
-0.33066151 -0.132228 1.1769435
-0.3262805 -0.1314595 1.1773
-0.322079 -0.133738 1.1764899
-0.30701599 -0.13275367 1.1786662
-0.30057099 -0.132066 1.179505
-0.29763225 -0.13277975 1.1768887
-0.28835648 -0.13336799 1.17681
-0.28260502 -0.13224833 1.1774725
-0.27244499 -0.13111749 1.1767809
-0.26914901 -0.13454799 1.175271
-0.33714151 -0.16449299 1.1826384
-0.33247098 -0.16296268 1.1827093
-0.33639801 -0.1560495 1.1815575
-0.33250502 -0.15801999 1.1825593
-0.33532 -0.154028 1.182161
-0.33390197 -0.15187459 1.1824064
-0.33563799 -0.145402 1.184074
-0.33294854 -0.14760186 1.1822237
-0.32832152 -0.1457845 1.1810584
-0.32125199 -0.148342 1.180346
-0.31542799 -0.147525 1.180883
-0.31134149 -0.14669751 1.183457
-0.30923101 -0.145188 1.182053
-0.33279034 -0.14297234 1.1810294
-0.317357 -0.14320651 1.1827841
-0.31251401 -0.14139526 1.1837399
-0.3073695 -0.1410515 1.1806675
-0.33129901 -0.139369 1.1834151
-0.32613701 -0.136145 1.18225
-0.31638101 -0.13949101 1.181196
-0.31144801 -0.13751434 1.1827661
-0.309385 -0.139081 1.1826351
-0.30356768 -0.13862833 1.1821619
-0.29457799 -0.136058 1.182104
-0.3270528 -0.1334714 1.181643
-0.29176039 -0.13284361 1.1806406
-0.32823032 -0.16745512 1.1877217
-0.337569 -0.16328999 1.186936
-0.332618 -0.163344 1.187306
-0.329485 -0.16204351 1.188529
-0.33691299 -0.157039 1.18548
-0.3333379 -0.15733345 1.1872724
-0.33238101 -0.152137 1.188146
-0.33773401 -0.149552 1.186116
-0.316881 -0.14747751 1.1881225
-0.31302923 -0.14598176 1.1878778
-0.32944101 -0.142156 1.1856689
-0.30883101 -0.14316399 1.188033
-0.32725799 -0.138961 1.185766
-0.31619999 -0.13566101 1.18742
-0.30715701 -0.13988701 1.187577
-0.32818201 -0.17013 1.1949871
-0.335347 -0.167293 1.193102
-0.33371001 -0.16545799 1.194793
-0.32662401 -0.165365 1.19453
-0.32452801 -0.16844399 1.192883
-0.316737 -0.16526701 1.194206
-0.33095065 -0.162753 1.1928821
-0.32768834 -0.16152133 1.1918274
-0.32405332 -0.16221 1.1935904
-0.3311685 -0.156387 1.192114
-0.32791933 -0.15860666 1.1911877
-0.32063699 -0.158471 1.190878
-0.31855601 -0.156875 1.1918485
-0.31329301 -0.15503401 1.1922801
-0.32284001 -0.15406901 1.191692
-0.316737 -0.1537625 1.1930225
-0.31272399 -0.15329 1.192813
-0.317251 -0.14927199 1.192073
-0.314877 -0.14598599 1.1919035
-0.3168315 -0.1406555 1.1929259
-0.31020001 -0.140576 1.190444
-0.315905 -0.138758 1.190177
-0.31394601 -0.13861901 1.192543
-0.320833 -0.172491 1.1982789
-0.3172965 -0.17309749 1.1987159
-0.31322598 -0.1717435 1.1985075
-0.33168799 -0.16541401 1.195524
-0.32287902 -0.167997 1.197636
-0.31588301 -0.16818175 1.1972415
-0.32896799 -0.164056 1.198158
-0.32194099 -0.163625 1.197486
-0.31200901 -0.162708 1.196632
-0.322355 -0.156818 1.1986705
-0.31584632 -0.157897 1.1976918
-0.314776 -0.156532 1.196382
-0.321605 -0.154828 1.196007
-0.31825602 -0.15421399 1.19855
-0.32078001 -0.140159 1.195215
-0.31726399 -0.14271601 1.196933
-0.318694 -0.172823 1.202574
-0.32854599 -0.166325 1.201028
-0.32213399 -0.16664401 1.201407
-0.315815 -0.166997 1.202
-0.310803 -0.165236 1.203483
-0.32644901 -0.16165 1.200567
-0.32394502 -0.161816 1.2022027
-0.31652901 -0.16391049 1.201741
-0.31424701 -0.16381299 1.201373
-0.31218499 -0.15580601 1.2011271
-0.31568399 -0.15496799 1.2005481
-0.31123099 -0.152705 1.2023261
-0.309284 -0.16892 1.2058311
