# .PCD v0.7 - Point Cloud Data file format
VERSION 0.7
FIELDS x y z
SIZE 4 4 4
TYPE F F F
COUNT 1 1 1
WIDTH 271
HEIGHT 1
VIEWPOINT 0 0 0 1 0 0 0
POINTS 271
DATA ascii
1.176169 -0.366377 1.381521
1.184956 -0.36187601 1.384922
1.202986 -0.36361101 1.380652
1.174432 -0.35826999 1.381462
1.165102 -0.35006601 1.3805389
1.172061 -0.35385701 1.384813
1.172508 -0.36691901 1.3866529
1.175398 -0.369149 1.388128
1.1860681 -0.36846799 1.3870029
1.204447 -0.36564699 1.388355
1.167088 -0.362524 1.386711
1.176343 -0.363801 1.387259
1.184773 -0.373124 1.392115
1.157016 -0.36921701 1.393893
1.163451 -0.36777201 1.394236
1.171716 -0.36985901 1.393319
1.18085 -0.36583501 1.3934
1.186886 -0.36586899 1.394202
1.170599 -0.36241701 1.394688
1.176106 -0.36226699 1.394613
1.183998 -0.363855 1.390577
1.1596146 -0.35796899 1.3918425
1.171589 -0.358271 1.393801
1.158888 -0.372531 1.397935
1.1615829 -0.37159899 1.397339
1.178737 -0.37049699 1.399321
1.2029076 -0.36741951 1.396939
1.146495 -0.36110801 1.397686
1.130422 -0.35762501 1.397433
1.169539 -0.35626 1.395141
1.17883 -0.358145 1.399902
1.153908 -0.35418999 1.396932
1.169342 -0.354094 1.395678
1.165361 -0.37520999 1.400506
1.1505589 -0.37174299 1.401213
1.155853 -0.37321401 1.401589
1.160978 -0.371512 1.401425
1.168461 -0.37197301 1.400063
1.1774155 -0.37332553 1.403288
1.183614 -0.373992 1.401615
1.15766 -0.365816 1.400514
1.163342 -0.35961801 1.400795
1.154231 -0.376057 1.409807
1.168859 -0.37118199 1.408924
1.170805 -0.371086 1.409258
1.133652 -0.365338 1.405365
1.14472 -0.36921501 1.40634
1.159124 -0.365105 1.409946
1.169616 -0.36969101 1.405147
1.192414 -0.36615899 1.4060071
1.1450551 -0.36432201 1.4092309
1.180974 -0.36207399 1.406918
1.159674 -0.35973799 1.406831
1.164939 -0.35969901 1.406998
1.169754 -0.381717 1.41436
1.156328 -0.37758452 1.4121394
1.162706 -0.3777515 1.4139276
1.172519 -0.379118 1.413721
1.131781 -0.372614 1.412166
1.170768 -0.36814299 1.413733
1.128435 -0.36270401 1.412977
1.134578 -0.36107701 1.410812
1.152043 -0.362385 1.411638
1.1662015 -0.36296201 1.4124665
1.172013 -0.36490601 1.410674
1.1809469 -0.363823 1.410659
1.159189 -0.37629801 1.416626
1.146881 -0.37033999 1.418866
1.156921 -0.372399 1.4163899
1.137676 -0.36712748 1.4168279
1.152281 -0.369573 1.419584
1.159358 -0.368339 1.415907
1.1646399 -0.36608401 1.419735
1.176757 -0.36698601 1.415325
1.147976 -0.36417699 1.416487
1.160109 -0.37997299 1.420676
1.1329629 -0.37178999 1.4212685
1.157908 -0.37344399 1.420141
1.1612035 -0.37214148 1.420979
1.12625 -0.36775699 1.4209189
1.136657 -0.36923 1.423249
1.152527 -0.368029 1.420684
1.148517 -0.38300833 1.4274257
1.134638 -0.37557599 1.427786
1.1617579 -0.37680101 1.425266
1.181003 -0.37990201 1.429628
1.139881 -0.37216899 1.429679
1.163884 -0.37168199 1.426373
1.137624 -0.377381 1.4324925
1.148635 -0.376937 1.430043
1.1508321 -0.377372 1.432144
1.155375 -0.37706101 1.43102
1.174683 -0.37582701 1.4307491
1.144094 -0.37270001 1.4331524
1.155406 -0.37345299 1.43238
1.131444 -0.38549 1.43805
1.152908 -0.38534999 1.436667
1.160203 -0.388722 1.438548
1.159232 -0.38228601 1.436994
1.128828 -0.37566 1.436651
1.1269 -0.38585001 1.442939
1.145389 -0.38552299 1.442493
1.150774 -0.38874999 1.441352
1.156865 -0.38518801 1.441811
1.139226 -0.38242999 1.442567
1.1490149 -0.38090301 1.440546
1.161154 -0.38047701 1.44172
1.138034 -0.37625599 1.441251
1.145768 -0.376818 1.440583
1.160049 -0.37655899 1.441003
1.151201 -0.39025101 1.446937
1.138643 -0.389296 1.4496109
1.151391 -0.38578299 1.446133
1.147398 -0.38212651 1.448482
1.137266 -0.38547099 1.452009
1.146965 -0.38814801 1.4540255
1.145273 -0.382727 1.452188
1.158425 -0.38927099 1.457067
1.163626 -0.38879201 1.459731
1.126506 -0.384758 1.455555
1.170537 -0.39350799 1.4615951
1.188579 -0.39034599 1.462027
1.15045 -0.388787 1.464944
1.1845011 -0.40567201 1.469659
1.16317 -0.39946899 1.46909
1.141673 -0.39247301 1.465066
1.1515189 -0.39450601 1.465325
1.14537 -0.40054399 1.473931
1.147804 -0.39577299 1.474052
1.1786129 -0.39432201 1.472453
1.1808624 -0.408245 1.4779899
1.157665 -0.40054399 1.476703
1.1635979 -0.40404099 1.476831
1.159068 -0.39794999 1.479987
1.171531 -0.397827 1.477649
1.178426 -0.396788 1.479174
1.185688 -0.39939499 1.477638
1.17206 -0.40818501 1.482774
1.1844749 -0.401941 1.481674
1.180166 -0.39931399 1.4813941
1.169667 -0.41021401 1.488277
1.163811 -0.406582 1.4880821
1.170995 -0.40781599 1.4890929
1.193799 -0.41482699 1.490867
1.1777 -0.405431 1.494552
1.163501 -0.40499401 1.493121
1.175737 -0.41638601 1.499723
1.176595 -0.41439301 1.498256
1.192979 -0.414491 1.4990619
1.199195 -0.40812999 1.49839
1.191692 -0.41606101 1.5024
1.204463 -0.41930601 1.504236
1.1814671 -0.41062701 1.500773
1.206744 -0.41616499 1.507422
1.193553 -0.42081901 1.5127079
1.197063 -0.42434901 1.514508
1.187647 -0.41669801 1.5122139
1.193428 -0.42638201 1.518399
1.200021 -0.42717001 1.518953
1.219218 -0.42460099 1.519272
1.1904171 -0.41725299 1.517632
1.193827 -0.42276901 1.523656
1.1955481 -0.4219 1.521987
1.207323 -0.42354199 1.523797
1.195381 -0.421767 1.52609
1.230081 -0.43636799 1.531013
1.228388 -0.42911899 1.533253
1.249908 -0.44167301 1.538303
1.237033 -0.437217 1.535416
1.218974 -0.438732 1.5447969
1.232381 -0.43403599 1.541137
1.216287 -0.43940401 1.547592
1.22329 -0.439172 1.545627
1.245386 -0.43465701 1.548503
1.2456779 -0.44492 1.551471
1.258406 -0.45127401 1.559202
1.222774 -0.44639799 1.558585
1.228585 -0.44592699 1.55805
1.266693 -0.44687599 1.564183
1.23395 -0.44695699 1.565308
1.247107 -0.44446 1.565527
1.2501529 -0.44412601 1.565627
1.246794 -0.451318 1.572606
1.2509315 -0.45103753 1.5716635
1.261564 -0.45359001 1.572237
1.24639 -0.449745 1.573046
1.240975 -0.45324001 1.57551
1.2789 -0.460401 1.582227
1.262942 -0.45833799 1.583176
1.250844 -0.45487601 1.584988
1.28449 -0.466324 1.587001
1.281786 -0.46177101 1.589958
1.2652889 -0.456765 1.5873441
1.279735 -0.45645899 1.586939
1.259439 -0.46016601 1.592657
1.271435 -0.46473801 1.590342
1.277638 -0.46238399 1.593284
1.2580611 -0.45873001 1.5934711
1.288363 -0.47123 1.605159
1.295674 -0.47090799 1.605685
1.308339 -0.472803 1.610287
1.311843 -0.47009701 1.610927
1.278169 -0.46717799 1.610028
1.282817 -0.47787401 1.616338
1.287361 -0.47773001 1.617501
1.2932611 -0.47994599 1.618711
1.277989 -0.47484699 1.616485
1.2917604 -0.4817335 1.624074
1.3171051 -0.48271799 1.625834
1.308781 -0.479684 1.627466
1.3280081 -0.47828999 1.627014
1.296859 -0.481038 1.632893
1.329396 -0.48054501 1.634052
1.307418 -0.48141801 1.6366529
1.315037 -0.49068499 1.6436321
1.328101 -0.49314401 1.6498179
1.326214 -0.48824599 1.647252
1.331291 -0.49886799 1.653668
1.324039 -0.48954299 1.650586
1.354108 -0.50228101 1.656746
1.350207 -0.50229597 1.66416
1.3286591 -0.49660999 1.662335
1.345119 -0.51087099 1.679045
1.368886 -0.51473999 1.678005
1.362463 -0.51269901 1.681067
1.3656631 -0.51466602 1.681412
1.350527 -0.51030898 1.689882
1.358803 -0.51132399 1.685946
1.377213 -0.51468301 1.6888551
1.371734 -0.51527202 1.6971051
1.386538 -0.52437299 1.7007869
1.3634861 -0.51957101 1.700346
1.3815809 -0.52502102 1.705711
1.376694 -0.52514303 1.711118
1.391802 -0.525307 1.713799
1.400648 -0.52991802 1.711792
1.421005 -0.53565001 1.7244051
1.391726 -0.53128499 1.722968
1.404379 -0.53414798 1.723884
1.3952889 -0.53433299 1.729923
1.392162 -0.533176 1.730426
1.400931 -0.53498697 1.734648
1.42185 -0.54578102 1.738039
1.4367729 -0.53886002 1.735782
1.403582 -0.54362601 1.740746
1.421231 -0.54550099 1.748633
1.430324 -0.54256302 1.747298
1.4140379 -0.54872799 1.753799
1.4386359 -0.54792899 1.750248
1.445509 -0.54878902 1.7537529
1.4545161 -0.54834902 1.759312
1.429076 -0.55641198 1.763712
1.421703 -0.55361801 1.76432
1.453934 -0.54973102 1.761054
1.418064 -0.556849 1.768405
1.4604681 -0.55897099 1.765155
1.450314 -0.55965501 1.772967
1.428373 -0.55756098 1.7767791
1.450678 -0.55992401 1.7786371
1.4563119 -0.55861199 1.775044
1.458198 -0.56041098 1.7802809
1.4383349 -0.56471151 1.7879585
1.4700969 -0.57042497 1.791684
1.4453419 -0.57052499 1.797598
1.453447 -0.56870002 1.795597
1.484008 -0.57850701 1.800554
1.484838 -0.58089298 1.809083
1.46129 -0.57913101 1.811058
1.479925 -0.58206701 1.818666
1.471879 -0.57954901 1.817818
1.486019 -0.58994699 1.825832
