# .PCD v0.7 - Point Cloud Data file format
VERSION 0.7
FIELDS x y z
SIZE 4 4 4
TYPE F F F
COUNT 1 1 1
WIDTH 350
HEIGHT 1
VIEWPOINT 0 0 0 1 0 0 0
POINTS 350
DATA ascii
-2.0001359 0.75483602 -0.31222901
-1.976768 0.75553203 -0.299503
-1.981833 0.739241 -0.28079399
-1.95995 0.75665301 -0.28215399
-1.954514 0.76950997 -0.284913
-2.0025589 0.73694801 -0.27769399
-1.981251 0.75271398 -0.27749899
-2.002552 0.74877602 -0.27284399
-1.933774 0.76231998 -0.27039301
-1.936942 0.77297902 -0.26851901
-2.0066071 0.73052299 -0.25224599
-1.944386 0.739263 -0.251129
-1.9580621 0.73871499 -0.24048799
-1.906222 0.79290199 -0.24055301
-1.971917 0.725501 -0.23725501
-1.926401 0.74807799 -0.23542801
-1.970083 0.721156 -0.230111
-1.949687 0.72341299 -0.23316
-1.919412 0.72882098 -0.231351
-1.979073 0.73423302 -0.233669
-1.925128 0.74024099 -0.232311
-1.9904799 0.71889901 -0.227061
-1.992641 0.72083002 -0.229151
-1.9016089 0.76598299 -0.22549701
-1.907568 0.73931402 -0.22196899
-1.895457 0.74607199 -0.22006699
-1.903044 0.80593199 -0.222194
-1.948361 0.73479998 -0.21586899
-1.902504 0.75629503 -0.21890301
-1.922332 0.76131099 -0.217393
-1.981903 0.71548998 -0.211069
-1.929751 0.72235698 -0.212384
-1.92867 0.72913301 -0.21166
-1.968758 0.73254299 -0.212819
-1.9162869 0.74162799 -0.21330599
-1.9505219 0.71851599 -0.207845
-1.989154 0.730286 -0.209769
-1.9371181 0.73718399 -0.20654599
-1.879881 0.77234799 -0.205495
-1.897539 0.779217 -0.207462
-2.0027339 0.71104699 -0.204308
-1.971294 0.71467602 -0.20330501
-1.949214 0.72450203 -0.20362601
-1.913087 0.72356099 -0.20434199
-1.892333 0.75887799 -0.202023
-1.900826 0.768475 -0.200918
-1.899865 0.81896198 -0.203835
-1.887512 0.83040702 -0.204667
-1.902151 0.858181 -0.201878
-1.905583 0.91829801 -0.20037401
-1.969758 0.71987098 -0.195592
-1.957948 0.732741 -0.19978499
-1.9073139 0.73827702 -0.19908801
-1.967432 0.74392998 -0.195528
-1.947036 0.74618697 -0.198578
-1.918263 0.77454501 -0.199358
-1.9065861 0.78643203 -0.199525
-1.994029 0.71460497 -0.192239
-1.928086 0.73443598 -0.194548
-1.891536 0.73709702 -0.19021299
-1.8713 0.73933601 -0.193239
-1.924636 0.74225301 -0.193781
-1.942716 0.76073003 -0.191763
-1.8845201 0.76434499 -0.19043601
-1.981498 0.76914799 -0.192692
-1.911772 0.73485798 -0.187187
-1.9451801 0.73762202 -0.185747
-1.9339941 0.749991 -0.188502
-1.878202 0.78452897 -0.18751
-1.89347 0.79245102 -0.189428
-1.896686 0.83199197 -0.18547601
-1.861353 0.93499601 -0.188621
-1.9755059 0.69715399 -0.183787
-1.90565 0.75035697 -0.181252
-1.9457099 0.75757402 -0.18128701
-1.899147 0.78065598 -0.182933
-1.914193 0.78777897 -0.18132401
-1.903435 0.79934901 -0.18132401
-1.9136569 0.80756098 -0.18002699
-1.892535 0.81146598 -0.184643
-1.900429 0.87067503 -0.183431
-1.911393 0.90027797 -0.18204901
-1.960983 0.71420902 -0.177708
-1.932654 0.71675301 -0.17510299
-1.992714 0.72590202 -0.17508399
-1.972478 0.72814101 -0.17811
-1.965724 0.73299098 -0.17771301
-1.895924 0.740125 -0.17992599
-1.920602 0.75537199 -0.17590199
-1.920092 0.77678299 -0.17835601
-1.980161 0.78062701 -0.175262
-1.934779 0.80365598 -0.175411
-1.8486069 0.923702 -0.17607801
-1.971604 0.70130801 -0.172344
-1.953254 0.71294397 -0.1706
-1.947193 0.74267602 -0.17217299
-1.9104559 0.74615502 -0.17003199
-1.890221 0.74839401 -0.173058
-1.930869 0.76279801 -0.170458
-1.941038 0.77291101 -0.173778
-1.883195 0.77573198 -0.173145
-1.924446 0.79486698 -0.174505
-1.9559 0.79975098 -0.17079499
-1.8965859 0.80120498 -0.170129
-1.855741 0.89111298 -0.174374
-1.82955 0.89573997 -0.170568
-1.870277 0.91969597 -0.171343
-1.973855 0.709135 -0.166098
-1.9372309 0.73131299 -0.16652
-1.941146 0.750741 -0.167868
-1.961983 0.76903802 -0.169201
-1.945457 0.79038501 -0.167686
-1.890843 0.82375002 -0.16650601
-1.893507 0.84502202 -0.167117
-1.903218 0.85579401 -0.167162
-1.877224 0.88714099 -0.169679
-1.850001 0.89448601 -0.168612
-1.811052 0.911551 -0.165317
-1.991972 0.69671702 -0.164379
-1.971163 0.739438 -0.160955
-1.892826 0.752823 -0.162036
-1.9517 0.75835401 -0.163697
-1.944384 0.76896203 -0.163995
-1.9101239 0.80101299 -0.163289
-1.9002841 0.81226701 -0.163124
-1.9119641 0.81984401 -0.16189
-1.914701 0.84050101 -0.160238
-1.905399 0.85124397 -0.16343001
-1.818488 0.87938499 -0.16376001
-1.917114 0.88256198 -0.164033
-1.898708 0.883169 -0.164984
-1.9639519 0.69597799 -0.15599
-1.9616899 0.74611002 -0.159835
-1.888906 0.759691 -0.155903
-1.985178 0.76444799 -0.157896
-1.916567 0.76849198 -0.158023
-1.930847 0.79634202 -0.155185
-1.921294 0.80778497 -0.156305
-1.8746901 0.81495798 -0.155773
-1.933086 0.81593901 -0.15727399
-1.852544 0.90131599 -0.155624
-1.967605 0.714315 -0.15461899
-1.951604 0.72492403 -0.15291101
-1.982234 0.74147898 -0.15180101
-1.9091409 0.75745201 -0.152877
-1.960304 0.78121901 -0.151216
-1.902266 0.78486198 -0.152804
-1.954208 0.81203401 -0.152658
-1.89525 0.81268299 -0.15269899
-1.8755029 0.89963502 -0.151232
-1.984432 0.69160903 -0.149344
-1.987973 0.70972401 -0.14665399
-1.972204 0.72111499 -0.14840899
-1.987071 0.74707502 -0.14525799
-1.9663 0.75091499 -0.14979701
-1.937111 0.763861 -0.14999001
-1.997086 0.76909399 -0.148908
-1.948576 0.77116102 -0.14565299
-1.942305 0.80330199 -0.14948601
-1.915809 0.810408 -0.149625
-1.903692 0.86363101 -0.14513899
-2.0049109 0.68724102 -0.14269701
-1.9984601 0.68803602 -0.14259
-1.940401 0.71293801 -0.144897
-1.976114 0.72378403 -0.14392
-2.0027781 0.736848 -0.143767
-1.990083 0.74849701 -0.140775
-1.957656 0.75923002 -0.141956
-2.0021939 0.77347398 -0.142061
-1.983852 0.77583498 -0.140604
-1.963455 0.77809203 -0.143654
-1.963316 0.79882002 -0.142667
-1.910272 0.83212799 -0.14375401
-1.911523 0.853531 -0.14187901
-2.0253911 0.682872 -0.13605
-2.018893 0.68425798 -0.138124
-2.0083399 0.70513201 -0.138689
-1.96088 0.70856899 -0.13824999
-2.0233221 0.73221701 -0.13573299
-1.9078259 0.76875001 -0.13572299
-2.0042491 0.77357799 -0.137554
-1.972294 0.78699899 -0.13897701
-1.918143 0.82070202 -0.13810401
-1.893913 0.82416099 -0.13527
-1.931394 0.82822299 -0.139138
-1.858711 0.88374901 -0.137982
-1.961814 0.678478 -0.132706
-1.98136 0.70420003 -0.131604
-1.964635 0.762995 -0.131961
-1.928062 0.76651102 -0.132697
-1.933077 0.77697998 -0.132111
-1.993017 0.78232801 -0.13087399
-1.958626 0.79339999 -0.133231
-1.939154 0.81621999 -0.131285
-1.952515 0.82431698 -0.13452201
-1.9144731 0.821886 -0.132195
-1.907531 0.85026199 -0.131954
-1.900502 0.879125 -0.131734
-1.880684 0.87995797 -0.131504
-1.996823 0.69991899 -0.125045
-1.97639 0.70369601 -0.12951
-1.991154 0.72928703 -0.12621699
-1.9373291 0.72552902 -0.127157
-1.998744 0.74996799 -0.125888
-1.96213 0.78947902 -0.12636299
-1.9475009 0.80490398 -0.12904701
-1.973637 0.82041198 -0.129905
-1.908579 0.84441102 -0.125617
-1.928257 0.847969 -0.128855
-1.901985 0.876019 -0.126849
-2.0018401 0.69983202 -0.124957
-1.957809 0.72115999 -0.12051
-1.951689 0.752303 -0.124035
-2.0061779 0.75531399 -0.122882
-1.966282 0.77952302 -0.120848
-2.002923 0.78496599 -0.120263
-1.9825259 0.78722203 -0.123313
-1.968224 0.80023301 -0.120943
-1.960165 0.81173801 -0.124466
-1.976153 0.81506199 -0.122973
-1.929701 0.84050602 -0.121001
-1.923286 0.87208098 -0.122193
-2.0098929 0.68689001 -0.116162
-2.02232 0.695463 -0.11831
-1.926747 0.77780801 -0.115542
-1.9065109 0.780047 -0.118568
-1.920011 0.80537999 -0.115171
-1.996713 0.812787 -0.119898
-1.914992 0.83362001 -0.119904
-1.950822 0.83660102 -0.116385
-1.978289 0.71679097 -0.113863
-1.962971 0.77507502 -0.114125
-1.988948 0.79556102 -0.112839
-1.977892 0.80170798 -0.110668
-1.943432 0.818138 -0.111012
-1.936003 0.82913703 -0.113085
-1.971944 0.83269602 -0.111769
-1.933697 0.83108997 -0.111691
-1.906184 0.86183298 -0.114384
-1.9200391 0.88847899 -0.110895
-1.8991441 0.890791 -0.114019
-2.000725 0.68277001 -0.106444
-1.996977 0.71211147 -0.107358
-1.994709 0.76308697 -0.108009
-2.004514 0.76739401 -0.105046
-1.983742 0.77123398 -0.109586
-1.957014 0.824655 -0.106266
-1.993066 0.82879001 -0.107153
-1.974817 0.82653999 -0.105543
-1.89083 0.85101902 -0.108523
-1.9409339 0.88616699 -0.10777
-2.019248 0.70805401 -0.10057
-2.0003409 0.73114598 -0.103238
-1.9547369 0.733751 -0.10277
-2.0101039 0.737459 -0.104025
-1.963158 0.79233003 -0.102804
-2.0015969 0.79635298 -0.102972
-1.964155 0.81346703 -0.102908
-1.995376 0.824265 -0.102469
-1.91184 0.84653699 -0.101704
-1.971926 0.85299802 -0.102884
-1.928008 0.85278898 -0.102864
-1.921579 0.88446897 -0.103903
-2.005928 0.69978601 -0.098587997
-1.975217 0.72938198 -0.096123002
-2.0343039 0.73467898 -0.097222
-2.015254 0.75845599 -0.099976003
-1.969245 0.76059502 -0.099440999
-2.0303941 0.786219 -0.096630998
-1.983988 0.78788602 -0.096042998
-1.925431 0.789105 -0.098387003
-2.0159359 0.82199001 -0.099394001
-1.911801 0.84484297 -0.097336002
-1.9491301 0.84888399 -0.098247997
-1.94288 0.88053 -0.099247001
-1.99611 0.67508298 -0.094609998
-1.989899 0.75618899 -0.092738003
-1.990675 0.77620697 -0.090131
-1.982078 0.78331399 -0.091750003
-1.9848779 0.80879498 -0.094803996
-1.939082 0.81450999 -0.094829999
-1.970252 0.84497899 -0.093631998
-1.932606 0.8423115 -0.094572999
-1.887678 0.86393702 -0.090322003
-1.94629 0.86881799 -0.090614997
-1.9991 0.69455701 -0.089041002
-1.995697 0.72501302 -0.089475997
-2.0084541 0.749439 -0.086336002
-2.0028491 0.77947301 -0.08721
-2.0048189 0.78344297 -0.089282997
-2.0056009 0.804124 -0.0867
-1.997159 0.81001598 -0.088105999
-1.97348 0.838018 -0.088113002
-1.9913729 0.84107399 -0.089015998
-2.0019619 0.71268302 -0.081013002
-2.0181041 0.80614299 -0.083527997
-1.9600331 0.80513698 -0.084760003
-1.9748729 0.83309102 -0.081246004
-2.012495 0.83716899 -0.084399998
-1.908689 0.85945499 -0.083503
-1.947437 0.86116803 -0.080112003
-1.968747 0.86602801 -0.084524997
-2.0167091 0.73956198 -0.077547997
-1.980809 0.82202899 -0.076769002
-1.937757 0.82589698 -0.077538997
-1.9297 0.85497302 -0.076683998
-1.989941 0.861507 -0.077646002
-1.997476 0.706343 -0.071636997
-1.992625 0.73760402 -0.071736
-1.97855 0.82138401 -0.071438998
-1.9958839 0.82860798 -0.074427001
-1.972144 0.84949702 -0.070683002
-1.989681 0.85335702 -0.070880003
-2.006803 0.76142001 -0.068646997
-2.0164261 0.81832403 -0.065543003
-2.0015321 0.81735802 -0.068664998
-1.998946 0.81912702 -0.068388999
-1.9560159 0.83993399 -0.066838004
-1.992704 0.84722197 -0.067608997
-2.007185 0.78469503 -0.064218
-2.021956 0.78771299 -0.064834997
-1.96305 0.78599 -0.063658997
-1.951912 0.84212297 -0.061291002
-2.0127101 0.75256902 -0.059822999
-1.983704 0.78158402 -0.056956001
-1.992733 0.84152597 -0.056226999
-1.926549 0.86789 -0.058483999
-1.986763 0.87453699 -0.059287
-1.995298 0.71932501 -0.05108
-1.989553 0.75019503 -0.053996
-1.99857 0.80905598 -0.053195
-1.94756 0.86340803 -0.051665001
-2.0031509 0.79781502 -0.046339002
-1.986482 0.76278597 -0.036256
-1.977084 0.81955302 -0.038242001
-1.989581 0.85444403 -0.038026001
-2.0023804 0.78762853 -0.032815002
-1.990065 0.75137198 -0.028287999
-1.977428 0.72816497 -0.024169
-1.981249 0.80116999 -0.020081
-1.96698 0.80224502 -0.024778999
-1.9775079 0.80698001 -0.021174001
-2.0018499 0.79736102 -0.015578
-1.980343 0.79618001 -0.014612
-1.995083 0.824054 -0.010581
-1.958998 0.81695902 -0.0068939999
-1.980338 0.78796798 -0.00077500002
-1.956787 0.804928 0.010318
-1.947196 0.784558 0.023923
-1.95976 0.78608602 0.030289
