# .PCD v0.7 - Point Cloud Data file format
VERSION 0.7
FIELDS x y z
SIZE 4 4 4
TYPE F F F
COUNT 1 1 1
WIDTH 534
HEIGHT 1
VIEWPOINT 0 0 0 1 0 0 0
POINTS 534
DATA ascii
-1.707743 0.455901 0.33767
-1.728258 0.52169198 0.33939499
-1.716612 0.45617101 0.34162101
-1.718451 0.47082701 0.342408
-1.708604 0.49048299 0.342702
-1.729949 0.52083099 0.344657
-1.739987 0.54544997 0.34449399
-1.721884 0.449375 0.346394
-1.6990499 0.44949001 0.34603801
-1.749101 0.53367102 0.34714401
-1.698349 0.44273999 0.35245901
-1.714433 0.461198 0.35113901
-1.71788 0.49875101 0.350052
-1.721249 0.51492798 0.35353699
-1.68127 0.45484701 0.355198
-1.700094 0.45695001 0.356231
-1.718003 0.46551901 0.35993901
-1.712651 0.47217101 0.355313
-1.7125189 0.48765749 0.356969
-1.727819 0.497935 0.35875401
-1.726112 0.53719401 0.35851899
-1.712864 0.43946001 0.36491099
-1.666995 0.43687999 0.36425
-1.704832 0.44000301 0.360715
-1.72966 0.45369199 0.36421299
-1.700083 0.45604801 0.36168399
-1.685761 0.45686701 0.36094201
-1.695182 0.46048 0.36062199
-1.718262 0.46517 0.36398199
-1.71066 0.47729301 0.36477301
-1.6767451 0.475216 0.361884
-1.696228 0.48671299 0.36239901
-1.705966 0.49192101 0.36452901
-1.744228 0.54973602 0.360744
-1.681096 0.43589801 0.36743301
-1.676075 0.438016 0.36897099
-1.7054321 0.44364899 0.36695999
-1.686506 0.442568 0.36711001
-1.67264 0.44044 0.368195
-1.714904 0.45457301 0.365733
-1.7018681 0.45168599 0.36944899
-1.693639 0.458956 0.36508101
-1.727892 0.464735 0.36841199
-1.701696 0.46029201 0.36575201
-1.679945 0.46445799 0.369389
-1.698769 0.46730801 0.36644399
-1.694829 0.47172001 0.369313
-1.675033 0.47614601 0.367365
-1.701326 0.49312299 0.367028
-1.717557 0.51537597 0.36938101
-1.689327 0.43411699 0.370482
-1.702924 0.439533 0.370698
-1.733301 0.45820299 0.37303999
-1.704214 0.45954201 0.373696
-1.690874 0.45540601 0.37330601
-1.696472 0.461402 0.373
-1.68348 0.46266499 0.37333101
-1.7131965 0.48155648 0.372531
-1.729389 0.539235 0.374277
-1.6877739 0.43426701 0.379107
-1.681934 0.43077099 0.37572101
-1.69821 0.44225201 0.37794301
-1.697618 0.44621301 0.37689799
-1.7081065 0.45240098 0.3785755
-1.661818 0.450113 0.37803999
-1.733536 0.45876199 0.37702399
-1.7258869 0.46978599 0.377848
-1.695089 0.46796501 0.37610099
-1.7115464 0.47182602 0.37720299
-1.691314 0.47147 0.37520701
-1.688929 0.475171 0.377702
-1.7135071 0.48084599 0.377251
-1.7065721 0.480488 0.37896699
-1.6944849 0.48523 0.378546
-1.7068861 0.49338701 0.37840801
-1.691412 0.49380499 0.37867799
-1.757457 0.55636001 0.37541801
-1.682848 0.438889 0.380458
-1.700266 0.44118899 0.380485
-1.702639 0.445739 0.383434
-1.702207 0.45413899 0.381255
-1.698728 0.45644599 0.38432601
-1.767532 0.46203899 0.38020399
-1.723931 0.480735 0.38210401
-1.705546 0.489499 0.38174999
-1.6887965 0.486285 0.38340402
-1.722899 0.494275 0.381868
-1.7036896 0.50273049 0.38161051
-1.727149 0.50656801 0.38066301
-1.705655 0.50814003 0.38384399
-1.72219 0.51943702 0.38201299
-1.716537 0.52780598 0.383425
-1.711032 0.539303 0.38302901
-1.7205991 0.55512798 0.38439301
-1.698819 0.43357301 0.38883501
-1.711357 0.43855301 0.38871101
-1.703531 0.43693 0.38633999
-1.676757 0.444004 0.38951099
-1.77001 0.450679 0.38647601
-1.710667 0.46235499 0.386134
-1.6883889 0.46559301 0.38766
-1.682555 0.46833101 0.389126
-1.729421 0.474347 0.38658601
-1.7004009 0.475748 0.38690799
-1.687446 0.48245999 0.38979101
-1.707733 0.49308699 0.38618201
-1.710242 0.497807 0.38703001
-1.705453 0.49822 0.38689399
-1.739192 0.50656903 0.38576701
-1.716172 0.511365 0.38747799
-1.7019925 0.51102245 0.38711649
-1.702907 0.42809501 0.390019
-1.699982 0.43212101 0.392966
-1.715729 0.43562099 0.39044401
-1.712484 0.437915 0.39127651
-1.6903729 0.43994001 0.392869
-1.7460949 0.440575 0.393231
-1.7239754 0.44743001 0.39166951
-1.708162 0.447083 0.39208701
-1.740045 0.45020601 0.394705
-1.693382 0.45701551 0.39115149
-1.704959 0.46205801 0.393038
-1.704059 0.46914601 0.39108899
-1.687892 0.466573 0.39442301
-1.728781 0.47443801 0.390293
-1.7066931 0.48709801 0.39184001
-1.715955 0.49921 0.39037901
-1.7154419 0.50169498 0.390315
-1.722355 0.52237201 0.394041
-1.6910599 0.52951598 0.39447999
-1.726965 0.533566 0.39329001
-1.706959 0.42776999 0.397111
-1.722994 0.43390799 0.39999801
-1.728001 0.43548399 0.39771301
-1.705498 0.44107899 0.395926
-1.700631 0.443183 0.39653701
-1.734633 0.445411 0.39980799
-1.7579091 0.45037201 0.39556301
-1.713976 0.45022601 0.39532101
-1.7099431 0.45248201 0.39916399
-1.678964 0.45014599 0.39500701
-1.698168 0.45720699 0.39782599
-1.698981 0.46462801 0.39555001
-1.693717 0.46928799 0.39853999
-1.751827 0.47316501 0.399744
-1.703728 0.47778499 0.397632
-1.684087 0.497502 0.39917299
-1.697462 0.50348002 0.396054
-1.718727 0.50571501 0.396734
-1.7005661 0.52118099 0.398278
-1.696296 0.52595901 0.399317
-1.706879 0.54267102 0.397825
-1.705924 0.55149102 0.39777499
-1.695496 0.427928 0.40437299
-1.726514 0.43190101 0.401766
-1.703599 0.43141499 0.40084299
-1.694935 0.44483 0.403384
-1.710771 0.44745001 0.404755
-1.69945 0.44812301 0.40088499
-1.7077425 0.45308751 0.40241051
-1.715407 0.460926 0.40197301
-1.744055 0.46803099 0.40333501
-1.705673 0.474271 0.40055099
-1.6886489 0.471264 0.40260398
-1.708613 0.47817099 0.40385801
-1.70321 0.476289 0.401344
-1.685904 0.47578099 0.402013
-1.708813 0.48470399 0.401701
-1.693823 0.48062399 0.40138099
-1.699349 0.48536199 0.40371099
-1.7048 0.49190399 0.40394801
-1.7028921 0.50404251 0.40284002
-1.68727 0.50291401 0.40390101
-1.668825 0.500251 0.40144399
-1.7021821 0.50885701 0.401389
-1.710658 0.512752 0.40449101
-1.706362 0.513951 0.400576
-1.711598 0.51803398 0.403635
-1.698211 0.52241403 0.40296799
-1.7167211 0.57416898 0.40371001
-1.709075 0.44911301 0.40662801
-1.6890661 0.44942501 0.406874
-1.733128 0.452557 0.40606901
-1.7256171 0.457605 0.40952101
-1.696849 0.45925799 0.40964201
-1.7201231 0.463824 0.405065
-1.7089649 0.46306899 0.40953499
-1.702945 0.460417 0.40598199
-1.7076869 0.46733201 0.4084985
-1.72001 0.47310901 0.40547299
-1.7065949 0.480874 0.409962
-1.700292 0.492109 0.407673
-1.747798 0.49997699 0.407846
-1.7177241 0.49765652 0.40817401
-1.718838 0.50510198 0.407902
-1.7160295 0.5138005 0.40946501
-1.694908 0.51901501 0.40555999
-1.733739 0.52809602 0.40894401
-1.693152 0.53398502 0.40597501
-1.726874 0.54455501 0.40720001
-1.7087311 0.54435903 0.40949899
-1.706962 0.56076998 0.40908399
-1.711581 0.57317603 0.40735799
-1.687407 0.57076401 0.40938899
-1.708807 0.42824101 0.410357
-1.726235 0.44188201 0.41471401
-1.703247 0.44360399 0.41052499
-1.725533 0.445602 0.41196999
-1.722442 0.44803199 0.41471401
-1.705376 0.44640899 0.41043901
-1.7008049 0.45361999 0.41398799
-1.721251 0.46866199 0.410584
-1.703212 0.470815 0.414606
-1.7408381 0.48317599 0.413232
-1.714362 0.483284 0.41106299
-1.705834 0.48029801 0.41314301
-1.69986 0.48877501 0.41221601
-1.6668479 0.489503 0.41098899
-1.7202359 0.49031001 0.41370401
-1.699468 0.49225301 0.41486701
-1.7112319 0.51358199 0.41412199
-1.693566 0.51454902 0.41074401
-1.726916 0.517766 0.41229701
-1.714555 0.517156 0.41160101
-1.664753 0.51638198 0.41439199
-1.6973 0.52234101 0.41016799
-1.695477 0.53422099 0.41271099
-1.70583 0.54080701 0.412076
-1.6920285 0.54210049 0.41246
-1.690679 0.54520798 0.412783
-1.70154 0.55631799 0.412047
-1.704499 0.41726801 0.41802901
-1.692036 0.423408 0.41554099
-1.7010731 0.43346801 0.417456
-1.696355 0.430217 0.41990599
-1.737998 0.44037801 0.417568
-1.69916 0.44279999 0.41513199
-1.723416 0.44607499 0.41539899
-1.718608 0.44781899 0.41650099
-1.721709 0.46025699 0.41817701
-1.6901489 0.462742 0.41554299
-1.702978 0.46614701 0.41614199
-1.716496 0.486716 0.416172
-1.6829785 0.48609298 0.41662598
-1.692499 0.490235 0.41557199
-1.694639 0.50157702 0.41633299
-1.725945 0.50650001 0.41622901
-1.719272 0.50579101 0.41683301
-1.6986843 0.51849264 0.41640767
-1.7053601 0.52629298 0.41860199
-1.699244 0.52787501 0.417061
-1.706033 0.53555602 0.41674799
-1.699019 0.53995597 0.415243
-1.70673 0.55768299 0.418322
-1.7020199 0.56564051 0.41783601
-1.711574 0.58644998 0.418569
-1.712057 0.41556799 0.42460099
-1.701597 0.42241701 0.42377999
-1.6985739 0.42901799 0.42305899
-1.714856 0.43765101 0.42411101
-1.7116475 0.45321101 0.42323399
-1.704069 0.45589501 0.424445
-1.699535 0.459438 0.42393899
-1.687758 0.458911 0.42087999
-1.731812 0.46210501 0.420167
-1.699091 0.46191299 0.424319
-1.703954 0.47591099 0.423749
-1.693068 0.47533301 0.42274699
-1.7161421 0.484099 0.420057
-1.702747 0.49688599 0.423397
-1.7284091 0.50548899 0.42024201
-1.7025729 0.50951302 0.421821
-1.693266 0.505943 0.42262501
-1.7427289 0.51207203 0.422481
-1.7147011 0.51109701 0.42456901
-1.694369 0.51057303 0.42089301
-1.715567 0.51573902 0.422398
-1.710961 0.527906 0.42387599
-1.695958 0.53207999 0.424548
-1.678985 0.53388399 0.423866
-1.7131619 0.54604602 0.42148101
-1.716749 0.55794102 0.422782
-1.713919 0.55763 0.42379701
-1.704528 0.55588502 0.424476
-1.7092 0.56074399 0.42161399
-1.702203 0.56516403 0.422066
-1.715814 0.447644 0.42726699
-1.708407 0.44918099 0.42945299
-1.694327 0.449871 0.42889699
-1.694721 0.45418501 0.42941999
-1.7230639 0.45572001 0.42622599
-1.71837 0.46416301 0.427661
-1.696133 0.469706 0.42650801
-1.697427 0.47021601 0.42826799
-1.68768 0.47286001 0.42979899
-1.7324229 0.479424 0.427899
-1.727008 0.47782299 0.42623201
-1.697661 0.47772399 0.42708799
-1.742077 0.48106799 0.42640701
-1.714571 0.48480701 0.427836
-1.69914 0.48694599 0.42755401
-1.695992 0.49976501 0.42680001
-1.741232 0.50024801 0.427968
-1.716095 0.50166702 0.428462
-1.707985 0.501095 0.426388
-1.689929 0.51779199 0.42895401
-1.659561 0.52010602 0.42570201
-1.721846 0.52986199 0.42693099
-1.7103831 0.528597 0.426467
-1.707262 0.52508801 0.42899299
-1.694122 0.52799797 0.42999601
-1.68967 0.52561897 0.42543301
-1.722334 0.551319 0.42957401
-1.70183 0.55239803 0.427057
-1.688496 0.55507803 0.42713001
-1.6962 0.569965 0.42626899
-1.7276289 0.58066899 0.428909
-1.697755 0.58104497 0.42981499
-1.719865 0.63006598 0.428743
-1.699632 0.42716599 0.43284899
-1.729611 0.47331199 0.430484
-1.714079 0.47468799 0.43067601
-1.721748 0.47514701 0.43041399
-1.708956 0.48190501 0.430563
-1.73315 0.489948 0.43121701
-1.743664 0.49941501 0.43373701
-1.7123647 0.49626398 0.43260065
-1.7077 0.49678999 0.43337399
-1.729795 0.51056302 0.431826
-1.713764 0.51291698 0.431108
-1.720647 0.52004099 0.43034101
-1.714518 0.52146697 0.430103
-1.689105 0.525343 0.43397501
-1.695641 0.53013003 0.430379
-1.700063 0.53983498 0.43271399
-1.703658 0.54425901 0.43219599
-1.69449 0.54355103 0.43033099
-1.701602 0.57082498 0.432868
-1.693327 0.57363999 0.43068799
-1.699085 0.577232 0.43352699
-1.707864 0.594257 0.431615
-1.687784 0.592049 0.43440601
-1.706426 0.59873098 0.43342799
-1.709985 0.60674 0.43402699
-1.7254471 0.61057901 0.43155
-1.697731 0.438032 0.43714201
-1.702443 0.44893399 0.438557
-1.701069 0.451482 0.437235
-1.680789 0.471398 0.43797201
-1.7170944 0.4895615 0.43781751
-1.698943 0.488754 0.43796301
-1.697503 0.49261999 0.43609801
-1.732319 0.49644801 0.437031
-1.718857 0.502101 0.436957
-1.723586 0.51965499 0.43755499
-1.7027055 0.51824403 0.43785298
-1.690764 0.51620001 0.43707699
-1.755165 0.524387 0.43795201
-1.726444 0.52159101 0.43504
-1.710164 0.52273399 0.439174
-1.712296 0.526375 0.43689299
-1.694616 0.54181898 0.43892699
-1.704657 0.549775 0.43637601
-1.705615 0.55097097 0.43684399
-1.701138 0.55023199 0.43811899
-1.768339 0.55978 0.438301
-1.7099659 0.56886101 0.43870199
-1.700325 0.56740999 0.43945199
-1.706645 0.571217 0.43636999
-1.698886 0.57595199 0.43676701
-1.719682 0.61891598 0.437062
-1.7173049 0.62194598 0.43968701
-1.691875 0.459921 0.44305801
-1.703138 0.46202999 0.44085899
-1.712201 0.46865401 0.44489399
-1.690282 0.46557 0.44370899
-1.712763 0.484236 0.44477299
-1.7140729 0.48908499 0.44147599
-1.740752 0.490679 0.44059801
-1.728555 0.49041399 0.44248301
-1.715531 0.49604899 0.441964
-1.69253 0.49545801 0.44210401
-1.711954 0.51302397 0.44321901
-1.7062535 0.51220453 0.44241649
-1.692124 0.510755 0.44138399
-1.709658 0.52917999 0.44416201
-1.71535 0.53358299 0.44445199
-1.7020415 0.53658348 0.44367301
-1.716776 0.54195797 0.44156599
-1.706212 0.54003698 0.441333
-1.748615 0.54646701 0.44330499
-1.689736 0.55922699 0.44360101
-1.717206 0.56446099 0.44411901
-1.69837 0.56229854 0.44347948
-1.687977 0.56481701 0.44173601
-1.722481 0.59294999 0.44376799
-1.7094955 0.59645301 0.44182152
-1.69208 0.61440402 0.442009
-1.703254 0.619295 0.44317499
-1.713884 0.48293501 0.44748601
-1.704372 0.48439899 0.44880199
-1.707391 0.50624001 0.44839549
-1.72184 0.51421201 0.44554099
-1.726207 0.51747 0.44835201
-1.704438 0.519885 0.446309
-1.721356 0.53463101 0.44947299
-1.702173 0.53197902 0.44802099
-1.694765 0.55337602 0.44682601
-1.727574 0.56439197 0.44778901
-1.704837 0.56169999 0.44542101
-1.696474 0.58396697 0.447413
-1.689374 0.58487099 0.44559199
-1.710955 0.589867 0.44629601
-1.708872 0.58629203 0.44886601
-1.7031831 0.58558899 0.44755399
-1.7045929 0.62186599 0.44742399
-1.693866 0.45364699 0.450504
-1.710225 0.496425 0.45355701
-1.711553 0.50504303 0.452407
-1.715609 0.51266301 0.45135099
-1.716542 0.52578598 0.454027
-1.70035 0.52798301 0.454963
-1.699906 0.528862 0.45039099
-1.691685 0.52694899 0.45263299
-1.7196161 0.53116202 0.45242599
-1.705627 0.53437102 0.45377901
-1.709026 0.53701198 0.451388
-1.716593 0.54473001 0.45054999
-1.712324 0.553478 0.454779
-1.71086 0.55714798 0.45004001
-1.7012041 0.56159049 0.45126551
-1.695832 0.56511903 0.451305
-1.706268 0.57731199 0.45232099
-1.715189 0.581846 0.45200601
-1.706014 0.58009303 0.45360601
-1.70409 0.581689 0.45112601
-1.707806 0.60799098 0.45334899
-1.699634 0.60711902 0.452402
-1.7167929 0.612351 0.45160201
-1.705204 0.611628 0.45495
-1.6790529 0.456799 0.45874199
-1.711448 0.49378401 0.45887101
-1.711588 0.499273 0.45582899
-1.733178 0.52271003 0.457663
-1.707812 0.52438098 0.457977
-1.704945 0.52289802 0.45694399
-1.730637 0.52733099 0.456191
-1.718573 0.52727002 0.455919
-1.725682 0.53325701 0.457901
-1.7100365 0.54779255 0.45776552
-1.699322 0.54810101 0.45873499
-1.70204 0.55147803 0.4562
-1.73281 0.55809599 0.45537001
-1.721125 0.57805598 0.45665401
-1.712078 0.57760203 0.458664
-1.6941611 0.57695502 0.45764601
-1.710762 0.58370101 0.457665
-1.718011 0.60166198 0.45787299
-1.714352 0.60289598 0.45781201
-1.717334 0.60523099 0.458626
-1.7056969 0.60829198 0.45817
-1.727865 0.49074799 0.462459
-1.701797 0.49590001 0.464829
-1.721629 0.51933903 0.462358
-1.715071 0.54331601 0.463487
-1.718384 0.54622102 0.46483201
-1.716248 0.55619597 0.46033499
-1.712588 0.57363898 0.463126
-1.722465 0.57657897 0.46253499
-1.690526 0.580006 0.46449101
-1.6968549 0.59485501 0.46287099
-1.704843 0.59797102 0.46395901
-1.7067209 0.60147899 0.46138501
-1.721609 0.60624498 0.46433499
-1.715209 0.53546101 0.468312
-1.715646 0.54266798 0.46729699
-1.69564 0.54419798 0.467585
-1.686969 0.54250002 0.46579599
-1.705755 0.54764801 0.46588299
-1.7084 0.56462801 0.46957499
-1.700255 0.56849599 0.46991301
-1.727682 0.57123798 0.46991599
-1.710276 0.570108 0.46564499
-1.699028 0.572393 0.466039
-1.713829 0.591717 0.46658099
-1.7020611 0.59132397 0.46851
-1.702636 0.60551 0.46892601
-1.6821311 0.49088499 0.47099501
-1.688964 0.51063401 0.47455999
-1.714507 0.52919698 0.471724
-1.714677 0.53833902 0.470608
-1.722411 0.54389399 0.47239599
-1.693909 0.54942501 0.472473
-1.708679 0.5582 0.471347
-1.726722 0.56463498 0.47426999
-1.704754 0.56066602 0.472675
-1.71857 0.58852798 0.47141001
-1.7069499 0.59074402 0.47321001
-1.657366 0.462033 0.47992501
-1.697125 0.511985 0.47734901
-1.719126 0.52959597 0.47681001
-1.708504 0.53082901 0.47872201
-1.7021199 0.53614402 0.478733
-1.712551 0.553644 0.478039
-1.7142119 0.557661 0.47969899
-1.711677 0.56791902 0.47504801
-1.705981 0.57450497 0.47692099
-1.716336 0.58465898 0.47837299
-1.717357 0.58876699 0.477281
-1.708385 0.58516401 0.478102
-1.668766 0.48566201 0.48430601
-1.713876 0.54513597 0.48259699
-1.702484 0.558285 0.480378
-1.715528 0.56208801 0.48295501
-1.69093 0.56041402 0.480207
-1.704476 0.57577801 0.48437101
-1.722554 0.58437997 0.48446101
-1.706277 0.58170003 0.48062599
-1.695617 0.58363855 0.48190901
-1.718214 0.59996498 0.48145601
-1.710781 0.54940802 0.48529801
-1.7191401 0.55453002 0.486891
-1.7240829 0.564843 0.48938701
-1.707337 0.56793898 0.48572701
-1.7237866 0.57804751 0.48802501
-1.707106 0.579642 0.48976099
-1.700783 0.59111398 0.48885101
-1.716624 0.53985298 0.49126199
-1.710032 0.56397301 0.49259099
-1.699214 0.56892103 0.49487299
-1.720994 0.57103401 0.49232599
-1.717643 0.58799702 0.492535
-1.734502 0.58487999 0.49621999
-1.707512 0.574301 0.50714302
