# .PCD v0.7 - Point Cloud Data file format
VERSION 0.7
FIELDS x y z
SIZE 4 4 4
TYPE F F F
COUNT 1 1 1
WIDTH 1499
HEIGHT 1
VIEWPOINT 0 0 0 1 0 0 0
POINTS 1499
DATA ascii
-0.0112 0.679039 0.26445299
-0.0030400001 0.67783499 0.26413199
0.0060680001 0.67865402 0.262169
0.015221 0.67686599 0.264615
-0.021863 0.68312901 0.262885
-0.0057359999 0.68110299 0.26237199
-0.001202 0.68399602 0.26260599
0.003063 0.68371397 0.26254299
0.010189 0.68207902 0.26084799
-0.024192 0.68762302 0.26182199
-0.013392 0.68591797 0.26375899
-0.021838 0.691194 0.26056299
-0.01452 0.69245303 0.26427501
-0.003704 0.69042897 0.260189
-0.0073790001 0.69674301 0.261365
0.0025515 0.69756103 0.2600635
0.0063689998 0.69804001 0.264323
-0.026078001 0.70301402 0.26228601
-0.0077 0.70263898 0.26360801
-0.0093179997 0.70935899 0.263542
-0.0029734999 0.71232349 0.264294
-0.001467 0.6368475 0.2664555
0.0064539998 0.636374 0.26839399
0.014060499 0.64157951 0.26702499
-0.01394 0.648049 0.26813599
0.0131185 0.64570349 0.26682401
-0.001708 0.65378797 0.269898
4.9999999e-06 0.65448701 0.268592
0.012538999 0.65424001 0.26642001
-0.007611 0.65963101 0.26563999
-0.002385 0.65696645 0.268103
0.00182 0.65674001 0.26901999
0.0114995 0.65704203 0.26544052
0.00040799999 0.66048002 0.26516899
-0.001625 0.66621703 0.26520801
0.0010479999 0.66848898 0.26783901
0.0118215 0.66682947 0.2683585
0.0069929999 0.672207 0.26684701
0.0140145 0.67219996 0.26879197
0.017013 0.67085803 0.266675
0.0025170001 0.67888701 0.26758501
0.010417 0.67856002 0.26830199
-0.011602 0.682926 0.26982999
-0.00097699999 0.68489099 0.267827
-0.007276 0.687114 0.26660499
-0.0044780001 0.68953001 0.26968801
0.0091619994 0.68739802 0.26924598
0.018695001 0.68843502 0.26606199
-0.0040259999 0.69228202 0.269923
-0.019316001 0.69799697 0.26914299
-0.0053059999 0.69910598 0.26622999
-0.002533 0.69780052 0.26541799
0.0031039999 0.69628698 0.266615
-0.0043310001 0.70005399 0.26758301
0.0045380001 0.70202398 0.267014
0.0068299999 0.70451701 0.26522699
-0.0059839999 0.71639699 0.26688501
0.007646 0.632586 0.270125
0.010642 0.63903701 0.271855
-3.9999999e-05 0.64434499 0.27498099
-0.0090319999 0.64599103 0.27459699
0.016334001 0.6494385 0.27165502
0.000894 0.65324098 0.273633
0.0072809998 0.65108597 0.27486199
0.016316 0.65340799 0.27025601
-0.001372 0.65954697 0.27097699
0.001232 0.65959799 0.27292401
0.0058599999 0.65562397 0.27293
0.013228334 0.65765464 0.27369499
0.017003 0.65924102 0.270621
0.0085159997 0.66417497 0.27427199
0.015641 0.66252899 0.27007601
0.022704 0.66173297 0.272562
-0.014729 0.66734201 0.272861
0.013132 0.668212 0.27373299
0.017401 0.66788799 0.27259499
-0.0059449999 0.67438 0.272035
-0.00038400001 0.67382801 0.27346501
0.001252 0.67420805 0.27228498
0.014264001 0.67271197 0.27271402
-0.0083090002 0.679097 0.27022001
-0.001959 0.675632 0.27422401
0.00091599999 0.67648101 0.273992
0.012996 0.68480301 0.271375
-0.0088980002 0.685516 0.27366
-0.0031979999 0.68903798 0.27232301
0.0031085 0.68777847 0.2734355
0.0080065001 0.687307 0.2705915
0.017336499 0.68746549 0.27217799
0.002296 0.692958 0.27252501
0.012091 0.691118 0.274349
-0.0090290001 0.69875801 0.27489001
0.00057700003 0.70395797 0.27335101
0.0043429998 0.70565498 0.27344301
0.014456 0.62158197 0.277109
0.019843999 0.63239199 0.27564099
-0.0023469999 0.64253497 0.27991199
0.022674 0.64143002 0.27687499
0.0096070003 0.65192097 0.27796501
0.023321999 0.65896201 0.275902
-0.00074500003 0.66361499 0.27974701
0.010343 0.66267401 0.27628499
0.028448999 0.66395748 0.278294
-0.00052300002 0.666646 0.27757099
0.0068990001 0.66977102 0.27968299
0.016388999 0.66707802 0.27676299
0.00018800001 0.67085701 0.275186
0.0098200003 0.67357999 0.27804801
0.013996 0.67466998 0.27554399
0.022244001 0.67468899 0.27904099
0.027024001 0.67236298 0.27531001
-0.000741 0.679618 0.27620399
0.00098799996 0.67822897 0.27783701
0.0052450001 0.67506599 0.27755499
0.0132475 0.67733896 0.2781345
0.015249999 0.67769349 0.27790898
0.0021200001 0.68198401 0.276521
0.017131001 0.68167299 0.278449
-0.015498 0.68864 0.27516401
-0.00049200002 0.68858302 0.276829
0.012767499 0.68665802 0.278768
-0.025768001 0.69243097 0.275213
-0.001756 0.69460797 0.27889201
0.0022789999 0.69368201 0.27950701
0.015761999 0.69230402 0.279273
0.0065080002 0.69805402 0.278341
0.0042929999 0.70432699 0.27653599
-0.001212 0.70657402 0.27841699
0.0036510001 0.70748502 0.27608299
0.019415 0.72836798 0.27857199
0.033870999 0.74698597 0.27724099
0.041444 0.753111 0.27868801
0.024390999 0.758358 0.27642101
0.039232001 0.75986803 0.27619901
0.041907001 0.758645 0.27951601
0.028271001 0.61790001 0.283912
0.026341001 0.63186997 0.28392199
0.013859 0.64064002 0.28182501
0.022376999 0.64740145 0.28126749
0.013747 0.65492898 0.28088501
0.03351 0.65268201 0.284385
-0.00077599997 0.65867001 0.28344601
0.027905 0.65503001 0.28166801
0.015478 0.66215402 0.284141
0.026307 0.66461098 0.28390899
0.020085 0.66769201 0.281602
0.032942001 0.6665203 0.28419998
0.0098550003 0.67059797 0.282662
0.0185475 0.67110097 0.283369
0.020051001 0.67482698 0.284307
0.028041 0.67267102 0.281239
0.032691669 0.67108172 0.28287598
0.015585 0.67863899 0.282233
-0.0099790003 0.68333697 0.284208
-0.0046819998 0.683429 0.28417599
0.018293001 0.68138897 0.28163299
0.026908999 0.68227738 0.28170368
0.030562 0.68140602 0.28473401
0.003457 0.686746 0.28277501
0.026196999 0.68936598 0.28084999
0.0046069999 0.69470203 0.28227001
0.0084019993 0.69269848 0.282718
0.0136335 0.693259 0.28249103
0.013 0.69724202 0.283153
0.018356999 0.69644403 0.28184634
0.0020089999 0.70045298 0.28033701
0.016045 0.70290852 0.283804
0.0089769997 0.708857 0.284376
0.026807001 0.72389299 0.28232899
0.021511 0.73191404 0.28194651
0.020912001 0.74448901 0.283196
0.024063 0.75252301 0.283746
0.043306999 0.76038897 0.283865
0.029966 0.810453 0.28054899
0.028848499 0.63654351 0.2879765
0.020865001 0.64494801 0.28705099
0.021352001 0.64691699 0.28635299
0.028108001 0.64519501 0.28615701
0.031723 0.64512098 0.287238
0.03602 0.647452 0.28793699
0.017523 0.65098 0.28531501
0.026262 0.65025997 0.28884399
0.01324 0.65988803 0.286634
0.025784999 0.66194898 0.28667799
0.017123001 0.66827399 0.28850999
0.0259845 0.667898 0.28597403
0.031328 0.66890502 0.287521
0.013577 0.67353201 0.28584501
0.02595 0.67239702 0.28522399
0.033640001 0.67016202 0.286946
-0.018517001 0.67645699 0.285487
0.011516 0.67685503 0.286437
0.020572999 0.67668402 0.285772
0.014396 0.68312001 0.28927299
0.016704001 0.68166602 0.289671
0.021718999 0.68467897 0.28574201
0.030503999 0.68291903 0.28983799
-0.0029655001 0.68804151 0.28990149
0.0104375 0.68841952 0.28715599
0.019662 0.687985 0.28686249
0.026439 0.68518603 0.28991699
0.014009 0.69197702 0.28662801
0.018244 0.69064599 0.28964999
0.034255002 0.69089001 0.288948
-0.0044550002 0.70219302 0.28863999
0.027448 0.70372099 0.288598
0.0061659999 0.70794803 0.28940701
0.021252999 0.71166903 0.28957799
0.026199 0.71074498 0.287186
0.031514 0.723212 0.28721401
0.0095140003 0.73779303 0.286966
0.026543999 0.743635 0.28732401
0.031752001 0.74947202 0.28881899
0.041271001 0.74970102 0.28912899
0.021222999 0.75102401 0.28636101
0.036639001 0.75313902 0.28516901
0.047975998 0.750467 0.287267
0.038198002 0.75614703 0.286686
0.049896002 0.75504798 0.28948599
0.021302 0.76418698 0.287781
0.044851001 0.76184899 0.289655
0.020085 0.76810199 0.28826499
0.043772001 0.778898 0.28560901
0.030832 0.782812 0.28722501
0.047704998 0.78070599 0.28513601
0.033999 0.78978699 0.287792
0.029976999 0.79495603 0.28988999
0.059726998 0.86655998 0.28716901
0.020385001 0.53441298 0.292656
0.024629001 0.544756 0.29133901
0.034564 0.59990102 0.293859
0.029265 0.61401498 0.29245201
0.037446 0.61378503 0.29451901
0.031932998 0.622504 0.29080552
0.036221001 0.62018198 0.29482099
0.035144001 0.63875997 0.29266599
0.038403999 0.64411497 0.29034701
0.029647 0.650527 0.29411599
0.016039001 0.65540898 0.29456401
0.040107001 0.65594298 0.293136
0.021669 0.665564 0.29109901
0.027541999 0.66693151 0.29265648
0.030276 0.66514099 0.29023299
-0.0045329998 0.67273003 0.29237401
0.036607001 0.67155302 0.293015
0.0028649999 0.678729 0.29185599
0.012624 0.679407 0.29147601
0.034320999 0.67776704 0.29281199
0.036543 0.67870599 0.29351652
0.022373499 0.68299699 0.2939485
0.025807001 0.68030399 0.29055199
0.016767999 0.68583202 0.29168499
0.026799001 0.69011998 0.29435599
0.032175999 0.69042951 0.29305702
0.0090020001 0.69555902 0.291177
0.0276745 0.6983825 0.29303002
0.02073 0.70592201 0.29261601
0.035518002 0.70939499 0.29382101
0.026767001 0.710235 0.29427001
0.0037430001 0.71855998 0.29295
0.029243 0.71940798 0.29163799
0.041744001 0.73322302 0.29355201
0.01737 0.74118501 0.293825
0.039067999 0.74076003 0.291908
0.03466 0.74682301 0.29482299
0.054046001 0.748272 0.29383701
0.035969 0.75497597 0.290613
0.0091439998 0.75761998 0.29199001
0.042569999 0.75997502 0.29460999
0.047587998 0.75607699 0.29171401
0.055268001 0.75714898 0.29307801
0.056595001 0.762492 0.29389301
0.036421999 0.77722901 0.29318899
0.054596998 0.77675551 0.29349449
0.021679999 0.78408301 0.292445
0.048937999 0.79131699 0.29319099
0.030649001 0.79961699 0.29382601
0.036669001 0.79621798 0.29460499
0.060279001 0.804048 0.29460001
0.062334999 0.84967101 0.29267401
0.069709003 0.862046 0.293338
0.069050997 0.873263 0.293129
0.026496001 0.60897201 0.29778001
0.041880999 0.60948801 0.29996401
0.034527998 0.617872 0.298792
0.042273998 0.620179 0.29843399
0.029044 0.63232899 0.297268
0.041356001 0.63287997 0.29773799
0.029376 0.63759899 0.295066
0.03162 0.63976699 0.296011
0.036297999 0.63960099 0.299905
0.042017002 0.64465201 0.298632
0.024788 0.64570099 0.29572201
0.043200001 0.64838803 0.299016
0.035018999 0.653512 0.295903
0.028921001 0.656856 0.29976499
0.036900498 0.65728652 0.296399
0.043083001 0.65974402 0.29552701
0.024426 0.66296703 0.29897201
0.033482999 0.66052997 0.299537
0.035595998 0.66123599 0.29643801
0.040042002 0.66240001 0.295589
0.030950001 0.66982001 0.29969099
0.015709 0.67412001 0.299503
0.029185001 0.67300099 0.29678699
0.035344001 0.67387301 0.29565001
0.017472999 0.679685 0.29686701
0.025684999 0.67802501 0.29950199
0.032271668 0.67678601 0.29703602
0.0092590004 0.68251199 0.29790199
0.021819999 0.683267 0.29593199
0.022684 0.68533701 0.29796401
0.029742001 0.68513602 0.296819
0.037285 0.68590897 0.29885501
0.021638 0.69377702 0.29546699
0.0064249998 0.69695199 0.29770401
0.012009 0.69919997 0.29635599
0.035905 0.697451 0.29839599
0.04008 0.70219201 0.29900399
0.038414001 0.70644099 0.298013
0.044317 0.70995402 0.29823399
0.038086999 0.71869999 0.29717401
0.015991 0.72142398 0.298199
0.054014001 0.72678202 0.299247
0.05012 0.73378199 0.29585499
0.047088999 0.75290751 0.29632401
0.053321499 0.75396347 0.29612899
0.032506 0.758789 0.29711601
0.032331999 0.76288301 0.297012
0.049986999 0.76240301 0.29779401
0.037319999 0.76626998 0.299077
0.052203998 0.76531851 0.29819649
0.064025998 0.77590197 0.29941201
0.052444998 0.78391498 0.299649
0.043467999 0.790115 0.297923
0.037420001 0.79854798 0.29960999
0.052869 0.80288899 0.29927999
0.067051999 0.80849397 0.29723901
0.035512999 0.81289101 0.29661801
0.066719003 0.81490701 0.29872701
0.064992003 0.819516 0.29856399
0.065369003 0.81817901 0.29956999
0.052205 0.82374197 0.29988399
0.042534001 0.82612801 0.299207
0.063723996 0.85932899 0.29986301
0.046450999 0.86132598 0.29617199
0.033245001 0.54869503 0.30391201
0.035987999 0.57621801 0.301166
0.039726999 0.60503697 0.30493999
0.044672001 0.60853398 0.30487099
0.041859001 0.61637402 0.30049801
0.032322001 0.62328398 0.30291399
0.038343001 0.62322199 0.303188
0.028595001 0.63277102 0.301314
0.044488002 0.63365901 0.30252701
0.034513999 0.63610297 0.303749
0.047325 0.63922799 0.30393499
0.048349336 0.64251965 0.30223268
0.023992 0.64599502 0.30122
0.028806999 0.650828 0.30216599
0.032067001 0.65819502 0.30050099
0.049288999 0.656075 0.30309999
0.051771998 0.65919298 0.30410701
0.037856001 0.66062802 0.30044001
0.0440595 0.6631515 0.30299401
0.036658 0.66551101 0.30419201
0.041219998 0.66805297 0.304472
0.038123503 0.67250502 0.30196601
0.011003 0.67608303 0.30164501
0.026898 0.67639703 0.30396399
0.036239497 0.67708498 0.30075049
0.026248001 0.68459302 0.30356401
0.041703999 0.68094701 0.300863
0.038506001 0.68817902 0.30367401
0.015860001 0.690467 0.303644
0.030909 0.69177997 0.302405
0.014315 0.70000499 0.30205399
0.015616 0.73954201 0.301487
0.044233002 0.74357897 0.302241
0.034511 0.74918801 0.303451
0.042219002 0.74939901 0.30313399
0.041595999 0.75082499 0.30407599
0.064585 0.75065202 0.303123
0.044268999 0.75839001 0.300358
0.056536 0.75862801 0.302526
0.062595002 0.75823498 0.30250999
0.048700001 0.763219 0.30006599
0.050646 0.76476598 0.30324301
0.065843999 0.76409298 0.30135
0.034639001 0.76674998 0.30001301
0.047191754 0.77198297 0.30163425
0.052244999 0.77259701 0.30107701
0.056430999 0.77116299 0.30097201
0.067864999 0.771936 0.30453101
0.032951001 0.77865398 0.30183601
0.042647 0.77647698 0.300565
0.062465999 0.77649599 0.304214
0.017099001 0.78093898 0.30421501
0.032717999 0.78301698 0.302046
0.049435999 0.78221649 0.30312651
0.067501999 0.78143799 0.30457601
0.049881998 0.78828597 0.30398601
0.057505999 0.78540701 0.30382201
0.065600999 0.78664601 0.301489
0.065546997 0.79341102 0.30233201
0.064120002 0.79864502 0.30051801
0.021338001 0.81221199 0.30223301
0.054997999 0.81396502 0.303067
0.063446 0.81449002 0.30343801
0.039386999 0.81723601 0.304138
0.055337999 0.819718 0.30214
0.065017998 0.83690703 0.30138201
0.066225 0.86444998 0.30305001
0.038454 0.54269099 0.30537301
0.047977999 0.60735202 0.308052
0.046895999 0.613258 0.306658
0.052552 0.61122298 0.309407
0.054446999 0.62074202 0.30915701
0.0423695 0.62669504 0.30887598
0.051481999 0.63765299 0.30931699
0.032051999 0.64042199 0.30612999
0.037891001 0.64229101 0.30806401
0.051183999 0.64226103 0.308777
0.050280001 0.64612597 0.306871
0.043730497 0.65233803 0.3080115
0.047270998 0.655397 0.306979
0.048774999 0.66071802 0.30693799
0.053244002 0.66210049 0.307567
0.046025001 0.66810101 0.30661699
0.019246999 0.67256701 0.30745599
0.040332001 0.67062801 0.30899799
0.021849001 0.67781502 0.30590999
0.039901 0.67964 0.307531
0.031282 0.68458402 0.30985299
0.037985001 0.68246299 0.307356
0.044096 0.68106747 0.3079755
0.045596998 0.68160802 0.309838
0.035456501 0.68569946 0.30627352
0.027952 0.69594997 0.309434
0.034299999 0.698493 0.309257
0.049888998 0.69721001 0.308799
0.044362001 0.70619798 0.30556199
0.023411 0.71603101 0.30882999
0.030952999 0.72659302 0.306748
0.018541001 0.74224901 0.30727401
0.040557001 0.74046999 0.30676499
0.053599 0.742697 0.30572301
0.028429 0.74675101 0.305507
0.012945 0.75038701 0.30617899
0.070795998 0.752437 0.30971101
0.025877001 0.75580603 0.30651599
0.036821 0.76729751 0.30769402
0.053599998 0.77163798 0.30741799
0.059593 0.77118099 0.30512199
0.049635999 0.78001797 0.30593699
0.052657001 0.782929 0.307724
0.027511001 0.78754902 0.309917
0.034596 0.78687501 0.305305
0.058313001 0.78922701 0.305325
0.061170999 0.78897798 0.309499
0.053312 0.79335797 0.30767
0.055566002 0.79465699 0.30801001
0.068271004 0.79060698 0.30597299
0.033193 0.799281 0.30862299
0.042899001 0.79812098 0.30781901
0.04806 0.79757655 0.30753702
0.062307999 0.79503202 0.30586699
0.069196999 0.79887801 0.307908
0.032063998 0.803949 0.30800402
0.065572001 0.80108398 0.30873299
0.053624999 0.81114697 0.305033
0.055397999 0.813411 0.30810899
0.062176999 0.81368101 0.30761001
0.051380001 0.81866503 0.307329
0.072345003 0.81539202 0.30937999
0.030811001 0.82139999 0.30706799
0.068663001 0.82889998 0.30834299
0.036265001 0.83445501 0.307073
0.064025 0.83338702 0.30530301
0.055188999 0.83666903 0.30832601
0.055895999 0.840756 0.307307
0.027141999 0.85028797 0.308101
0.073459506 0.86198848 0.30833799
0.025624 0.86552602 0.30556199
0.041621 0.86510599 0.305251
0.047102001 0.55138803 0.31165701
0.050648 0.59570998 0.314482
0.052956998 0.60110199 0.31210101
0.037919 0.61828703 0.31192201
0.037610002 0.625866 0.311086
0.041452002 0.62876302 0.31206101
0.048119001 0.62654197 0.313209
0.053480498 0.62898201 0.31316
0.057029333 0.62800068 0.31244868
0.046955001 0.63146102 0.31166199
0.052820001 0.63363999 0.314298
0.054857001 0.635782 0.31344
0.055178002 0.63874203 0.31253499
0.039533 0.64196098 0.311185
0.053683002 0.642362 0.31330001
0.055399999 0.640127 0.31457499
0.060499001 0.64137203 0.31437299
0.033247001 0.64877403 0.312938
0.040711999 0.64625102 0.31448701
0.051107001 0.65048403 0.31197101
0.022512 0.65739346 0.31401849
0.050730001 0.65900099 0.31063399
0.051907998 0.66338664 0.31126168
0.027184501 0.66801548 0.31148952
0.044705 0.66998798 0.310496
0.047724999 0.66933298 0.31175399
0.054793 0.66915202 0.31253701
0.042198002 0.67154753 0.31237149
0.047224998 0.67174 0.31004599
0.030781999 0.67686403 0.31314802
0.050326999 0.67906499 0.31208301
0.0215795 0.683011 0.31304598
0.030355999 0.68497801 0.31025299
0.039104 0.68237102 0.311028
0.049989 0.68284702 0.31401199
0.042737 0.688362 0.31485799
0.054076999 0.69408399 0.31380099
0.056357998 0.71047097 0.313373
0.048994001 0.72362697 0.310473
0.057225998 0.73135298 0.31030801
0.030469 0.74693298 0.31172401
0.046721999 0.75393498 0.310931
0.052712001 0.75389802 0.31102201
0.058052 0.75670201 0.31132299
0.047265999 0.76707798 0.31158701
0.065247998 0.77442998 0.31155699
0.072065003 0.77046299 0.31183201
0.025885999 0.77521002 0.31063399
0.051665001 0.77932602 0.311589
0.037918001 0.78434801 0.31156501
0.028472001 0.78865802 0.312996
0.045832999 0.78521299 0.31191701
0.073371999 0.78859502 0.31404799
0.052756 0.79154497 0.31023899
0.042697001 0.79882997 0.31000301
0.060061 0.79572499 0.31265101
0.071374997 0.801292 0.314291
0.034561999 0.80727798 0.31064501
0.062756002 0.80704498 0.31387401
0.052412 0.81350601 0.31175601
0.046833001 0.818443 0.31290001
0.067469999 0.81898803 0.31289199
0.016802 0.82164598 0.314899
0.033549 0.82413501 0.31223801
0.066148996 0.82748699 0.31123301
0.062922999 0.83485001 0.31133199
0.053872 0.85203397 0.31006801
0.054765001 0.85574198 0.310123
0.046289999 0.52967399 0.31961799
0.054838002 0.58170801 0.31626099
0.051897999 0.60328299 0.31522399
0.048787002 0.60963303 0.31756401
0.035914999 0.61411703 0.31697401
0.050535999 0.61375999 0.31943399
0.057944 0.61271602 0.31653801
0.052621 0.619829 0.31690601
0.051840499 0.62156749 0.31824899
0.060658 0.62257802 0.31791201
0.061191 0.62527001 0.31518599
0.059356999 0.63009697 0.31655201
0.061427999 0.63133198 0.31622601
0.038533501 0.63588548 0.31669497
0.030246999 0.64497697 0.31566399
0.042817 0.64770699 0.31765899
0.05382175 0.64758098 0.31778249
0.039032001 0.652354 0.319897
0.054481 0.65251303 0.31524101
0.065177001 0.65104401 0.31837001
0.048517 0.65546203 0.316708
0.0407735 0.663261 0.31801498
0.033289999 0.66844201 0.318205
0.053861331 0.66888267 0.31638166
0.054386001 0.67269403 0.315992
0.0420205 0.68222749 0.31870601
0.053200498 0.68093956 0.31586549
0.049423002 0.685754 0.315669
0.046805002 0.691616 0.31595999
0.036428001 0.69596398 0.31956899
0.059964001 0.70923698 0.31811801
0.047619998 0.75298798 0.319713
0.057078 0.75161302 0.31558999
0.049210999 0.764292 0.31962001
0.06188 0.761298 0.318041
0.043175001 0.76737499 0.31542301
0.067307003 0.76775497 0.317321
0.050572999 0.77290702 0.31904799
0.044585001 0.78483897 0.31842801
0.048776001 0.78485298 0.316001
0.057213001 0.780873 0.31704101
0.035208002 0.78840798 0.31818399
0.039395999 0.79417998 0.31632999
0.053458001 0.79711002 0.31566301
0.061499 0.79796302 0.316677
0.039662998 0.802158 0.31573999
0.047667999 0.80343997 0.31637001
0.055906001 0.80193001 0.31902999
0.045630999 0.80913699 0.31752849
0.052136 0.809273 0.316259
0.058685999 0.805399 0.31637201
0.072732002 0.80793601 0.31793401
0.070795 0.81388998 0.317599
0.056736 0.81998599 0.316762
0.057102002 0.82327652 0.31832349
0.064874999 0.82436699 0.31618801
0.071829997 0.82013297 0.31586599
0.034538001 0.82796502 0.316037
0.042516001 0.82612503 0.31593499
0.046218 0.82902199 0.317577
0.038830001 0.83202398 0.31983799
0.045139998 0.83200097 0.31695101
0.052510001 0.83438498 0.317177
0.064411506 0.84398901 0.3183195
0.033955 0.845043 0.317453
0.064540997 0.853513 0.31577501
0.064585999 0.86253899 0.319695
0.068323001 0.86049199 0.319718
0.063079 0.599711 0.32142299
0.064475998 0.61119097 0.32337999
0.053489 0.615444 0.32151899
0.063826002 0.62319052 0.322988
0.048415001 0.62854499 0.322465
0.062041 0.62765503 0.32067701
0.067055002 0.62557799 0.32374099
0.035477001 0.63292199 0.32180801
0.050441001 0.63207299 0.32440999
0.063318998 0.63485903 0.32013601
0.067233004 0.63188201 0.32062101
0.051513001 0.63744801 0.32187501
0.060362 0.636307 0.32390001
0.042688001 0.64033598 0.32357699
0.052457001 0.64124697 0.32287601
0.057498999 0.64539403 0.32250401
0.062505499 0.64802051 0.32278949
0.034125999 0.65135002 0.32061401
0.054450002 0.65218401 0.32288301
0.056683 0.65058899 0.32398999
0.063354 0.65109903 0.32326901
0.037563998 0.65515101 0.32186899
0.054154001 0.66483003 0.320467
0.060374498 0.6622625 0.322092
0.047853999 0.667804 0.32417899
0.052774999 0.66609597 0.32051301
0.066970997 0.66976202 0.324108
0.056221001 0.67379302 0.32156399
0.068526998 0.67465699 0.321821
0.057813 0.67910999 0.32096699
0.039062999 0.681229 0.32489699
0.041292001 0.68156499 0.32212901
0.054327 0.68328798 0.32456601
0.061432999 0.68113899 0.324673
0.060339 0.70576799 0.320344
0.030483 0.74135298 0.322501
0.026466001 0.75646698 0.32436001
0.056008 0.763686 0.32459801
0.061632998 0.76674998 0.32022199
0.014068 0.771339 0.324972
0.062885001 0.784863 0.322483
0.049963001 0.78934002 0.32418701
0.060320001 0.786084 0.322263
0.042938001 0.79414898 0.32226101
0.050232999 0.79092902 0.32109901
0.023994001 0.79866201 0.32415599
0.059576999 0.79634601 0.32447201
0.042094 0.80486602 0.32490799
0.046032999 0.80240202 0.32153499
0.064126998 0.80325001 0.32470199
0.062615 0.80604303 0.32148099
0.045325998 0.81373698 0.320871
0.054832999 0.81996 0.324837
0.061806001 0.81614202 0.324734
0.049527001 0.82185298 0.32089001
0.051826 0.82112497 0.32488701
0.056439001 0.82066298 0.32096401
0.074428 0.82769203 0.32304847
0.043189 0.838503 0.32414001
0.069187 0.83664703 0.32059401
0.029093999 0.84390402 0.32424399
0.038874 0.84131002 0.32132801
0.076181002 0.84364301 0.32468799
0.034522001 0.84893602 0.321486
0.038547002 0.851246 0.32163
0.067823999 0.85002899 0.32253799
0.070393004 0.85438299 0.32307601
0.068228997 0.85655099 0.322137
0.056549001 0.515571 0.32634699
0.058235001 0.525217 0.32721499
0.055626001 0.53823 0.32579699
0.059301 0.58206201 0.328852
0.062638 0.58767599 0.32645899
0.063152999 0.60923302 0.326947
0.059803002 0.61367202 0.326327
0.068787999 0.61320299 0.327389
0.057009 0.61625051 0.32764101
0.063369997 0.62341601 0.329972
0.071236998 0.62035 0.326525
0.048787002 0.62896299 0.32901099
0.068402998 0.62794501 0.32588899
0.055302002 0.63328701 0.32713801
0.062649503 0.63104099 0.32646549
0.075225003 0.633582 0.32813701
0.045086 0.63565701 0.32616201
0.056637 0.63628697 0.32732201
0.062578 0.63967699 0.32854801
0.066675 0.63971901 0.328852
0.063943498 0.64199799 0.32693949
0.068837002 0.643457 0.329065
0.048025001 0.64764601 0.32745901
0.053576 0.64920902 0.328022
0.060942002 0.64777499 0.32710299
0.025978999 0.65385097 0.32757899
0.035048999 0.651995 0.32666999
0.050331999 0.65056902 0.32947099
0.074028999 0.65244102 0.32919601
0.042707 0.65877599 0.32873699
0.049403001 0.65737498 0.329236
0.052414998 0.65864253 0.32672548
0.057244334 0.66184032 0.32536235
0.064410999 0.66120201 0.32537699
0.046220001 0.66970301 0.32924399
0.058463998 0.66706097 0.32822201
0.065466002 0.66566998 0.32863
0.033631001 0.67066401 0.32565999
0.056170002 0.670367 0.32832101
0.054155 0.67918998 0.32755101
0.057898998 0.67821902 0.325194
0.051325999 0.68765098 0.32512
0.058210999 0.68830502 0.326334
0.068792 0.688743 0.32989401
0.071180999 0.703058 0.326056
0.051201999 0.76303601 0.32861301
0.060557 0.76052803 0.32545799
0.042909 0.76811498 0.325194
0.070928998 0.77639699 0.32777801
0.049621001 0.781721 0.32997701
0.051789999 0.79359001 0.327292
0.045786999 0.79768503 0.32767001
0.052786998 0.80124801 0.32992801
0.056883998 0.805897 0.32669199
0.063507006 0.8071965 0.32887951
0.043957502 0.81138897 0.3264775
0.036905002 0.81779301 0.327557
0.046266001 0.81639498 0.32965001
0.048971001 0.82043099 0.32681701
0.063633002 0.82128602 0.32908699
0.043577999 0.828224 0.32679901
0.059164502 0.83208001 0.32917601
0.060456999 0.83445501 0.325766
0.046509001 0.83969402 0.326419
0.053382002 0.83954 0.329429
0.062185999 0.83524501 0.326307
0.047658999 0.84270698 0.32567999
0.066656999 0.84060597 0.32923001
0.034557998 0.84635597 0.32746801
0.039182998 0.845074 0.32907501
0.076006003 0.84766799 0.32790101
0.058991998 0.85148197 0.32830799
0.061767001 0.85410899 0.32651001
0.064079002 0.50826901 0.33488801
0.059117001 0.59624398 0.33173701
0.071413003 0.60020798 0.330881
0.075769 0.60470599 0.33445901
0.058997001 0.60894603 0.33264899
0.067387998 0.61285102 0.33423501
0.070041999 0.61444098 0.33269599
0.067015998 0.61945301 0.33464
0.071908504 0.61779547 0.33321297
0.069412 0.62379497 0.33418101
0.074524 0.624659 0.330551
0.075871997 0.62155002 0.334699
0.068842001 0.62924302 0.33054999
0.070166998 0.62881899 0.330111
0.076481 0.62593597 0.33326799
0.058816001 0.63214099 0.33233801
0.060017001 0.63290101 0.331597
0.066248998 0.63246602 0.33043599
0.074070498 0.63014853 0.33387351
0.077203996 0.63056898 0.334425
0.055128001 0.63569403 0.33149001
0.063179001 0.63981402 0.33301899
0.047386497 0.6475305 0.33213753
0.066278502 0.64786851 0.33167851
0.064194001 0.65465498 0.331781
0.041990001 0.656344 0.33137101
0.045219 0.655173 0.33144
0.051617 0.65838552 0.33166748
0.058098 0.65527803 0.33301499
0.063782498 0.65846801 0.3319535
0.068439998 0.65698701 0.33346999
0.070635997 0.661515 0.33447999
0.047614999 0.66693699 0.33254701
0.063348003 0.66866201 0.332333
0.074133001 0.66895503 0.33239299
0.034630001 0.67133999 0.33156201
0.036989 0.67429399 0.330823
0.058716498 0.67223352 0.33297649
0.059542 0.675843 0.33073899
0.073270999 0.683487 0.33364701
0.063511997 0.69334102 0.330143
0.071405999 0.69035798 0.330836
0.039395001 0.789464 0.33379301
0.013736 0.79153001 0.33024201
0.049809001 0.79153001 0.33285999
0.072913997 0.79367501 0.33158901
0.030997001 0.79775798 0.33089
0.053583 0.79949701 0.33318299
0.059838001 0.79828399 0.332232
0.063835002 0.79509503 0.33223501
0.049346998 0.80972201 0.334966
0.067746997 0.81340599 0.333698
0.041849501 0.82408053 0.33220601
0.035804 0.82938898 0.33372301
0.046725497 0.82733154 0.33241951
0.050674997 0.82765251 0.33226851
0.032474998 0.83123302 0.334075
0.052749 0.830688 0.332371
0.057530999 0.83064699 0.33341399
0.064874999 0.83479297 0.332362
0.038702998 0.83645803 0.33212
0.052094001 0.83805901 0.33412299
0.065309003 0.83920902 0.332528
0.047915999 0.84393901 0.33000401
0.062509499 0.84381998 0.33395201
0.048597001 0.84768701 0.333947
0.065324001 0.84604502 0.334714
0.034582999 0.85083997 0.33427799
0.050177999 0.853414 0.334409
0.058304999 0.85165799 0.33065799
0.064608999 0.85333401 0.33450899
0.067333996 0.85351098 0.330257
0.045403 0.85507703 0.33235699
0.064043999 0.525199 0.339793
0.072398998 0.55622202 0.33583
0.070010997 0.58602399 0.33599201
0.072765999 0.59260702 0.338458
0.058848001 0.59670198 0.33842099
0.071355999 0.60099202 0.339261
0.078762002 0.60763198 0.33956599
0.058797002 0.614923 0.336723
0.069689997 0.610412 0.33781299
0.079269998 0.61296099 0.33954901
0.080536999 0.61407602 0.33638299
0.059190001 0.61803198 0.33890399
0.078359 0.61622202 0.336272
0.082506001 0.61769855 0.33841348
0.074033998 0.62489998 0.335785
0.077780999 0.62305599 0.33769801
0.081738003 0.62186801 0.339486
0.059517998 0.62713403 0.33762401
0.070293002 0.62503803 0.336844
0.077546999 0.626477 0.33803099
0.080688 0.62519997 0.33868
0.067394003 0.6310305 0.33722001
0.071897998 0.63404649 0.33677551
0.078817502 0.63141596 0.33735251
0.067751005 0.636545 0.33918551
0.073110498 0.63677454 0.33784801
0.071319997 0.64168799 0.33987501
0.078162 0.64370102 0.338404
0.058683999 0.64950597 0.335747
0.0735965 0.64784503 0.3376925
0.079607002 0.64676797 0.339715
0.055220999 0.65410602 0.33669701
0.060231 0.652282 0.33757851
0.077101998 0.65465301 0.338557
0.0631795 0.65698147 0.3357895
0.069586001 0.65959197 0.339867
0.076301999 0.659805 0.336124
0.067775004 0.662009 0.33502099
0.070184 0.66157597 0.33680299
0.048101 0.66733402 0.33885199
0.059013002 0.66974801 0.33848301
0.066164002 0.67129099 0.33614001
0.061705001 0.675345 0.33702701
0.069650002 0.67789698 0.33868799
0.022462999 0.766002 0.336997
0.059629999 0.77232897 0.33505499
0.052830502 0.80329651 0.338411
0.040856998 0.80753398 0.338305
0.067971997 0.80847001 0.33699399
0.055341002 0.811566 0.33875799
0.061328001 0.81739652 0.33582699
0.065962002 0.81697798 0.339405
0.049141999 0.8275125 0.3377575
0.037885502 0.83350253 0.33595899
0.052108001 0.83123201 0.335224
0.039152998 0.83561999 0.33737999
0.048772998 0.84390497 0.33952901
0.062772997 0.841546 0.33864099
0.035895001 0.84973598 0.33807299
0.043230001 0.8477695 0.33850348
0.046673 0.84744 0.335356
0.050055001 0.84847802 0.33630401
0.057347 0.84966701 0.33524901
0.070317 0.85087299 0.33832401
0.081552997 0.58110601 0.344235
0.078677997 0.59492898 0.34128901
0.070606001 0.60399997 0.34094
0.079755001 0.60823703 0.34210101
0.082606494 0.61381745 0.34156948
0.058563001 0.615327 0.343328
0.071627997 0.61999297 0.34460199
0.083048999 0.61604297 0.340949
0.072979003 0.62249702 0.34316501
0.07632 0.62423801 0.34012899
0.070366003 0.62858897 0.34250101
0.083368495 0.62588298 0.34216648
0.058487002 0.63386798 0.34174201
0.068857998 0.63423502 0.34353399
0.078061 0.63198602 0.34195051
0.082494996 0.63063198 0.34084001
0.059147 0.63637 0.34399599
0.083042502 0.63599449 0.34293401
0.061829001 0.64403099 0.34116301
0.069741003 0.64099997 0.34305701
0.071823001 0.643812 0.342583
0.076981001 0.64002502 0.34120899
0.060072001 0.64558601 0.34262201
0.073700003 0.64640403 0.34118599
0.078495003 0.6488235 0.3401725
0.083981998 0.649526 0.34406999
0.073053002 0.65451401 0.34041101
0.075066 0.65284997 0.342713
0.051752001 0.65829003 0.34146899
0.056998 0.65812802 0.34196201
0.069645002 0.65777898 0.34485599
0.073775001 0.65807402 0.34198299
0.076224498 0.65791297 0.34330499
0.063051 0.66464299 0.34226599
0.079861 0.66164601 0.34362599
0.058704 0.66950399 0.340168
0.077536494 0.66666752 0.3422085
0.065371998 0.67367899 0.34131199
0.078457996 0.67212999 0.34185499
0.014699 0.79856902 0.34149
0.040966999 0.80643302 0.340754
0.057202999 0.80965298 0.34217799
0.058423001 0.82826799 0.344522
0.036261 0.83398902 0.343463
0.042160999 0.83321202 0.34266099
0.054437 0.83477497 0.34036699
0.067524001 0.83471203 0.34262401
0.054818001 0.83900303 0.34417
0.055971 0.83952302 0.34385201
0.062957004 0.83766299 0.34022099
0.028627001 0.84118003 0.344163
0.034352999 0.84339702 0.34240299
0.055245999 0.84203202 0.343631
0.041944001 0.84534401 0.343667
0.048593499 0.84551799 0.342244
0.057204001 0.84900749 0.340673
0.068882003 0.84836501 0.34266201
0.076229997 0.52082598 0.34704801
0.079806998 0.53402698 0.34954399
0.078789003 0.542 0.34888601
0.081790999 0.54327703 0.34981099
0.08021 0.54671597 0.34535801
0.083081 0.56120002 0.34736699
0.086414002 0.58896899 0.34517899
0.071999997 0.59279102 0.345539
0.084338002 0.59095502 0.34877399
0.082215004 0.59905303 0.349231
0.086695999 0.60494697 0.34718099
0.080383003 0.60526103 0.34672201
0.071806997 0.61350501 0.346416
0.083791003 0.613958 0.34622499
0.086580999 0.61064798 0.349502
0.081891 0.615659 0.34964001
0.087840997 0.61702299 0.346439
0.071194999 0.622159 0.345963
0.085033 0.62481302 0.34695801
0.085937999 0.62598699 0.34868899
0.078925997 0.63366902 0.34530899
0.082514666 0.63181132 0.34655401
0.085334003 0.63214499 0.346843
0.071915001 0.63926101 0.34998399
0.079738498 0.63606298 0.347754
0.077763997 0.6415 0.34508801
0.088376001 0.64255601 0.347637
0.071036004 0.64695299 0.34726
0.079109497 0.64921749 0.34736049
0.081681997 0.64936399 0.349011
0.083723001 0.65441298 0.34675601
0.040309001 0.65804398 0.34587899
0.064754002 0.65997398 0.34588501
0.074552998 0.65616798 0.34746501
0.068164997 0.667463 0.34865901
0.071512498 0.66756701 0.34654099
0.084463 0.66649801 0.34567401
0.01846 0.77553701 0.34963301
0.035911001 0.78258598 0.349742
0.045513 0.80677003 0.34720501
0.055481002 0.81269199 0.347453
0.015037 0.81867099 0.34647501
0.039105002 0.81516302 0.34747201
0.038977999 0.823322 0.345503
0.036984 0.82571602 0.348813
0.045340002 0.83301699 0.346376
0.020954 0.83557898 0.34864101
0.035603002 0.840123 0.34587201
0.043841001 0.84423 0.347525
0.078414999 0.51673901 0.35179099
0.087315001 0.57674599 0.35128999
0.082754001 0.58842301 0.35207099
0.085152 0.58887899 0.35265699
0.090251997 0.58717901 0.35084301
0.069068 0.60150301 0.35078201
0.090412997 0.60308802 0.354121
0.089754 0.60914803 0.35144901
0.092666 0.60855168 0.35122564
0.071792997 0.61139202 0.35048801
0.088923998 0.61049801 0.35016301
0.091122001 0.61419898 0.350243
0.075512998 0.61705899 0.35394499
0.092637002 0.61772603 0.35404101
0.081119999 0.62340802 0.35146201
0.088334002 0.620112 0.35040799
0.091489501 0.62093246 0.352249
0.095101997 0.62301999 0.35372999
0.071838997 0.63181603 0.35155299
0.083202496 0.6322915 0.35196948
0.085386001 0.63251603 0.35201201
0.091107003 0.63147902 0.35382
0.063302003 0.63992703 0.351318
0.054745 0.64287198 0.354215
0.071817003 0.64058101 0.35100999
0.085185997 0.64109498 0.35023499
0.064778998 0.64599502 0.35261601
0.071707003 0.649885 0.35319301
0.082502 0.64935601 0.35038301
0.079512998 0.65243798 0.352606
0.083736002 0.65111196 0.35486349
0.087338001 0.65008801 0.352613
0.083687 0.66542602 0.35053399
0.087394997 0.67659098 0.353531
0.032825999 0.75091302 0.35189301
0.048797 0.78087699 0.351659
0.017902 0.79633898 0.35489199
0.038662001 0.83660102 0.35283199
0.062063001 0.83847898 0.35356599
0.071176 0.844046 0.35235101
0.088545002 0.533584 0.35930499
0.092670001 0.559726 0.35778201
0.096473999 0.57582498 0.35907301
0.098304003 0.58496797 0.35977399
0.097413003 0.58571702 0.357407
0.087603003 0.59450501 0.35651001
0.093823999 0.59410602 0.35752201
0.082717001 0.59786499 0.357503
0.094520003 0.60263097 0.35514599
0.097113997 0.60297 0.355526
0.083108999 0.607274 0.357425
0.085023001 0.60745698 0.35764799
0.093479998 0.60614902 0.359705
0.097023502 0.60854501 0.35772949
0.084095001 0.61391902 0.35529301
0.097323 0.61105102 0.35512799
0.089488998 0.61862099 0.359862
0.092784002 0.618738 0.35858199
0.096701503 0.61695945 0.35738099
0.068807997 0.62021297 0.355883
0.096616998 0.62103802 0.35656399
0.091202505 0.62657052 0.35593224
0.082649 0.63359201 0.355526
0.085591003 0.63051099 0.35878
0.093561001 0.63329798 0.35701501
0.103827 0.63387299 0.35939699
0.075742997 0.63528502 0.359231
0.083562002 0.63557702 0.35939801
0.090479001 0.637371 0.3554
0.081200004 0.64295697 0.35612851
0.086732998 0.64165199 0.35536599
0.093351997 0.64425898 0.35635099
0.096314996 0.64235002 0.35935399
0.077772997 0.64649099 0.357999
0.091144003 0.64902002 0.35738701
0.096316002 0.64756501 0.35740799
0.106124 0.64984798 0.35845399
0.071000002 0.65239602 0.35621101
0.080131002 0.65049499 0.35798401
0.086742997 0.65149051 0.35725349
0.091647997 0.65094 0.35691699
0.072214998 0.65879899 0.35541201
0.100095 0.655209 0.35632899
0.041655 0.72684699 0.35846999
0.034178 0.83064401 0.357052
0.087705001 0.486956 0.360632
0.089873001 0.53008097 0.36133301
0.094724 0.54602498 0.36023501
0.092794001 0.577335 0.36294499
0.095747001 0.58159 0.36120501
0.102891 0.59440702 0.36250499
0.080398999 0.59970301 0.36066201
0.096716002 0.59757602 0.361471
0.098254003 0.603522 0.36480799
0.10207 0.60354596 0.36221865
0.078133002 0.608289 0.360457
0.103992 0.60989052 0.36363751
0.097494997 0.61309302 0.361182
0.082539 0.61655402 0.362645
0.091875002 0.61822701 0.36042199
0.096229002 0.61519301 0.36278799
0.10356133 0.61834931 0.36301032
0.067980997 0.62047201 0.36252201
0.087447003 0.621916 0.36496899
0.096918002 0.62189573 0.36309874
0.100378 0.62491298 0.36478001
0.083453 0.62631398 0.36287701
0.096944667 0.62642568 0.36157334
0.093552671 0.63423735 0.363377
0.068558998 0.63919002 0.361018
0.086845003 0.63918102 0.36373201
0.090764001 0.63542199 0.36075401
0.101463 0.63897401 0.36141801
0.108421 0.63984001 0.360309
0.091950998 0.644198 0.36035499
0.067686997 0.64992601 0.362367
0.076921999 0.64713401 0.36141101
0.085251004 0.64680099 0.36322799
0.106768 0.64746398 0.36492401
0.069238998 0.65042901 0.36250499
0.084246002 0.654158 0.36457399
0.094270997 0.65642399 0.361312
0.033751 0.83543199 0.36262
0.099803001 0.56269097 0.366804
0.101924 0.577084 0.36686301
0.106461 0.58254999 0.367277
0.098715 0.59663802 0.36650899
0.106883 0.59514499 0.36580399
0.083385997 0.603275 0.368285
0.089741997 0.603342 0.36874801
0.106384 0.60106802 0.36519501
0.111109 0.60386097 0.36894399
0.10370649 0.60651946 0.36646101
0.1078595 0.60731101 0.36726201
0.096758001 0.61225182 0.3676542
0.104455 0.61118698 0.367423
0.080835998 0.61715698 0.36778402
0.1107215 0.61757445 0.367594
0.100954 0.62091601 0.36600599
0.098649003 0.62790698 0.36627501
0.100453 0.62794203 0.36948001
0.092390001 0.634372 0.36849901
0.099559002 0.63077998 0.36691499
0.106177 0.63373297 0.36754
0.082373999 0.635508 0.36782101
0.088118002 0.63872898 0.36997899
0.090681002 0.63676602 0.36935499
0.100478 0.63999498 0.36717901
0.106411 0.63646299 0.36970499
0.083371997 0.641828 0.36837199
0.09804333 0.6434027 0.36827901
0.101707 0.64104998 0.36702999
0.110657 0.64406502 0.369091
0.083812997 0.645621 0.36837199
0.096207999 0.648453 0.369286
0.103739 0.64950401 0.367046
0.087724999 0.65828502 0.36592999
0.099230997 0.65717798 0.36554599
0.103045 0.65736198 0.36929101
0.087591998 0.66019499 0.367412
0.099409997 0.48993599 0.37173501
0.096773997 0.52057999 0.37310901
0.100438 0.57261097 0.373999
0.10716 0.57260633 0.3714073
0.111112 0.57996798 0.37300199
0.092798002 0.58466798 0.37132299
0.095344998 0.58090502 0.37077099
0.100579 0.58045202 0.37188399
0.088877 0.58603197 0.37476301
0.096727997 0.58656901 0.37024301
0.111558 0.58656168 0.37135267
0.094435997 0.59466702 0.37012401
0.101927 0.59324801 0.37009701
0.1083045 0.59824049 0.37110049
0.101938 0.60958499 0.373357
0.1139695 0.6076355 0.37255448
0.115743 0.60602301 0.373447
0.100662 0.61148798 0.370177
0.107327 0.61316103 0.37237301
0.1074675 0.61866152 0.3728615
0.083637998 0.62126601 0.373656
0.090442002 0.62149799 0.37393299
0.1031195 0.62301099 0.37026399
0.112475 0.62153399 0.37373501
0.064168997 0.62955201 0.37455601
0.087601997 0.627774 0.37107101
0.097521663 0.62890798 0.37228099
0.102317 0.62824047 0.37259799
0.111248 0.62848097 0.370029
0.096189 0.63182598 0.37462401
0.10723 0.63330901 0.37209499
0.11224601 0.63417798 0.371889
0.080545001 0.636114 0.37113899
0.098095998 0.63708001 0.37353301
0.100956 0.63750398 0.374327
0.071474999 0.64415902 0.37114599
0.09606 0.64912301 0.37301201
0.102446 0.64876795 0.3722105
0.117179 0.64884597 0.37216601
0.096496001 0.65212899 0.37212101
0.097634003 0.665021 0.370271
0.113318 0.54204398 0.37905899
0.111279 0.55780101 0.375
0.107575 0.57153201 0.377325
0.11573 0.57084298 0.37726599
0.1068635 0.581249 0.378553
0.101662 0.59118801 0.37959099
0.107666 0.59008199 0.37885401
0.095680997 0.59868801 0.37610501
0.101351 0.59839499 0.37704
0.1165265 0.59762651 0.3786225
0.097521 0.60444999 0.375128
0.10952801 0.60172552 0.37700152
0.113606 0.601322 0.37523499
0.101683 0.60788 0.37835699
0.109159 0.608953 0.37565899
0.118484 0.60568601 0.37696901
0.094651997 0.61307901 0.37621498
0.105658 0.61484802 0.37620199
0.10571801 0.61914468 0.37774801
0.110351 0.61578703 0.37592199
0.115029 0.61973798 0.37947601
0.120331 0.6179285 0.3764025
0.101914 0.62499303 0.37804401
0.110159 0.62291199 0.379962
0.10816 0.62922603 0.37932399
0.113791 0.628824 0.37637499
0.103604 0.633995 0.37832201
0.107246 0.63099802 0.377469
0.110846 0.63284302 0.377271
0.083916001 0.63951802 0.379058
0.091280997 0.639741 0.37986401
0.103567 0.63592899 0.37950301
0.105986 0.63823599 0.37865001
0.113685 0.63840503 0.378526
0.108392 0.64289653 0.37722349
0.120735 0.64492297 0.37560299
0.111348 0.50195301 0.384756
0.112576 0.50557399 0.383001
0.108098 0.51611602 0.38051349
0.119607 0.561019 0.382534
0.118462 0.57275403 0.383378
0.121971 0.57012099 0.383398
0.112122 0.57553399 0.380128
0.119933 0.57743597 0.38468501
0.122841 0.57788599 0.38386899
0.101347 0.58155799 0.38218799
0.105611 0.58217001 0.3827
0.107607 0.587668 0.38061199
0.114149 0.587758 0.38277799
0.117047 0.58941001 0.38287899
0.107976 0.59410101 0.38392499
0.112262 0.59288299 0.38111299
0.117238 0.59139299 0.38036001
0.107265 0.599392 0.38365299
0.113332 0.59565598 0.381262
0.122834 0.59840548 0.3813355
0.089001998 0.60395002 0.380018
0.107646 0.60397702 0.38392499
0.11815 0.60261953 0.381338
0.123544 0.60193598 0.38396299
0.1137365 0.60940099 0.38274598
0.11678525 0.60816675 0.38280228
0.124872 0.60776299 0.38287699
0.1192005 0.611889 0.3821165
0.123615 0.61357498 0.383627
0.096005 0.61665201 0.381522
0.102119 0.61652201 0.38227201
0.118272 0.61648971 0.38306865
0.098356999 0.62259299 0.38003099
0.11789849 0.6228655 0.3825435
0.124874 0.62314099 0.38308001
0.077399001 0.62561703 0.38171601
0.111501 0.62789398 0.38209999
0.116537 0.62690997 0.3820245
0.095278002 0.63263398 0.38115099
0.110849 0.63388199 0.380299
0.117055 0.633986 0.38166299
0.122059 0.63204002 0.38117301
0.100381 0.63556701 0.382844
0.110755 0.63925201 0.381697
0.117024 0.64279801 0.38462353
0.11557 0.64747298 0.382346
0.123843 0.64723903 0.384491
0.115671 0.65526003 0.38333699
0.116899 0.55860001 0.38760999
0.119792 0.57178402 0.38631999
0.123664 0.57061601 0.38837099
0.113817 0.57708299 0.389613
0.117994 0.57632399 0.387961
0.120181 0.57948101 0.388004
0.12702399 0.57740998 0.38814101
0.123668 0.584961 0.387611
0.12799366 0.58316499 0.38790402
0.122546 0.58954149 0.38754648
0.112961 0.593449 0.385331
0.123185 0.59393102 0.38733301
0.101545 0.59944999 0.38748601
0.129557 0.59910101 0.38960201
0.106117 0.60091102 0.38817701
0.124929 0.60267001 0.38752899
0.125865 0.60032302 0.38754299
0.131385 0.602467 0.38930899
0.118367 0.60816199 0.38859099
0.125007 0.60954201 0.38911599
0.112305 0.61085999 0.386114
0.119036 0.61107999 0.38564551
0.124036 0.61306 0.38572401
0.109112 0.61741102 0.38899201
0.111934 0.61683798 0.386123
0.124796 0.616606 0.38557801
0.125186 0.61679602 0.38696301
0.089116 0.62204999 0.38535601
0.090630002 0.62168199 0.38887599
0.108536 0.62273997 0.386457
0.1161885 0.62375045 0.38543749
0.135023 0.62389499 0.38966301
0.096288003 0.62679702 0.386531
0.112852 0.62529701 0.38804099
0.125103 0.62881303 0.38891199
0.102923 0.63491201 0.387532
0.113406 0.63284397 0.389281
0.120447 0.63341397 0.38525501
0.110608 0.63892502 0.38710999
0.117093 0.63844401 0.386538
0.125291 0.63911098 0.38629299
0.114144 0.64127302 0.38605601
0.119914 0.64341301 0.38964301
0.119698 0.64615899 0.38642499
0.112624 0.65025598 0.38582799
0.117053 0.50343198 0.393929
0.12597001 0.55502599 0.39167801
0.132015 0.56722301 0.39409399
0.128391 0.57224101 0.39433599
0.116954 0.57676703 0.392759
0.129265 0.57782799 0.39349401
0.113287 0.58208901 0.39112699
0.12242 0.58900797 0.39268351
0.118908 0.59414703 0.39294699
0.12791151 0.591196 0.39283651
0.13219851 0.59441555 0.39292949
0.135304 0.59423703 0.393397
0.103877 0.59910798 0.39081699
0.113355 0.59837002 0.394494
0.120776 0.59820497 0.39351299
0.1270065 0.59923553 0.3927125
0.120902 0.60473198 0.39116201
0.124281 0.60779101 0.392937
0.113795 0.61154699 0.39061201
0.121498 0.61118501 0.39218599
0.13254499 0.61357403 0.39310652
0.101732 0.617522 0.39286801
0.120179 0.61700302 0.394207
0.12646201 0.61675298 0.39275301
0.13223299 0.61814201 0.391399
0.118765 0.62197798 0.39344999
0.12677249 0.62165201 0.39225352
0.091762997 0.62547398 0.39336601
0.104116 0.62889999 0.391078
0.109122 0.62665999 0.39122599
0.113992 0.62616998 0.39045501
0.11860301 0.62746203 0.39245099
0.104143 0.63474399 0.390504
0.119947 0.63278002 0.39492801
0.130632 0.63002503 0.39054999
0.110513 0.63837498 0.39085299
0.113161 0.64176399 0.39155099
0.115695 0.64164603 0.394831
0.129243 0.53960299 0.39727899
0.13627151 0.56655097 0.39778548
0.12745699 0.57190549 0.39692849
0.135022 0.57151997 0.39590701
0.134835 0.57642901 0.39722899
0.13137701 0.58371305 0.39884698
0.116257 0.58627999 0.396936
0.12876301 0.58825803 0.397852
0.1317005 0.58603704 0.398487
0.13599966 0.5872497 0.39730167
0.13736799 0.59296799 0.39865899
0.12706101 0.59708202 0.399037
0.13613833 0.59645563 0.39778599
0.103758 0.602871 0.39570001
0.11813 0.60333002 0.395082
0.13832067 0.60243398 0.3970097
0.12074 0.60742402 0.39725399
0.1273075 0.60604954 0.39735252
0.130962 0.606861 0.39618701
0.120012 0.61452502 0.39532799
0.1323625 0.61295903 0.39813602
0.14048 0.61082602 0.399896
0.10386 0.61774701 0.396036
0.122004 0.61777198 0.39716148
0.127119 0.61504197 0.39619899
0.140866 0.61573303 0.399571
0.102788 0.62244099 0.39633101
0.1147915 0.62257898 0.39604902
0.117591 0.62465501 0.398119
0.12841867 0.62340134 0.39867768
0.13313399 0.62435502 0.39846501
0.123522 0.62658399 0.39658001
0.1272805 0.62564003 0.39724749
0.133715 0.62853402 0.39709201
0.135051 0.627433 0.39926401
0.122672 0.63401198 0.39739701
0.12886 0.63229501 0.399012
0.136078 0.63225549 0.39613751
0.140634 0.630355 0.39646399
0.12648475 0.63766301 0.39713675
0.13947099 0.64546299 0.39786401
0.12917 0.499084 0.40114301
0.13394199 0.56659698 0.40480199
0.138565 0.56773305 0.40324301
0.14134701 0.566423 0.40395299
0.141505 0.57371104 0.40391201
0.14432651 0.57762802 0.40438801
0.129825 0.58266401 0.40361699
0.136751 0.5836935 0.402408
0.1435955 0.58248198 0.40431249
0.109901 0.58578002 0.40143099
0.129601 0.58899599 0.40185601
0.14157601 0.58568102 0.40108901
0.13301751 0.59128654 0.402015
0.136006 0.59198499 0.40042201
0.14178699 0.593126 0.40403599
0.124395 0.59975803 0.40068501
0.1373525 0.59767604 0.40258348
0.114659 0.60363901 0.40353501
0.12859 0.601533 0.400417
0.1367545 0.60210299 0.4011465
0.10314 0.60986 0.40089399
0.1137125 0.61286253 0.40160599
0.11709 0.61381203 0.40319601
0.127529 0.61256897 0.402825
0.13350999 0.61230397 0.401923
0.137154 0.61048198 0.40052199
0.13428199 0.61952198 0.40364301
0.13866 0.61895651 0.40040451
0.10413 0.62085998 0.401232
0.10969 0.62083602 0.401903
0.132957 0.62182897 0.40025201
0.138933 0.62368 0.40003699
0.121238 0.62559301 0.40279701
0.14184199 0.62513298 0.40047601
0.120822 0.63050002 0.40303001
0.128874 0.63028502 0.40057701
0.131688 0.63341701 0.40428299
0.135122 0.63311201 0.404199
0.13935301 0.63767999 0.400956
0.132927 0.48378399 0.40968001
0.137116 0.55915201 0.40502501
0.13925999 0.56607902 0.405678
0.14310201 0.56898999 0.40691
0.12237 0.58130598 0.408856
0.134341 0.58258498 0.408371
0.139364 0.58277398 0.40503699
0.142799 0.584813 0.40972099
0.127507 0.58658099 0.406454
0.13179199 0.58568698 0.40594801
0.14236633 0.58876431 0.40761933
0.13018 0.59128499 0.40505201
0.139567 0.59396499 0.40938199
0.14629 0.59032297 0.40914601
0.123708 0.59765702 0.40560099
0.135519 0.59611601 0.40691701
0.140591 0.59758699 0.40782201
0.129915 0.601107 0.409035
0.13221601 0.60222948 0.40613949
0.13708033 0.60105437 0.40663233
0.141895 0.60099602 0.40746802
0.126966 0.608468 0.407893
0.130621 0.60705 0.406912
0.124065 0.61389297 0.40918699
0.13651651 0.61262 0.407233
0.14601949 0.6127075 0.405754
0.13206799 0.61523199 0.40501699
0.1430915 0.61769855 0.40779948
0.133242 0.62248302 0.409073
0.138283 0.62345397 0.40696299
0.14330034 0.62427402 0.407711
0.147065 0.62026697 0.407491
0.13305099 0.62947702 0.40721199
0.144778 0.626715 0.40503699
0.124675 0.63304198 0.407601
0.13830499 0.63494998 0.40924001
0.124982 0.643341 0.40538099
0.14169 0.51158899 0.41367999
0.140883 0.56278199 0.41062301
0.149893 0.56095701 0.41453701
0.14497299 0.56751198 0.41114101
0.140045 0.57138199 0.41357499
0.148036 0.57434499 0.41445699
0.151742 0.573313 0.41288799
0.1422455 0.57905149 0.41219997
0.1477145 0.57681 0.41259301
