# .PCD v0.7 - Point Cloud Data file format
VERSION 0.7
FIELDS x y z
SIZE 4 4 4
TYPE F F F
COUNT 1 1 1
WIDTH 664
HEIGHT 1
VIEWPOINT 0 0 0 1 0 0 0
POINTS 664
DATA ascii
0.63677698 -0.70182002 1.70935
0.66458303 -0.65153003 1.710966
0.65341002 -0.67649299 1.718805
0.66730601 -0.67565697 1.717687
0.67244703 -0.66809303 1.7196569
0.65262502 -0.66256499 1.719471
0.66652101 -0.66172802 1.718353
0.68041801 -0.660891 1.717236
0.65881598 -0.68223703 1.720064
0.66343302 -0.68108499 1.7202229
0.64945 -0.67630798 1.722847
0.67173648 -0.67771101 1.7230555
0.64396298 -0.67274302 1.724429
0.65778798 -0.67130601 1.723061
0.65859801 -0.66836101 1.720721
0.66393101 -0.666852 1.721123
0.67208397 -0.6679315 1.7220465
0.67713499 -0.66617405 1.7225444
0.64956599 -0.66271198 1.723223
0.65804803 -0.66237801 1.723537
0.66315198 -0.66280901 1.722556
0.67123801 -0.663055 1.724
0.67673701 -0.662907 1.72189
0.65639901 -0.65741998 1.7236249
0.66560298 -0.65958297 1.724898
0.67022401 -0.65598202 1.722257
0.65746748 -0.65269554 1.722952
0.66435498 -0.6534065 1.7212995
0.676943 -0.68528098 1.728254
0.69086599 -0.68501103 1.727185
0.64389998 -0.68061602 1.729359
0.65155703 -0.68490702 1.728779
0.66637146 -0.68289399 1.7277989
0.680632 -0.68373501 1.72958
0.675538 -0.67783499 1.727547
0.68581498 -0.678092 1.725989
0.69423401 -0.67995101 1.72997
0.65145302 -0.67438501 1.72944
0.66350669 -0.67418367 1.7287613
0.67782903 -0.67463702 1.729652
0.68406898 -0.67211699 1.727123
0.69062442 -0.67244226 1.7291008
0.65690738 -0.66782743 1.7265131
0.66307402 -0.66799498 1.727206
0.67115402 -0.66754502 1.726126
0.675955 -0.667606 1.729612
0.65157801 -0.66119701 1.72958
0.66476852 -0.66107404 1.7273675
0.67855954 -0.66255051 1.729046
0.67595297 -0.695737 1.7311
0.62583101 -0.693129 1.7329431
0.66538203 -0.69407201 1.733911
0.63761401 -0.68758398 1.7317801
0.64193201 -0.68763399 1.734587
0.64909798 -0.68581998 1.7303931
0.66380602 -0.688353 1.731884
0.66628003 -0.68660998 1.7335424
0.67218101 -0.687446 1.730927
0.67770499 -0.68690699 1.730508
0.65348852 -0.68325901 1.7319601
0.66305804 -0.68307698 1.732752
0.66664398 -0.68070751 1.7308465
0.67838401 -0.68451399 1.734707
0.684744 -0.682383 1.732289
0.68841451 -0.68127751 1.731833
0.62108499 -0.67839402 1.732466
0.63960499 -0.67955899 1.732651
0.647726 -0.679039 1.732506
0.65057403 -0.67938501 1.7333879
0.66175449 -0.67923951 1.7315645
0.66692001 -0.67975497 1.731311
0.68057698 -0.67985302 1.730641
0.68703002 -0.67767102 1.731162
0.63518798 -0.67334801 1.733207
0.64200801 -0.67136151 1.732648
0.64900446 -0.67127097 1.7306299
0.65600598 -0.67080498 1.734561
0.67659003 -0.67109799 1.731222
0.63972199 -0.66589099 1.73303
0.64311099 -0.66661203 1.730029
0.64804798 -0.66572201 1.732796
0.65403497 -0.66998899 1.7302541
0.66228467 -0.66685504 1.7327484
0.66763264 -0.66668826 1.73076
0.67070198 -0.66695499 1.7337949
0.68140399 -0.66861397 1.731268
0.689143 -0.66935903 1.7311
0.69217652 -0.66717148 1.7318699
0.69749701 -0.66965997 1.734064
0.65595102 -0.66112 1.734937
0.66012597 -0.660721 1.733637
0.64865899 -0.65792203 1.731715
0.66317302 -0.69716901 1.737089
0.66613299 -0.699274 1.7399
0.67490798 -0.69800597 1.73823
0.684457 -0.69697899 1.739485
0.65465999 -0.69103402 1.7380919
0.66440398 -0.69003397 1.739765
0.66643202 -0.69037902 1.735733
0.649279 -0.68735898 1.7361929
0.65285397 -0.6868782 1.7391647
0.664482 -0.68690503 1.736879
0.66719103 -0.686297 1.736787
0.67233849 -0.68860447 1.7382855
0.68063301 -0.68519801 1.738543
0.68680096 -0.6872983 1.7383947
0.69643199 -0.68864 1.7386
0.65247703 -0.68478501 1.737929
0.66945899 -0.68253899 1.7399271
0.68693298 -0.68091398 1.736288
0.63461101 -0.677284 1.735202
0.64829499 -0.67523301 1.739906
0.66323203 -0.67521298 1.738451
0.67109799 -0.67645198 1.735293
0.62636399 -0.67276102 1.7399
0.64403898 -0.67316002 1.739486
0.65177095 -0.67344397 1.7370934
0.65925801 -0.67457098 1.737981
0.666394 -0.67310852 1.735985
0.68192703 -0.67025602 1.736781
0.70908499 -0.67409497 1.736213
0.65689898 -0.66672254 1.7361685
0.66146803 -0.66805702 1.737581
0.68307549 -0.66856897 1.7369704
0.64692903 -0.66277999 1.736794
0.660743 -0.70051199 1.741881
0.66604799 -0.70294303 1.740726
0.67849702 -0.70236802 1.743572
0.68568897 -0.70166498 1.743372
0.63736397 -0.69551599 1.741128
0.67072701 -0.69687998 1.740159
0.67752999 -0.69648802 1.741189
0.683191 -0.699579 1.74439
0.69482797 -0.69839299 1.744432
0.63421297 -0.69277602 1.741816
0.64053202 -0.69445401 1.744131
0.65450698 -0.69300002 1.742748
0.65626001 -0.690965 1.74488
0.67123997 -0.69163102 1.74483
0.68247998 -0.69464302 1.74195
0.65186 -0.68743503 1.741135
0.65909201 -0.68980002 1.7406501
0.67403603 -0.68715298 1.742406
0.68443501 -0.68963599 1.742651
0.69061202 -0.68788302 1.744745
0.69736999 -0.685121 1.742048
0.62125999 -0.68162102 1.743716
0.63743502 -0.68221402 1.741629
0.65685451 -0.68125451 1.742447
0.67486101 -0.68287498 1.740028
0.63794166 -0.67656332 1.7419649
0.62896597 -0.674891 1.741158
0.63349098 -0.67070198 1.740695
0.64808846 -0.6736185 1.744007
0.65062702 -0.67033303 1.74314
0.65815997 -0.67300099 1.7403145
0.66227102 -0.67253703 1.7421041
0.66790301 -0.673177 1.7418261
0.67006999 -0.67444801 1.740659
0.68563199 -0.67271 1.74119
0.62449199 -0.66615802 1.742453
0.62977397 -0.66910303 1.742941
0.63403702 -0.66708899 1.744915
0.63801098 -0.66874403 1.741712
0.657794 -0.70672202 1.748734
0.67186803 -0.70644897 1.747653
0.65360498 -0.70144397 1.747843
0.65621603 -0.702851 1.7488
0.66257101 -0.70234454 1.7463375
0.70225602 -0.700535 1.7480299
0.65186101 -0.69519901 1.746008
0.671772 -0.69560701 1.749729
0.681853 -0.69974399 1.745572
0.63983297 -0.69297498 1.748143
0.64347148 -0.69414598 1.7484009
0.647286 -0.69007599 1.748381
0.65191501 -0.69147903 1.7498389
0.65816396 -0.69264394 1.7483274
0.66113901 -0.69073701 1.746847
0.671354 -0.69466102 1.74709
0.684677 -0.69478899 1.747198
0.69800001 -0.69491702 1.747305
0.701401 -0.690795 1.747413
0.71386802 -0.691531 1.745077
0.71535802 -0.69038802 1.746771
0.62429202 -0.686607 1.749958
0.63868302 -0.68813801 1.749655
0.64366502 -0.68897903 1.7480195
0.646128 -0.686782 1.745672
0.70951301 -0.68952698 1.7488
0.62515402 -0.681871 1.746084
0.643538 -0.680682 1.7473975
0.660945 -0.68115997 1.748593
0.63438749 -0.67738795 1.7484729
0.642892 -0.67620301 1.7488
0.64722401 -0.67802197 1.7463059
0.65371066 -0.67747831 1.7464637
0.65621603 -0.67620301 1.7488
0.70158499 -0.67726499 1.747609
0.616813 -0.67137098 1.749571
0.64229703 -0.67384499 1.748947
0.65646303 -0.67133898 1.745296
0.63163698 -0.667633 1.747051
0.64495999 -0.66776001 1.7471581
0.650644 -0.66847801 1.747228
0.65565401 -0.66816097 1.7459919
0.66084999 -0.70023799 1.750062
0.698062 -0.70265198 1.7503099
0.70073301 -0.70234197 1.754137
0.634372 -0.697442 1.7535319
0.65413898 -0.69936198 1.750181
0.656748 -0.69677252 1.752072
0.66039598 -0.697339 1.75315
0.667597 -0.69968802 1.750201
0.67589599 -0.69681299 1.7505521
0.71250898 -0.69613701 1.7535909
0.62942398 -0.69316602 1.751565
0.64418 -0.69369799 1.7512391
0.64956999 -0.69360697 1.750311
0.62204099 -0.68760902 1.754792
0.63336498 -0.68622702 1.751799
0.64486402 -0.68636501 1.753183
0.65027398 -0.68908 1.753722
0.70358801 -0.68856299 1.7548569
0.708296 -0.68721002 1.750556
0.71413201 -0.687253 1.7536761
0.63816303 -0.68252134 1.751599
0.64294398 -0.68368697 1.753969
0.64743501 -0.680686 1.750183
0.65783548 -0.681059 1.750283
0.63881367 -0.67788392 1.751722
0.62114602 -0.67139697 1.7530349
0.62823403 -0.67123252 1.7528501
0.65521699 -0.67423701 1.754878
0.622881 -0.66886097 1.754687
0.67646998 -0.724154 1.75662
0.65723503 -0.716447 1.7590179
0.67076302 -0.716775 1.759038
0.678541 -0.71775401 1.75842
0.68429101 -0.71710199 1.759059
0.68637902 -0.71986097 1.7578
0.64794499 -0.71052498 1.759465
0.655523 -0.71081698 1.759465
0.66754001 -0.71055502 1.757151
0.67379898 -0.71161902 1.75893
0.68442601 -0.711775 1.7590801
0.69352198 -0.710751 1.758639
0.64392799 -0.70576298 1.7587039
0.65208799 -0.705953 1.755447
0.66970301 -0.70809501 1.756413
0.67670101 -0.70720202 1.75518
0.68519002 -0.70866501 1.757877
0.69172937 -0.70864701 1.7575043
0.699772 -0.70646799 1.7578
0.70300901 -0.70878255 1.7563815
0.70765001 -0.70928198 1.757241
0.64141899 -0.70128298 1.756088
0.65780449 -0.70243752 1.7575525
0.698147 -0.70390499 1.759374
0.71167499 -0.70423299 1.759395
0.61964601 -0.698798 1.757152
0.644207 -0.69620198 1.755735
0.65892601 -0.69786698 1.7592911
0.67180598 -0.697662 1.7553149
0.63280803 -0.693075 1.7578
0.63711703 -0.69335198 1.757715
0.64168102 -0.69417799 1.757956
0.65052402 -0.69328302 1.757759
0.62755197 -0.68932301 1.759578
0.63394397 -0.68690199 1.75914
0.644526 -0.68778002 1.757448
0.71513301 -0.68519503 1.756547
0.62583297 -0.68194002 1.756963
0.63303751 -0.68306053 1.755731
0.63830799 -0.68467098 1.757735
0.6445455 -0.68261003 1.7579894
0.620507 -0.67940003 1.757575
0.63657498 -0.67797601 1.756856
0.64533597 -0.67583603 1.759518
0.62151802 -0.67090601 1.755935
0.62822998 -0.67093098 1.75626
0.63006002 -0.67421401 1.758213
0.64878702 -0.71612298 1.762228
0.65113801 -0.715159 1.762833
0.64134401 -0.713539 1.762516
0.66526598 -0.71368998 1.761435
0.67100197 -0.71161997 1.762982
0.67939401 -0.71222001 1.7600369
0.68707401 -0.71049702 1.761869
0.69775301 -0.71161503 1.7600909
0.72335398 -0.71271199 1.763745
0.683456 -0.70899099 1.7643239
0.68831599 -0.70982897 1.761168
0.70586002 -0.70863003 1.762972
0.71005702 -0.70553201 1.760574
0.6364457 -0.70288068 1.7645775
0.64733255 -0.70241749 1.7615244
0.65182298 -0.70211649 1.760253
0.660402 -0.70353103 1.764763
0.66960102 -0.70411497 1.7627521
0.67769402 -0.70196402 1.760126
0.71981502 -0.70496601 1.762785
0.64627898 -0.69781798 1.760437
0.65135199 -0.69817299 1.761749
0.62892401 -0.692384 1.760527
0.64999002 -0.69487602 1.761361
0.62991297 -0.68601698 1.763497
0.63192999 -0.68658203 1.762594
0.6372425 -0.68627799 1.7617025
0.62758601 -0.68474197 1.764451
0.633349 -0.68244398 1.761896
0.617594 -0.67735797 1.7606471
0.62812197 -0.67815 1.761207
0.63353699 -0.67913198 1.762553
0.69425797 -0.72164297 1.766377
0.69649702 -0.721457 1.767154
0.71168602 -0.72338599 1.768746
0.67821801 -0.71524203 1.765031
0.68041098 -0.71866 1.769569
0.691679 -0.71537101 1.7651401
0.65403497 -0.71073502 1.766561
0.65866899 -0.71430802 1.765403
0.66360301 -0.71199101 1.765954
0.66707504 -0.71088803 1.7658341
0.67479801 -0.71188301 1.76508
0.68071902 -0.71203852 1.7669256
0.69468802 -0.71316803 1.769449
0.70871699 -0.71146101 1.765582
0.71471399 -0.71494699 1.7698849
0.64333099 -0.70772803 1.766609
0.70457 -0.70669597 1.765088
0.70937198 -0.70910603 1.765273
0.65617102 -0.70246398 1.769056
0.71872902 -0.70216799 1.765499
0.63418901 -0.69963598 1.765046
0.63626301 -0.69971502 1.76618
0.64496601 -0.69643801 1.766012
0.72257203 -0.697972 1.765537
0.63121903 -0.69313598 1.7697005
0.63864398 -0.69358099 1.765239
0.64129901 -0.69069898 1.766201
0.72012299 -0.693699 1.765312
0.62223101 -0.68730599 1.768471
0.63219601 -0.68991899 1.766171
0.61928999 -0.68165201 1.766224
0.63433099 -0.68484002 1.76791
0.683002 -0.72889102 1.774919
0.69734401 -0.726138 1.7718329
0.67984599 -0.72419298 1.7700911
0.67711198 -0.71899599 1.770998
0.69973999 -0.71735799 1.774085
0.70883399 -0.71919 1.7744401
0.66710299 -0.71022302 1.774942
0.67059195 -0.714073 1.773989
0.647255 -0.7085495 1.7731631
0.665654 -0.705235 1.770523
0.63694799 -0.70266998 1.7721649
0.64025599 -0.70104402 1.772077
0.65671301 -0.704997 1.771734
0.74213499 -0.70169502 1.773136
0.64115399 -0.69669402 1.77087
0.63029498 -0.69036001 1.770432
0.63693303 -0.69244498 1.774991
0.61379701 -0.68836403 1.770659
0.62001801 -0.68718803 1.772108
0.61837399 -0.68334502 1.771722
0.627765 -0.6814 1.77061
0.63416302 -0.68178248 1.7705425
0.707057 -0.74088699 1.7761
0.68247998 -0.72546297 1.775445
0.707057 -0.727355 1.7761
0.71468598 -0.72523701 1.776075
0.67261201 -0.724935 1.778139
0.68171299 -0.72040403 1.777382
0.69238001 -0.72042501 1.77808
0.70309699 -0.72092599 1.7795089
0.70516199 -0.72478098 1.777539
0.662494 -0.71794498 1.7780781
0.67344552 -0.71733952 1.7770679
0.67863798 -0.715873 1.776307
0.71247101 -0.716919 1.77705
0.64884502 -0.71445101 1.779256
0.69604802 -0.710648 1.776861
0.72058898 -0.71382302 1.7761
0.72883099 -0.71130103 1.775775
0.73273438 -0.7126143 1.7772417
0.62307602 -0.70631403 1.778411
0.64073199 -0.70853698 1.778055
0.66020101 -0.70603502 1.778495
0.73493898 -0.70946503 1.778095
0.642093 -0.703206 1.776453
0.64686954 -0.70240402 1.776636
0.63473898 -0.695885 1.778914
0.63746148 -0.69655097 1.7789435
0.65229303 -0.69637102 1.775587
0.63729203 -0.68714452 1.7779255
0.67624098 -0.73482102 1.780489
0.68075198 -0.725182 1.783371
0.720617 -0.72525799 1.783051
0.667252 -0.72017002 1.784238
0.68605 -0.72157401 1.781494
0.69132698 -0.72052598 1.782199
0.69895399 -0.72096902 1.780354
0.73019201 -0.71893501 1.784097
0.65410352 -0.71247447 1.7838345
0.66399199 -0.71232402 1.782889
0.67328602 -0.71362901 1.782657
0.73343199 -0.71408153 1.7836815
0.744205 -0.71118802 1.781584
0.73299402 -0.70766503 1.781051
0.6390605 -0.69689202 1.7828245
0.72232199 -0.742607 1.786688
0.69549799 -0.73688102 1.78912
0.67409199 -0.73487699 1.788182
0.715653 -0.73140198 1.786763
0.67236102 -0.72579098 1.788902
0.68448901 -0.72812599 1.785621
0.69148099 -0.72690398 1.789134
0.70638603 -0.72685498 1.7875659
0.71570301 -0.726946 1.788258
0.722655 -0.72886801 1.786988
0.72857898 -0.72557497 1.7895581
0.733069 -0.72905397 1.785085
0.66347098 -0.72175503 1.78926
0.729213 -0.71921402 1.787883
0.750471 -0.71579403 1.787329
0.66291398 -0.71143299 1.788059
0.73508 -0.71218503 1.787444
0.64958501 -0.70584702 1.785579
0.64059401 -0.70146698 1.785236
0.63509899 -0.69963902 1.788071
0.69019997 -0.733181 1.7928391
0.699651 -0.734662 1.793997
0.706572 -0.731938 1.794458
0.71323848 -0.73326504 1.7909319
0.67971802 -0.728652 1.791172
0.68403947 -0.72658449 1.792197
0.72997397 -0.72678101 1.793134
0.66122597 -0.72494602 1.7943259
0.667382 -0.72259802 1.792181
0.67236233 -0.72281432 1.7933866
0.74180901 -0.72129798 1.7947
0.75210297 -0.72334999 1.792448
0.65773499 -0.71517003 1.792437
0.675044 -0.719033 1.793363
0.75177097 -0.71872097 1.794577
0.756796 -0.71991003 1.794036
0.65200299 -0.70509303 1.792724
0.66012698 -0.70505601 1.793921
0.64565903 -0.70023501 1.791719
0.72262502 -0.74296802 1.7986701
0.72887599 -0.73651505 1.7967615
0.73385602 -0.73308599 1.799655
0.74029201 -0.73295802 1.796437
0.748312 -0.73059899 1.797397
0.68969601 -0.729285 1.796031
0.69093603 -0.72946501 1.797837
0.66323102 -0.719944 1.799006
0.66904402 -0.71396703 1.795367
0.64182299 -0.70316303 1.7970639
0.70731997 -0.75268 1.803282
0.70072699 -0.741597 1.803672
0.71998501 -0.74420601 1.80237
0.72815698 -0.74218303 1.804083
0.67962903 -0.735798 1.80442
0.68269402 -0.73617601 1.804759
0.71365398 -0.73802501 1.801542
0.73198998 -0.73886299 1.8042001
0.74767947 -0.7376225 1.8038285
0.681849 -0.73461902 1.803776
0.68559098 -0.73263299 1.80168
0.70925498 -0.73442602 1.8007571
0.72613198 -0.73479801 1.8035589
0.74073303 -0.73391902 1.802385
0.74760598 -0.73072398 1.802737
0.66002601 -0.72691399 1.801185
0.67779303 -0.72989899 1.80425
0.698309 -0.72974199 1.8015569
0.74762601 -0.72897202 1.800164
0.75212401 -0.72656697 1.803001
0.76016599 -0.72751498 1.8021851
0.66218698 -0.72085398 1.802623
0.67227501 -0.72083902 1.8007179
0.67705798 -0.72326797 1.802835
0.65750599 -0.71951002 1.800215
0.66265702 -0.714746 1.803309
0.64868248 -0.70777345 1.801707
0.65756398 -0.70740199 1.8015
0.70540798 -0.74125099 1.807292
0.71361101 -0.74246401 1.8052011
0.72006297 -0.74252898 1.80796
0.668028 -0.73877102 1.808539
0.72034901 -0.73917401 1.808059
0.74146599 -0.73691899 1.805282
0.74911398 -0.73950797 1.805086
0.74943399 -0.733504 1.806706
0.67269599 -0.72638202 1.806041
0.65465599 -0.72132802 1.805542
0.65430999 -0.71537799 1.805416
0.71736503 -0.75416797 1.8143981
0.74763298 -0.74575001 1.813249
0.76226199 -0.74546701 1.812125
0.70572901 -0.74221897 1.81332
0.71395999 -0.74384701 1.813323
0.72968298 -0.744093 1.814185
0.68639499 -0.73879999 1.813087
0.69774699 -0.73826301 1.8148789
0.741844 -0.73931497 1.813581
0.76058602 -0.73679799 1.81156
0.67974401 -0.73325199 1.814616
0.67173648 -0.72755349 1.813918
0.6789965 -0.72215402 1.8131969
0.76257098 -0.75077099 1.8196729
0.71928102 -0.745529 1.819869
0.70907003 -0.74390399 1.817662
0.72528201 -0.74491602 1.818158
0.69808501 -0.73884398 1.818338
0.70217597 -0.73618299 1.816393
0.71820301 -0.73907101 1.816828
0.76357198 -0.739443 1.819123
0.78485602 -0.73790598 1.815384
0.667557 -0.72966999 1.815079
0.65242499 -0.71681899 1.816263
0.69682002 -0.75795501 1.824284
0.73279601 -0.75727999 1.8218
0.72070497 -0.75002998 1.821985
0.74764103 -0.75341201 1.8235199
0.73202902 -0.74794698 1.822946
0.744807 -0.74994302 1.821617
0.77457398 -0.74525398 1.824335
0.741265 -0.74338102 1.820971
0.74791098 -0.743725 1.820936
0.76354498 -0.74120998 1.822102
0.76535302 -0.74439597 1.824141
0.70543098 -0.73907799 1.821179
0.66856003 -0.72696501 1.820466
0.67275798 -0.72667903 1.8222049
0.73271102 -0.75605297 1.827368
0.70114601 -0.747518 1.827268
0.71145952 -0.74821949 1.826875
0.723894 -0.74685103 1.829631
0.73497403 -0.74654597 1.826108
0.74295199 -0.74902201 1.825542
0.76543897 -0.74798101 1.829082
0.69882601 -0.74151498 1.8275011
0.70253402 -0.743496 1.8286099
0.68146199 -0.739492 1.828879
0.68020302 -0.73137301 1.827565
0.71777999 -0.75869399 1.831216
0.73376399 -0.75637698 1.832275
0.75308698 -0.75834 1.830029
0.71660101 -0.75400198 1.8319449
0.74726999 -0.75362003 1.831008
0.750292 -0.75208801 1.832664
0.77164799 -0.75069797 1.8331
0.71152103 -0.74446201 1.8338799
0.69126904 -0.73620099 1.8311834
0.70896399 -0.76592797 1.836921
0.73732603 -0.76841599 1.838697
0.752101 -0.76687998 1.837235
0.75448799 -0.75964999 1.837927
0.773597 -0.75940299 1.838323
0.70554298 -0.75153399 1.835789
0.71742398 -0.75311297 1.8367521
0.72474599 -0.75302702 1.837369
0.69556201 -0.74798298 1.838155
0.71443599 -0.74856597 1.838037
0.70458502 -0.74390101 1.838746
0.69156897 -0.735542 1.835017
0.754287 -0.77034998 1.842526
0.728158 -0.76378202 1.841687
0.74045801 -0.764561 1.843711
0.74668002 -0.76064599 1.843508
0.752693 -0.76071399 1.844932
0.75539899 -0.761693 1.8404959
0.76263601 -0.76422203 1.843853
0.76549798 -0.764983 1.844563
0.71469897 -0.75772399 1.840832
0.74698699 -0.75639898 1.842106
0.756078 -0.759278 1.841639
0.76875001 -0.75626999 1.842478
0.78301901 -0.75646001 1.842222
0.70289099 -0.75276899 1.842712
0.70275199 -0.749762 1.842756
0.71260297 -0.74851602 1.84101
0.71652901 -0.74917299 1.84042
0.73776102 -0.74962997 1.841277
0.68996698 -0.74069297 1.842274
0.7618103 -0.76782531 1.8480295
0.74067402 -0.76426703 1.846628
0.774737 -0.75772798 1.8452981
0.68040401 -0.74250001 1.846177
0.74815601 -0.77036703 1.854256
0.76047599 -0.77004302 1.854028
0.74719799 -0.76636499 1.853799
0.78307199 -0.76734 1.853472
0.75369102 -0.76428699 1.851238
0.76851302 -0.76389498 1.854998
0.711137 -0.75509202 1.851558
0.72491598 -0.75773001 1.850246
0.72811401 -0.75700003 1.850742
0.72095901 -0.75282902 1.851552
0.75317103 -0.77685899 1.8559639
0.73148602 -0.77099299 1.857885
0.77805698 -0.77305502 1.8572249
0.75302398 -0.76915002 1.855888
0.78303897 -0.76777554 1.859077
0.785469 -0.76888198 1.856586
0.71479601 -0.76098502 1.857278
0.71571398 -0.75620502 1.8584909
0.72488999 -0.75842398 1.859861
0.70699799 -0.753896 1.858007
0.77721298 -0.77880198 1.8627
0.74571902 -0.77391899 1.860672
0.75763601 -0.771559 1.861266
0.74241501 -0.769086 1.863155
0.75643301 -0.76923603 1.8615071
0.73694497 -0.76425999 1.86253
0.70405102 -0.75960201 1.864082
0.773341 -0.78071898 1.865665
0.74650502 -0.77567101 1.869095
0.784253 -0.77509499 1.865322
0.79875398 -0.77539802 1.866606
0.73600501 -0.77248299 1.866581
0.76077902 -0.77152997 1.867601
0.73447901 -0.76572502 1.8684109
0.74386102 -0.76925498 1.869066
0.70270449 -0.76101005 1.8684275
0.78856999 -0.79570597 1.8733
0.774297 -0.781434 1.8733
0.73961103 -0.77640402 1.870039
0.76278502 -0.77710801 1.873542
0.76641798 -0.779396 1.870767
0.77354199 -0.778988 1.871927
0.79140502 -0.77766901 1.871186
0.77991998 -0.79166698 1.875986
0.78424901 -0.79081798 1.877599
0.81525302 -0.78698802 1.878867
0.76571798 -0.78358698 1.876335
0.775729 -0.78308499 1.875554
0.79373199 -0.784612 1.875447
0.77430803 -0.77916098 1.876712
0.78320599 -0.79175699 1.883594
0.79851198 -0.78881902 1.8803
0.73452002 -0.78138602 1.883666
0.74121302 -0.77885002 1.884347
0.75304502 -0.77916503 1.880204
0.79136598 -0.79827303 1.886041
0.79963702 -0.79521698 1.889846
0.80587298 -0.79862398 1.886063
0.783261 -0.79146099 1.888031
0.78956097 -0.79031402 1.888988
0.800816 -0.79500002 1.885959
0.73097903 -0.78252602 1.886052
0.75259298 -0.79763299 1.890182
0.75524998 -0.799716 1.891257
0.774073 -0.79305398 1.89298
0.77427202 -0.79851198 1.898356
0.78483701 -0.79287201 1.895713
0.78150702 -0.80554003 1.911312
0.784859 -0.804766 1.910334
0.82080001 -0.81350398 1.9152
0.80057001 -0.81776297 1.92118
0.81238103 -0.82391798 1.92864
