# .PCD v0.7 - Point Cloud Data file format
VERSION 0.7
FIELDS x y z
SIZE 4 4 4
TYPE F F F
COUNT 1 1 1
WIDTH 440
HEIGHT 1
VIEWPOINT 0 0 0 1 0 0 0
POINTS 440
DATA ascii
0.034894999 -0.24914899 1.362861
0.034644 -0.25191501 1.36647
0.037445001 -0.2577455 1.373462
0.035485499 -0.25252849 1.3733935
0.036268 -0.25733447 1.3773525
0.033013999 -0.25271651 1.3762325
0.036564998 -0.25324601 1.375483
0.034234002 -0.26205552 1.3841674
0.036935799 -0.26206321 1.3821281
0.034433499 -0.25553149 1.3823315
0.036704499 -0.25877452 1.3805795
0.026536668 -0.26632968 1.3890381
0.032855999 -0.26593301 1.388824
0.024473 -0.26480201 1.389276
0.02848625 -0.26322299 1.386832
0.033165399 -0.26228517 1.3876312
0.036280334 -0.26365599 1.387723
0.033222556 -0.25753522 1.3877789
0.035106 -0.25772399 1.389856
0.024209999 -0.26656833 1.3929154
0.027250335 -0.26725 1.392785
0.032529 -0.26646599 1.3909185
0.027948165 -0.26358017 1.3925005
0.03142333 -0.26193365 1.3918539
0.039314002 -0.26004499 1.3920701
0.032299664 -0.25822267 1.3927246
0.021823667 -0.27219832 1.3984064
0.026564 -0.270376 1.3980875
0.024211999 -0.26886052 1.3962325
0.027754635 -0.26674646 1.3980114
0.030545 -0.26600552 1.3976685
0.028881799 -0.26254359 1.3974277
0.030411402 -0.26289019 1.3970922
0.023804501 -0.27230924 1.4040768
0.026756717 -0.27195942 1.402828
0.028437926 -0.26706141 1.4025404
0.02903825 -0.26260024 1.4040885
0.0310195 -0.26217777 1.4015398
0.024303 -0.27531201 1.409623
0.026719 -0.2772615 1.408242
0.019636 -0.273177 1.407673
0.027142273 -0.27167413 1.4079133
0.030764 -0.27351201 1.405826
0.02790614 -0.26782387 1.4071718
0.030583 -0.26855499 1.408901
0.022973001 -0.27745166 1.4131562
0.027274666 -0.27625367 1.4124322
0.022190999 -0.274582 1.410997
0.027654801 -0.27262542 1.4130691
0.030288 -0.273085 1.413462
0.028352801 -0.26695859 1.4115235
0.0307805 -0.26931599 1.4111719
0.022811802 -0.28106919 1.4190004
0.023870001 -0.27826801 1.415205
0.026555268 -0.27787226 1.4172866
0.027887374 -0.27289426 1.4176309
0.022345999 -0.28770599 1.422769
0.0240565 -0.28201976 1.4222474
0.02699157 -0.28191388 1.4229851
0.022399001 -0.27948901 1.420577
0.027788909 -0.27778009 1.4227434
0.027344249 -0.27200699 1.4210607
0.019796001 -0.286724 1.42989
0.022830199 -0.28637537 1.4273598
0.025692999 -0.285326 1.426915
0.023851002 -0.28268802 1.4280784
0.026531501 -0.2824401 1.4273089
0.027089998 -0.27723151 1.4276419
0.0308745 -0.27711999 1.4259635
0.027129875 -0.27267313 1.4269966
0.023974501 -0.290474 1.4339299
0.018444 -0.28601301 1.434279
0.023305668 -0.2878345 1.4327374
0.026043251 -0.28650749 1.4316502
0.023873834 -0.28240615 1.4330412
0.026469668 -0.28334391 1.4330925
0.030192001 -0.280527 1.431565
0.024134001 -0.275621 1.4314359
0.0264738 -0.27725917 1.4313278
0.025986999 -0.27385366 1.4324685
0.021870747 -0.29255801 1.437591
0.023932375 -0.28799489 1.4372839
0.02637025 -0.28753525 1.4378489
0.03026 -0.28523299 1.4385411
0.024785999 -0.28180999 1.439916
0.0268465 -0.28138649 1.437456
0.024216166 -0.27668235 1.4371001
0.026048999 -0.279719 1.4358979
0.018274501 -0.2975035 1.4437494
0.021694332 -0.29644266 1.4442271
0.023244612 -0.29187566 1.4423133
0.026120335 -0.29118732 1.4437174
0.023767 -0.28793001 1.4440186
0.02682789 -0.28807199 1.4427079
0.024616666 -0.28308669 1.441618
0.026125332 -0.28310767 1.4412705
-0.148386 -0.27362901 1.444028
0.023748999 -0.30886 1.449842
0.027903801 -0.30816397 1.4481466
0.021871001 -0.30278 1.448198
0.019064 -0.29696286 1.4478421
0.021742666 -0.29625535 1.44846
0.027952 -0.297097 1.448773
0.022655752 -0.29254708 1.4476944
0.026362201 -0.29191881 1.4478586
0.024032999 -0.28661901 1.4458899
0.026978601 -0.28827083 1.4458766
0.023878749 -0.28265223 1.447639
0.026587751 -0.28396249 1.4477665
-0.123617 -0.277208 1.449294
0.01818575 -0.30824578 1.4541173
0.022637112 -0.30781499 1.4522766
0.018850667 -0.30231082 1.4535918
0.020768 -0.30208576 1.4532207
0.017831273 -0.2966828 1.4524777
0.022637572 -0.2972686 1.4529403
0.0262725 -0.29676825 1.4532447
0.018421 -0.29359025 1.4523346
0.021994399 -0.29335362 1.4525764
0.026258444 -0.29325297 1.4526801
0.024194716 -0.28794929 1.4520677
0.025868334 -0.28810737 1.4518666
-0.13286901 -0.28320301 1.454533
0.023481667 -0.28333834 1.4538283
0.012726001 -0.31246018 1.457963
0.013379076 -0.30775779 1.4584632
0.016660307 -0.30662841 1.4565898
0.0144215 -0.30287451 1.4576435
0.017422713 -0.30280656 1.4570569
0.022624251 -0.30055001 1.4567921
0.014098 -0.298888 1.45994
0.01755853 -0.29833946 1.4580736
0.022437453 -0.29690275 1.4577881
0.026140666 -0.29658332 1.4578308
0.018911749 -0.29370627 1.4579046
0.022844 -0.29212332 1.4572637
0.026540002 -0.29213399 1.4583992
0.014384 -0.28549299 1.45827
0.023189001 -0.28797126 1.4576275
-0.17590201 -0.28046301 1.457098
-0.152339 -0.28239 1.456856
-0.14769301 -0.28165099 1.4565405
-0.084588997 -0.28174999 1.459636
0.021670751 -0.28314 1.4581007
0.0035746999 -0.31267208 1.463963
0.0075370553 -0.31253505 1.4623462
0.010954401 -0.3116914 1.4606616
0.0043759998 -0.309158 1.464897
0.0083304998 -0.30772832 1.4632648
0.011711001 -0.3077147 1.4608728
0.0086378893 -0.30322754 1.4636028
0.0124776 -0.30211595 1.4613369
0.0178505 -0.30081451 1.4612575
0.0095264995 -0.2981365 1.4633207
0.012637 -0.29734731 1.4623812
0.016870501 -0.29647976 1.4611926
0.021732856 -0.29680172 1.4620488
0.025003999 -0.29609799 1.460359
0.0094809998 -0.29262751 1.4643795
0.013380918 -0.29269999 1.4627949
0.017229144 -0.29291871 1.4630235
0.021503374 -0.29193351 1.4618642
0.026193 -0.29449552 1.460883
-0.113927 -0.28551 1.463394
0.005012 -0.289157 1.4640011
0.012576333 -0.28826666 1.4641083
0.018329728 -0.28751901 1.4634595
0.021960998 -0.28760099 1.4609593
0.0061150002 -0.283411 1.463258
0.0114905 -0.2839475 1.4630339
-0.0014012727 -0.31299809 1.4676335
0.0016377271 -0.31226838 1.4666266
0.0053389999 -0.31005099 1.465422
-0.001043 -0.30799919 1.4688195
0.0030890624 -0.30762365 1.4671134
0.0063173338 -0.30702969 1.4655844
-0.00070700003 -0.30271202 1.4692655
0.0026304615 -0.30331284 1.4685609
0.0071911248 -0.30279338 1.4656962
0.0036577275 -0.29814729 1.4686338
0.0067392499 -0.29704094 1.4665246
0.0038313332 -0.29295734 1.4685227
0.0076532308 -0.2922985 1.4665998
0.011667334 -0.29209065 1.4656614
0.016176 -0.291596 1.466107
0.0042010001 -0.28643599 1.467692
0.0076443003 -0.28780609 1.4678977
0.013163428 -0.28780684 1.466808
0.016235 -0.28746101 1.4659849
-0.006933867 -0.31807342 1.4713382
-0.0049049999 -0.317543 1.47005
-0.010552 -0.31298468 1.4749308
-0.0073608421 -0.31209779 1.4731834
-0.0039734445 -0.311946 1.4713347
-0.010174 -0.30811799 1.474865
-0.0063727507 -0.30696636 1.4737698
-0.0022928179 -0.30712873 1.4709159
-0.0063775 -0.3030405 1.474028
-0.0029332 -0.30237722 1.4725516
0.00031800001 -0.30161351 1.471524
-0.0020943636 -0.29813126 1.472658
0.0012887141 -0.29819459 1.4709853
-0.162873 -0.290097 1.474613
-0.15484799 -0.29025999 1.47462
-0.0013056668 -0.29152167 1.4735132
0.0018572001 -0.29246169 1.4715848
0.0023883332 -0.287806 1.4704609
-0.021346333 -0.31795967 1.4790143
-0.017227584 -0.3175855 1.4782757
-0.012762999 -0.31701827 1.4760476
-0.016670799 -0.31373602 1.4787464
-0.012757111 -0.31305054 1.4772887
-0.0084520001 -0.31238699 1.4750896
-0.015063 -0.30726501 1.4791549
-0.012004267 -0.30750123 1.4784211
-0.0081648892 -0.30707183 1.4764419
-0.011215429 -0.30339244 1.4782032
-0.0074897781 -0.30196854 1.4764752
-0.0040644999 -0.3025535 1.4775845
-0.0077276006 -0.2976872 1.477742
-0.0038970001 -0.2976225 1.4752595
0.003424 -0.299229 1.478039
-0.058642 -0.29099399 1.477248
-0.013903 -0.29101101 1.476212
-0.004398 -0.29413366 1.4766302
-0.03183889 -0.32293522 1.4838513
-0.027960476 -0.32254168 1.482604
-0.022927223 -0.32181299 1.480927
-0.026780916 -0.31790036 1.4836332
-0.022818951 -0.31735513 1.4821657
-0.018024998 -0.31539732 1.4801921
-0.021567285 -0.31285709 1.483187
-0.018207001 -0.31202763 1.4814641
-0.021203334 -0.309035 1.4841837
-0.017324265 -0.30766022 1.482235
-0.014225666 -0.30862331 1.480372
-0.0019700001 -0.305718 1.484709
-0.017391499 -0.30354649 1.4835396
-0.012997699 -0.30309221 1.4818672
-0.0093775 -0.30359551 1.482381
-0.176432 -0.29532701 1.484033
-0.173784 -0.29547799 1.484728
-0.15853101 -0.295077 1.4844711
-0.15474001 -0.295733 1.481928
-0.135573 -0.29620501 1.483874
-0.075770997 -0.29553801 1.48443
-0.017968999 -0.29912299 1.484488
-0.011802 -0.29892901 1.4816999
-0.0074105002 -0.2985065 1.4803774
-0.042119931 -0.32338604 1.4875871
-0.037543368 -0.3225081 1.4874845
-0.033795934 -0.32212535 1.4861028
-0.036206335 -0.31841901 1.4889597
-0.032549109 -0.31807569 1.4881762
-0.028045602 -0.31766739 1.4862654
-0.0304645 -0.3141025 1.4891524
-0.027328854 -0.31296468 1.4879494
-0.02393291 -0.31256476 1.48667
-0.0217926 -0.30862817 1.4871714
-0.018901 -0.306135 1.4864882
-0.023654001 -0.303812 1.487184
-0.044325002 -0.32565501 1.490795
-0.046009336 -0.32397267 1.4908937
-0.04292633 -0.32293633 1.4905096
-0.037234999 -0.32092199 1.490194
-0.034400001 -0.32071501 1.490079
-0.041283503 -0.3183445 1.491406
-0.036770999 -0.317873 1.4913925
-0.032427002 -0.315626 1.4912781
-0.028423 -0.316154 1.490342
-0.036040999 -0.31468299 1.491488
-0.031987999 -0.31327933 1.4916782
-0.027121 -0.31396899 1.490205
-0.023564 -0.31079501 1.490397
-0.019707 -0.308792 1.490011
-0.194749 -0.301166 1.494755
-0.18523 -0.30027601 1.49305
-0.180372 -0.301229 1.4941344
-0.168189 -0.30110699 1.49459
-0.164664 -0.30106899 1.494666
-0.15208675 -0.3005785 1.4938197
-0.148074 -0.300565 1.494817
-0.12894399 -0.300188 1.492975
-0.216933 -0.30569175 1.5034997
-0.2115905 -0.30594376 1.5043195
-0.20644499 -0.30605933 1.504324
-0.2025045 -0.30591288 1.5037186
-0.19701315 -0.30560499 1.5037726
-0.1811665 -0.305839 1.50244
-0.1722708 -0.30611578 1.503413
-0.16685951 -0.30616701 1.5032456
-0.16312051 -0.30580649 1.5036396
-0.1474705 -0.30601549 1.502514
-0.136608 -0.305507 1.5037166
-0.13436601 -0.30598399 1.5041389
-0.076341003 -0.305516 1.503898
-0.056751002 -0.30645099 1.504723
-0.198107 -0.31150848 1.5095091
-0.192616 -0.31109202 1.5090311
-0.181591 -0.31381699 1.509326
-0.179205 -0.31123501 1.508863
-0.0012760001 -0.30791101 1.508866
0.053475 -0.308927 1.508517
-0.172722 -0.31769201 1.510612
-0.16238749 -0.31629151 1.5130324
-0.21670961 -0.3119536 1.513804
-0.21298744 -0.31116986 1.5127543
-0.20791546 -0.31138232 1.5137535
-0.20226558 -0.31097585 1.5124451
-0.19344461 -0.31105691 1.5136764
-0.18721645 -0.31257799 1.5128981
-0.182432 -0.31117824 1.5125277
-0.17753501 -0.31148776 1.5130279
-0.17257801 -0.31157351 1.5137002
-0.167651 -0.3106195 1.5121369
-0.16283001 -0.31090283 1.5135808
-0.15719832 -0.31064466 1.51328
-0.15228133 -0.31073734 1.5135784
-0.14262366 -0.31171265 1.5138882
-0.13925549 -0.31091052 1.512653
-0.1335205 -0.31037199 1.5119364
-0.12890865 -0.3114703 1.5142111
-0.11365525 -0.31082049 1.5135386
-0.1094275 -0.31094998 1.5135574
-0.095797002 -0.311028 1.514677
-0.089038998 -0.31138599 1.513739
-0.046222001 -0.31276801 1.5148669
-0.040630002 -0.310265 1.513581
-0.025006 -0.326765 1.516789
-0.16877399 -0.320838 1.519938
-0.123164 -0.322119 1.517542
-0.21659701 -0.315395 1.51912
-0.212846 -0.31703734 1.5189654
-0.20226249 -0.31559497 1.519412
-0.19797051 -0.31569999 1.5197201
-0.19291967 -0.317202 1.5171126
-0.18727601 -0.31704032 1.5173513
-0.18268999 -0.31542799 1.519426
-0.176293 -0.31632549 1.5170851
-0.173089 -0.31917599 1.517318
-0.16298901 -0.31506601 1.519829
-0.158619 -0.31642601 1.519424
-0.133946 -0.31531301 1.518984
-0.1247 -0.315263 1.517872
-0.087012 -0.315312 1.519972
-0.052317001 -0.317853 1.519837
-0.041290998 -0.31603301 1.519456
0.028965 -0.31300199 1.517148
-0.19105899 -0.32320601 1.522661
-0.18549401 -0.32198399 1.52169
-0.168511 -0.32002801 1.52047
-0.164726 -0.322456 1.521238
-0.116111 -0.32205501 1.5214469
-0.095164999 -0.32442999 1.521288
-0.078498997 -0.32061401 1.52412
-0.048154 -0.32118601 1.524102
-0.028480001 -0.32140401 1.52263
-0.20279352 -0.31678632 1.523398
-0.19292775 -0.3173449 1.5232954
-0.18719637 -0.31657147 1.5226555
-0.18196316 -0.31670401 1.5223228
-0.17760698 -0.31619385 1.5229791
-0.1667375 -0.31636512 1.5234774
-0.16238967 -0.31609133 1.5232797
-0.15676866 -0.31605297 1.5231324
-0.15152381 -0.31608865 1.5232677
-0.147659 -0.316066 1.522818
-0.1430935 -0.31572676 1.5216773
-0.1329162 -0.3163628 1.5237
-0.12744279 -0.316291 1.5235716
-0.112443 -0.3168385 1.5222914
-0.108102 -0.31755549 1.522639
-0.102015 -0.31660369 1.522302
-0.098863669 -0.315689 1.5229868
-0.092299744 -0.31712499 1.5228145
-0.080861494 -0.3161315 1.5225096
-0.075641997 -0.31691301 1.524714
-0.067993663 -0.31667566 1.5231256
-0.063175499 -0.31514099 1.5222235
-0.0232595 -0.31688851 1.523157
-0.015012 -0.31505799 1.522233
-0.0069309999 -0.31538999 1.523084
0.020428 -0.31529799 1.52141
-0.117986 -0.325194 1.52617
-0.103224 -0.3258 1.529158
-0.087338001 -0.32957801 1.52823
-0.061873998 -0.328168 1.528722
-0.185078 -0.32025501 1.525757
-0.182246 -0.32058173 1.5270151
-0.1785845 -0.32038149 1.5291059
-0.17367101 -0.32267201 1.527536
-0.16697399 -0.32275701 1.527658
-0.162901 -0.3201375 1.527668
-0.157345 -0.3212575 1.527769
-0.150654 -0.32122201 1.5254591
-0.149718 -0.32067251 1.5266165
-0.143535 -0.32047498 1.529274
-0.1383072 -0.32118541 1.5286634
-0.131015 -0.32018399 1.528903
-0.125302 -0.321641 1.529794
-0.121707 -0.32314301 1.527544
-0.115749 -0.324305 1.5263571
-0.107226 -0.32042801 1.526325
-0.098315999 -0.322483 1.527954
-0.093084998 -0.32064301 1.528536
-0.028131001 -0.320636 1.5285749
-0.14516699 -0.32514 1.532836
-0.143831 -0.32679999 1.534336
-0.12894651 -0.32716298 1.5312021
-0.111538 -0.328067 1.533955
-0.037551999 -0.32626 1.534374
-0.203741 -0.32163 1.533406
-0.194637 -0.32167101 1.531118
-0.17161767 -0.32150432 1.532365
-0.15802068 -0.32202667 1.5319928
-0.14795433 -0.32116482 1.5319238
-0.1420162 -0.32194942 1.5334247
-0.13725428 -0.32093519 1.532128
-0.13369539 -0.32151517 1.532624
-0.12287712 -0.32139677 1.5324634
-0.118703 -0.321421 1.532894
-0.11221632 -0.32090947 1.5329318
-0.103533 -0.32136524 1.5328473
-0.097475998 -0.32093024 1.533012
-0.091486 -0.3210395 1.5332254
-0.083383754 -0.3220875 1.5323319
-0.067584001 -0.321448 1.5323104
-0.057974502 -0.32285601 1.533374
-0.051477 -0.32144701 1.5325871
-0.04834475 -0.32085425 1.53269
-0.043766499 -0.32148001 1.533903
-0.032550998 -0.321859 1.5332866
-0.029321 -0.32121801 1.533815
-0.019454001 -0.32256049 1.5324049
-0.160916 -0.32560799 1.535919
-0.14030799 -0.32704499 1.53905
-0.070583001 -0.32605299 1.539731
-0.034100998 -0.326453 1.536314
-0.100622 -0.326938 1.540047
-0.016763 -0.32747799 1.5401551
