# .PCD v0.7 - Point Cloud Data file format
VERSION 0.7
FIELDS x y z
SIZE 4 4 4
TYPE F F F
COUNT 1 1 1
WIDTH 1527
HEIGHT 1
VIEWPOINT 0 0 0 1 0 0 0
POINTS 1527
DATA ascii
-1.359574 0.80544102 0.34518301
-1.7328351 0.78272003 0.35065699
-1.823725 0.79349703 0.35170299
-1.72964 0.790133 0.35425499
-1.5077471 0.79170501 0.35389701
-1.490322 0.79277402 0.35223001
-1.642176 0.79679501 0.35226199
-1.587394 0.79939997 0.35207301
-1.413096 0.799519 0.35318601
-1.244161 0.80744702 0.35436401
-1.227208 0.80766797 0.353735
-1.188192 0.80879903 0.35405701
-1.17635 0.80833 0.35184899
-1.171558 0.808478 0.35442701
-1.154924 0.80815798 0.35479799
-1.751434 0.77875298 0.356693
-1.803335 0.78394598 0.35918301
-1.767987 0.78231001 0.35789099
-1.621491 0.78004497 0.35857201
-1.603525 0.78203303 0.355885
-1.463775 0.781982 0.35901299
-1.643561 0.78856099 0.356931
-1.56002 0.78849798 0.35889801
-1.385949 0.78928 0.35930899
-1.753251 0.79286098 0.35688099
-1.694777 0.79176402 0.356749
-1.660634 0.79285699 0.358253
-1.507899 0.79635102 0.357786
-1.4309371 0.79754502 0.35585299
-1.314437 0.79975498 0.35913101
-1.297909 0.79943597 0.35949901
-1.281381 0.79911798 0.35986599
-1.364022 0.80071002 0.35802701
-1.347494 0.80039197 0.35839501
-1.307179 0.800928 0.358758
-1.289871 0.80198902 0.35710201
-1.272563 0.80305099 0.35544601
-1.13829 0.80783701 0.35516801
-1.121024 0.80801499 0.35796401
-1.105016 0.80695599 0.35959801
-1.6574219 0.77607 0.36394399
-1.639457 0.77805698 0.361258
-1.515698 0.77879697 0.36398
-1.993292 0.78259301 0.363581
-1.7668639 0.78325099 0.36239001
-1.723071 0.78238302 0.363159
-1.842114 0.78821701 0.36055899
-1.698841 0.78627002 0.361709
-1.594869 0.78636098 0.362232
-1.466619 0.79359698 0.36118901
-1.359102 0.79774302 0.36372599
-1.341794 0.79880399 0.36206999
-1.324487 0.79986602 0.360414
-1.287842 0.79511303 0.364353
-1.270999 0.79533201 0.363729
-1.264852 0.79879898 0.36023399
-1.248324 0.79848099 0.36060199
-1.231796 0.79816198 0.36096999
-1.163775 0.79992098 0.36080399
-1.1478651 0.798868 0.362427
-1.131955 0.79781598 0.36405101
-1.072999 0.804838 0.362865
-1.056991 0.80377901 0.364499
-1.089007 0.805897 0.36123201
-1.86347 0.77442402 0.366974
-1.7352149 0.77388 0.36763799
-1.693354 0.77209401 0.369317
-1.675388 0.77408201 0.366631
-1.7859659 0.77897799 0.36578548
-1.759256 0.77837902 0.36856899
-1.533006 0.77773601 0.36563599
-1.439103 0.78339797 0.367257
-1.562518 0.78625298 0.36972299
-1.5023 0.78964901 0.36652401
-1.422588 0.79335803 0.369351
-1.405745 0.79357702 0.36872599
-1.388901 0.79379702 0.368101
-1.372058 0.794016 0.367477
-1.355215 0.79423499 0.36685199
-1.338372 0.79445499 0.366227
-1.321529 0.79467398 0.365603
-1.37641 0.79668099 0.365381
-1.804924 0.77398401 0.37233499
-1.996738 0.77674699 0.37345901
-1.84082 0.775949 0.37134901
-1.804089 0.77636802 0.370525
-1.665543 0.77594697 0.373647
-1.533023 0.77706099 0.374807
-1.697549 0.78498203 0.37023401
-1.514948 0.78040302 0.370857
-1.8436641 0.76947498 0.37893599
-1.992905 0.771074 0.37816799
-1.988575 0.772219 0.37869799
-1.8624229 0.77362698 0.377918
-1.698119 0.77626199 0.37826601
-1.598931 0.77952099 0.37768099
-1.716007 0.78104502 0.37622401
-1.573663 0.781753 0.377195
-1.448115 0.78142297 0.37855101
-1.43138 0.78164101 0.37792999
-1.4196219 0.78179097 0.37855899
-1.402429 0.78284597 0.37691501
-1.385235 0.78390002 0.37527001
-1.952633 0.76318502 0.38088301
-1.809116 0.760216 0.383789
-1.9909 0.77024603 0.38115999
-1.748136 0.77460003 0.38493201
-1.545411 0.77163601 0.38315299
-1.617137 0.77615398 0.38166001
-1.471203 0.77862698 0.38349399
-1.45401 0.77968198 0.38184899
-1.436816 0.78073603 0.38020399
-1.314056 0.780783 0.3836
-1.29658 0.78271699 0.38098699
-1.35796 0.78891098 0.38033301
-1.205195 0.79200202 0.38156199
-1.5174659 0.76156598 0.38909501
-2.011595 0.765706 0.387169
-1.65355 0.76942199 0.38961801
-1.7529221 0.77316999 0.38820499
-1.716305 0.77216297 0.385378
-1.635344 0.77278799 0.38563901
-1.702508 0.77526098 0.388594
-1.522784 0.77546299 0.38842899
-1.50559 0.77651799 0.38678399
-1.488397 0.77757299 0.38513899
-1.331532 0.77884901 0.386213
-1.2685781 0.78495002 0.38949701
-1.393151 0.78501803 0.38559499
-1.3012201 0.78557998 0.38877001
-1.284899 0.78526503 0.38913301
-1.196915 0.78869599 0.387254
-1.169955 0.78727901 0.38776201
-1.154237 0.78623903 0.389366
-2.0094299 0.76428503 0.390946
-1.9677629 0.76157302 0.39393601
-1.833666 0.76405102 0.39400601
-1.720498 0.76422399 0.39148301
-1.616282 0.763794 0.39375001
-1.7713799 0.76923198 0.39419499
-1.765922 0.76887798 0.394326
-1.734491 0.76806402 0.39248899
-1.671757 0.766056 0.39359701
-1.720847 0.77187002 0.392602
-1.626392 0.77015197 0.391229
-1.582221 0.77324301 0.390084
-1.4459389 0.77917701 0.39348799
-1.4283431 0.781124 0.39085701
-1.2567461 0.78118998 0.393774
-1.240117 0.781407 0.39315701
-1.235936 0.78432101 0.390223
-1.223489 0.78162301 0.39254001
-1.2068599 0.78184003 0.39192301
-1.13852 0.7852 0.39096999
-1.986515 0.75810599 0.39803401
-1.570254 0.75572503 0.396988
-1.752676 0.763964 0.39960101
-1.6339999 0.76183403 0.39639899
-1.7706521 0.76564902 0.396294
-1.739187 0.76847899 0.39661101
-1.71639 0.76596099 0.398536
-1.630338 0.77037901 0.39803901
-1.401436 0.77111501 0.39666501
-1.299814 0.77414203 0.39938301
-1.463535 0.77723002 0.396119
-1.339888 0.78010798 0.39685699
-1.3232599 0.78032398 0.39624
-1.306631 0.780541 0.39562401
-2.005266 0.75463903 0.402132
-2.0279591 0.75832498 0.40073299
-1.587626 0.75687802 0.40488401
-1.8211271 0.76163 0.40259299
-1.788605 0.76049298 0.40494099
-1.775866 0.76169801 0.404627
-1.734231 0.763987 0.40120399
-1.564689 0.76073498 0.40142199
-1.757527 0.76508898 0.400619
-1.618314 0.76554298 0.40179801
-1.33375 0.77205998 0.40263
-1.9199671 0.739721 0.40801501
-1.577332 0.74202198 0.40798101
-1.640637 0.74793702 0.40751299
-1.775454 0.75250101 0.40931901
-1.930887 0.75514698 0.40564701
-1.770862 0.75986499 0.40671301
-1.63636 0.76169401 0.407655
-1.5094579 0.762797 0.40787801
-1.488816 0.76144701 0.409731
-1.4713399 0.76337999 0.40711799
-1.308917 0.76169002 0.40890399
-1.648249 0.76634198 0.40504399
-1.556313 0.76844299 0.407022
-1.415152 0.76771498 0.407637
-1.382107 0.76814502 0.40641201
-1.349062 0.76857501 0.405186
-1.6758291 0.74404299 0.41277501
-1.654407 0.75784397 0.41351199
-1.5237679 0.75757903 0.41495699
-1.506292 0.75951302 0.41234401
-1.6661609 0.76230401 0.41204801
-1.452525 0.76477498 0.413993
-1.574259 0.76512498 0.41094401
-1.435557 0.76581597 0.41237
-1.418589 0.76685601 0.41074601
-1.7850749 0.71168101 0.417492
-1.647236 0.73428702 0.41843399
-1.937425 0.73907602 0.41705701
-1.948095 0.748128 0.41805601
-1.933977 0.75015002 0.41885301
-1.672453 0.75399399 0.41936901
-1.541244 0.75564599 0.41756999
-1.191627 0.76991397 0.41981301
-1.223866 0.77053499 0.41909599
-1.207747 0.77022398 0.41945499
-1.144883 0.772789 0.41730899
-1.873486 0.71844 0.42173201
-1.9560241 0.73510802 0.42309299
-1.899523 0.73623699 0.424678
-1.779471 0.73602402 0.42421201
-1.99076 0.743963 0.420012
-1.934868 0.743285 0.42286
-1.804387 0.747733 0.42212099
-1.580731 0.74962002 0.42345399
-1.576196 0.75177801 0.42279699
-1.460634 0.75238401 0.423419
-1.628096 0.755171 0.42270899
-1.554502 0.7588765 0.42354852
-1.537365 0.75957102 0.42210999
-1.494365 0.75959301 0.42340899
-1.5203969 0.76061201 0.420486
-1.325025 0.76488501 0.42209801
-1.242797 0.76731497 0.423123
-1.226379 0.76752901 0.42251399
-1.20996 0.76774299 0.42190501
-1.175508 0.76960301 0.42017201
-1.768001 0.73361498 0.42616099
-1.931621 0.73586899 0.42808801
-1.54846 0.742024 0.42835799
-1.611148 0.74791098 0.42802301
-1.598549 0.74632502 0.42734799
-1.593672 0.74984503 0.42541
-1.6905 0.750144 0.425226
-1.494349 0.75031602 0.42664501
-1.477491 0.75134999 0.42503199
-1.4338599 0.75869 0.42849499
-1.282784 0.760683 0.42713648
-1.2659349 0.760508 0.42536399
-1.7747689 0.72968298 0.43134901
-1.9178489 0.73210597 0.431844
-1.6461 0.74404401 0.433249
-1.628624 0.745978 0.43063599
-1.569211 0.74843401 0.43265301
-1.5108939 0.75417 0.43286601
-1.416523 0.75346202 0.433
-1.350385 0.754776 0.434784
-1.334069 0.75498801 0.43417901
-1.4514281 0.75544202 0.43233401
-1.333858 0.75746697 0.434073
-1.3174319 0.7568475 0.4330225
-1.3008995 0.75746751 0.43191901
-1.933176 0.73147702 0.43824601
-1.6562819 0.73353201 0.436358
-1.973912 0.74021697 0.43599299
-1.681052 0.74017698 0.43847501
-1.487296 0.74483198 0.437383
-1.415648 0.75392598 0.43720499
-1.399332 0.75413901 0.43659899
-1.3841029 0.75438499 0.43888
-1.367355 0.755413 0.437278
-1.350606 0.75643998 0.43567601
-1.9357049 0.72507799 0.44057599
-1.890233 0.72566098 0.44134399
-1.885365 0.72905397 0.44499001
-1.6739269 0.729554 0.443259
-1.982512 0.73409098 0.44287199
-1.932479 0.73628998 0.44284001
-1.919042 0.73773199 0.442119
-1.717824 0.738581 0.44231901
-1.6985281 0.73824298 0.441089
-1.424463 0.74002099 0.443551
-1.527424 0.74874598 0.44232199
-1.504133 0.74569702 0.44385299
-1.486026 0.74738801 0.44166201
-1.468246 0.74773902 0.44073299
-1.931306 0.71700603 0.446549
-1.919919 0.71545601 0.447779
-1.8583781 0.71690601 0.445912
-1.967729 0.72385103 0.44702601
-1.954501 0.72384399 0.44617701
-1.998247 0.72670299 0.44949901
-1.950919 0.72565597 0.44839701
-1.752705 0.72820097 0.44734699
-1.966742 0.73085499 0.44507599
-1.937499 0.73379499 0.44811001
-1.723401 0.73378003 0.44862899
-1.7637475 0.73803496 0.4477725
-1.735769 0.73526299 0.44624099
-1.441589 0.73812598 0.44611201
-1.519968 0.74201602 0.44846699
-1.502727 0.74392402 0.445889
-1.4092031 0.74122 0.44960299
-1.392562 0.74224001 0.44801101
-1.972827 0.71971297 0.453343
-1.873413 0.72872502 0.45293
-1.691573 0.725577 0.45015901
-1.621758 0.73658901 0.45320201
-1.459126 0.73815799 0.45438001
-1.442485 0.739178 0.452788
-1.425844 0.74019903 0.45119601
-1.285392 0.747904 0.45255801
-1.269565 0.74759901 0.45291099
-1.72967 0.67482603 0.45621601
-1.936494 0.70713198 0.45802999
-1.9718961 0.71468502 0.45800599
-1.985783 0.71784198 0.456496
-1.968661 0.71983403 0.458547
-1.863013 0.7223565 0.45743698
-1.748849 0.72248501 0.45721
-1.527216 0.728652 0.458915
-1.528801 0.73509502 0.45947999
-1.5090491 0.73509502 0.45915601
-1.475767 0.73713702 0.45597199
-1.726866 0.68899399 0.46007299
-1.966408 0.71201199 0.46343401
-1.73983 0.71656799 0.46415001
-1.874218 0.72482097 0.462071
-1.7490931 0.72306597 0.464239
-1.6307811 0.72810698 0.46064499
-1.639273 0.73264098 0.460051
-1.623413 0.73057002 0.46393499
-1.540261 0.73536301 0.464434
-1.303349 0.74196899 0.461842
-1.2885981 0.74127352 0.46113551
-1.271121 0.74238902 0.46064699
-1.737717 0.68466401 0.468243
-1.734266 0.68200701 0.46772799
-1.9744771 0.70315802 0.46911299
-1.989992 0.70948899 0.466721
-1.728619 0.70813203 0.46674299
-1.9864039 0.71401298 0.46869799
-1.882314 0.71871698 0.465065
-1.879573 0.71681398 0.46544501
-1.873127 0.71602702 0.468678
-1.89308 0.72073299 0.46933299
-1.595718 0.72107202 0.46915799
-1.5785919 0.72296703 0.46659699
-1.6567889 0.728692 0.466901
-1.640654 0.72866303 0.46651301
-1.545736 0.73125398 0.465002
-1.720719 0.67189997 0.471744
-1.722564 0.67667103 0.47390401
-1.71964 0.67880702 0.47203201
-1.924922 0.70499498 0.47141901
-1.984339 0.70624501 0.472904
-1.7456501 0.70644897 0.474392
-1.873634 0.71026701 0.47086599
-1.911155 0.71739101 0.47328401
-1.8916759 0.71909302 0.472058
-1.691817 0.72496301 0.47420201
-1.675136 0.72484797 0.47166899
-1.674305 0.72474402 0.47375
-1.627112 0.72295898 0.47072899
-1.674125 0.72823501 0.47033501
-2.0080881 0.704292 0.475436
-1.943104 0.70111698 0.47731999
-1.7215739 0.70255703 0.47508499
-2.0218921 0.70582497 0.47543401
-2.0041471 0.70819098 0.47884801
-2.0387781 0.71130002 0.479877
-1.92923 0.71404898 0.47723401
-1.918409 0.710581 0.47918001
-1.890772 0.71035099 0.47799799
-1.647094 0.715388 0.47683999
-1.709509 0.72169203 0.47806799
-1.703426 0.72094101 0.479601
-1.408352 0.72729599 0.47985199
-1.391922 0.72830302 0.47828099
-1.722446 0.66992402 0.48360899
-1.961285 0.69723803 0.48322001
-1.880812 0.69923103 0.48242
-1.7335629 0.69670302 0.48380199
-2.002269 0.700477 0.48237401
-1.884616 0.70241499 0.48051199
-1.848004 0.700203 0.48186499
-1.995275 0.705607 0.48066199
-1.915197 0.70658398 0.482602
-1.829079 0.70854503 0.48155901
-1.909134 0.71336502 0.48204601
-1.711418 0.71818 0.48007199
-1.4727859 0.71943301 0.48357001
-1.691821 0.72079599 0.4806
-1.4567635 0.7227875 0.48280549
-1.441211 0.72527999 0.48299599
-1.424781 0.72628802 0.481424
-1.7095129 0.64652699 0.486848
-1.6991169 0.64931399 0.487499
-1.701966 0.652448 0.48959699
-1.708956 0.65912998 0.48889801
-1.717229 0.68922997 0.48825151
-1.81708 0.69177699 0.486076
-1.80629 0.69518298 0.488758
-2.021889 0.70236999 0.48899901
-1.838418 0.70337802 0.48627901
-1.936457 0.70651197 0.486238
-1.714954 0.70671803 0.48992699
-1.830145 0.71252 0.48945299
-1.720697 0.71598101 0.48791799
-1.506586 0.71569401 0.48862401
-1.50693 0.72124898 0.48928401
-1.4905 0.72225702 0.487712
-1.7092789 0.65207303 0.494773
-1.72413 0.659401 0.49091601
-1.789372 0.67219901 0.49276
-1.697986 0.674375 0.494856
-1.800647 0.67588902 0.491063
-2.0201991 0.694709 0.491844
-2.056309 0.70498699 0.49116701
-1.933009 0.701469 0.49118
-1.94447 0.70507598 0.49019799
-1.926592 0.70763701 0.492033
-1.579229 0.71194297 0.49260399
-1.523486 0.71382397 0.49115101
-1.568296 0.71629602 0.49395201
-1.55097 0.71950001 0.490165
-1.497334 0.720034 0.49104801
-1.689479 0.63819498 0.496824
-1.740971 0.65398401 0.49981099
-1.717922 0.653247 0.49502701
-1.7127531 0.67137301 0.49593401
-1.712431 0.675502 0.49686101
-1.7177351 0.682006 0.49877301
-1.997648 0.68948102 0.495022
-1.874245 0.69573498 0.49790701
-1.815091 0.697734 0.49846101
-1.809443 0.69657803 0.497677
-1.705821 0.69746399 0.49737099
-1.842775 0.70381701 0.49795899
-1.574186 0.70821398 0.498732
-1.620533 0.71132803 0.497843
-1.557286 0.71008402 0.496205
-1.3775409 0.71737599 0.499715
-1.707911 0.64423698 0.50141197
-1.701867 0.642928 0.50087601
-1.723277 0.653117 0.50120002
-1.755759 0.65899402 0.50266701
-1.6977381 0.65932101 0.50227398
-1.7041219 0.66165298 0.50024498
-1.719648 0.67440897 0.50189
-1.841854 0.68759602 0.500301
-1.93835 0.69030303 0.50152498
-1.892159 0.69191402 0.503721
-1.787544 0.69479901 0.50140601
-2.075201 0.69596702 0.502361
-2.0738399 0.69867498 0.50245702
-1.835052 0.69792098 0.50354999
-1.801107 0.696343 0.50028402
-1.709784 0.69985199 0.50087202
-1.94405 0.70190901 0.50202
-1.834811 0.70310903 0.50130898
-1.530568 0.70090598 0.50111502
-1.602948 0.70988899 0.50152498
-1.38636 0.71408403 0.50263798
-1.398782 0.71730298 0.50183302
-1.389897 0.71784002 0.50010699
-1.70445 0.63624799 0.50551802
-1.708027 0.64131099 0.50866503
-1.7341011 0.647421 0.50544697
-1.719213 0.66749901 0.50878602
-1.7198319 0.67118901 0.50623399
-2.0203249 0.684196 0.50769502
-1.708292 0.68059301 0.50936598
-1.956262 0.68626499 0.50852901
-1.944126 0.68680602 0.50783801
-1.910072 0.68809199 0.50953501
-2.057375 0.690727 0.50929898
-1.943707 0.69332302 0.50595599
-1.832737 0.69375598 0.50536102
-1.802796 0.69047701 0.50912398
-1.851047 0.69552302 0.50900102
-1.8333549 0.69879401 0.50513399
-1.71374 0.69675797 0.507384
-1.740162 0.70122898 0.508726
-1.624886 0.702604 0.50631303
-1.6202739 0.70668602 0.50531101
-1.417738 0.71227896 0.50658453
-1.406553 0.714086 0.506621
-1.4030401 0.71223801 0.50513202
-1.721212 0.63143498 0.51359099
-1.717396 0.63657701 0.51279998
-1.7493581 0.649777 0.51355499
-1.703106 0.64517099 0.51365
-1.719825 0.65606302 0.51287502
-1.714841 0.658997 0.51285499
-1.687133 0.66096902 0.511985
-1.7127351 0.665622 0.50999999
-1.784801 0.67965001 0.51067603
-1.772635 0.68225098 0.51307499
-1.850382 0.68977797 0.51226199
-1.84425 0.68658298 0.51444
-1.70839 0.68698502 0.51209998
-1.6988449 0.68885851 0.51140952
-1.961197 0.69239801 0.51308101
-1.8778501 0.69374502 0.51485199
-1.868739 0.69225198 0.51286697
-1.852399 0.69214797 0.51264799
-1.713024 0.694089 0.51393598
-1.630638 0.70035499 0.51270801
-1.453079 0.70670199 0.51261401
-1.436399 0.708547 0.51011997
-1.699193 0.62608302 0.51687902
-1.729702 0.63321698 0.51589602
-1.7201951 0.64201099 0.51738501
-1.704061 0.645082 0.51725101
-1.723051 0.659154 0.516388
-1.696486 0.65668303 0.51521099
-1.72929 0.66157299 0.518893
-1.736672 0.66577202 0.51512903
-1.7186019 0.66510701 0.51624799
-1.751048 0.671076 0.51783103
-1.6971641 0.67061299 0.51881999
-2.0751181 0.68490499 0.51945001
-1.961749 0.68093997 0.51708102
-1.927986 0.68427098 0.51534802
-1.997763 0.68733901 0.51814997
-1.979243 0.68854803 0.518938
-1.961352 0.68764699 0.515275
-1.886431 0.688981 0.516734
-1.868028 0.68580103 0.519162
-1.716259 0.685431 0.51691097
-1.698537 0.68582898 0.51844901
-1.869548 0.691935 0.51965499
-1.647774 0.69649202 0.519409
-1.530341 0.69817698 0.51941597
-1.486439 0.70301002 0.51760298
-1.431712 0.70123899 0.51928002
-1.399465 0.70321703 0.516195
-1.721215 0.64142197 0.52281898
-1.731727 0.65414798 0.52098799
-1.702859 0.65455502 0.52332401
-1.740187 0.65529102 0.52308899
-1.728914 0.65979701 0.52042001
-1.730772 0.662965 0.52456897
-1.714003 0.66653699 0.522618
-1.957999 0.67033201 0.52353197
-1.7151231 0.67935503 0.52410901
-1.99729 0.68469799 0.524795
-1.978997 0.68197101 0.52459502
-1.9432 0.68407398 0.520284
-1.775924 0.68250901 0.520123
-1.715533 0.68297702 0.52155203
-1.708214 0.68183899 0.52132303
-1.974257 0.68728101 0.52218598
-1.895388 0.68870902 0.52329803
-1.824965 0.686683 0.52366698
-1.547376 0.694543 0.52494401
-1.407493 0.69181001 0.52452898
-1.503119 0.70116502 0.52009702
-1.694278 0.61647499 0.52556998
-1.712631 0.67079246 0.52712649
-1.714388 0.67936403 0.52987802
-2.015527 0.681427 0.52746701
-2.004257 0.68100899 0.52549398
-1.885674 0.68182302 0.52606201
-1.842618 0.682917 0.52939701
-1.774487 0.68414402 0.52899498
-1.740041 0.683658 0.52740997
-1.677296 0.68492103 0.52817798
-1.78236 0.68533701 0.52949202
-1.741339 0.68694699 0.52510101
-1.510253 0.68851 0.52973402
-1.673045 0.69149202 0.52684098
-1.553158 0.69562799 0.52757901
-1.7052931 0.63916999 0.53302199
-1.731717 0.66324198 0.53003401
-1.975776 0.66632497 0.53048402
-1.731943 0.67375702 0.53293103
-1.719686 0.67009699 0.53130102
-2.022069 0.67589402 0.53407198
-1.996642 0.676296 0.53391403
-1.96052 0.67839098 0.53019202
-1.903319 0.677845 0.53296298
-1.764586 0.67983598 0.53405201
-1.75078 0.67764997 0.53041101
-1.748199 0.676961 0.530505
-1.732374 0.67755997 0.53044701
-1.713927 0.67709702 0.53129601
-1.694981 0.67933398 0.53182298
-1.912925 0.68367302 0.531744
-1.764811 0.68405098 0.531663
-1.7468171 0.68386698 0.53308547
-1.741555 0.68426198 0.53181702
-1.694572 0.68123502 0.533786
-1.689931 0.686643 0.53497398
-1.526824 0.68667603 0.53221202
-1.569838 0.69378299 0.53007299
-1.993553 0.66231698 0.53743601
-1.727715 0.66554701 0.53611302
-1.920965 0.673868 0.53986299
-1.904439 0.67482799 0.53994298
-1.870041 0.674169 0.53669202
-2.0332911 0.67551398 0.53678399
-1.860271 0.679151 0.53512597
-1.791628 0.67922199 0.53724998
-1.776207 0.67785501 0.53939003
-1.712018 0.67685103 0.53748846
-1.823576 0.68272001 0.53949398
-1.758881 0.681059 0.53560299
-1.8061301 0.68594497 0.53568101
-1.797727 0.68600398 0.53519303
-1.581445 0.68727499 0.53600103
-1.603197 0.69009203 0.535061
-1.584568 0.69208097 0.536048
-2.0113311 0.65831 0.544388
-1.785302 0.66986799 0.54391098
-2.051429 0.67314899 0.54236603
-2.039881 0.67077899 0.542651
-2.014287 0.67062002 0.54323399
-2.008461 0.67496401 0.54421401
-1.977839 0.67270899 0.54009998
-1.930463 0.67863703 0.54018998
-1.87866 0.67589796 0.5409205
-1.841022 0.67949402 0.54330701
-1.759734 0.681633 0.54302102
-1.706818 0.68179399 0.54310697
-1.39876 0.69019002 0.54469502
-1.382836 0.69116598 0.54317099
-1.3669111 0.69214302 0.54164797
-1.984113 0.65724897 0.546471
-2.051055 0.66960198 0.54610097
-1.921786 0.66905397 0.54904097
-1.887275 0.66862601 0.54579401
-1.895577 0.671619 0.54658401
-1.808769 0.67430001 0.54550499
-1.729126 0.67386401 0.54500002
-1.6914721 0.67499298 0.54790902
-1.8584681 0.67626798 0.54711998
-1.7771339 0.677921 0.54866803
-1.695732 0.679537 0.54703301
-1.716321 0.68103999 0.54621398
-1.505082 0.68602002 0.549034
-1.414685 0.68921298 0.54621798
-2.029108 0.65430301 0.55133998
-2.001895 0.65345502 0.55224198
-1.922964 0.65828198 0.55440003
-2.0319321 0.66494399 0.552553
-1.904508 0.663082 0.55489701
-2.057693 0.66566402 0.551229
-1.995158 0.66702598 0.550008
-1.9132299 0.667853 0.55231398
-1.82591 0.66937703 0.55375999
-1.802563 0.665977 0.55066103
-1.798483 0.66855401 0.55183101
-1.902521 0.67272502 0.55201399
-1.733457 0.67717803 0.55291599
-1.723704 0.67694497 0.55123901
-1.7128741 0.67749 0.55327898
-1.681908 0.678146 0.55393797
-1.588812 0.67698997 0.55002099
-1.521881 0.68243599 0.55448699
-1.939133 0.66328102 0.55813903
-1.9310751 0.66284096 0.55719554
-1.819824 0.66208601 0.55741102
-1.939021 0.66958702 0.55634898
-1.81572 0.66767502 0.55855203
-1.8119349 0.670497 0.55996299
-1.750594 0.67331499 0.55961698
-1.74059 0.67209601 0.55937201
-1.712425 0.67398101 0.55578899
-1.698997 0.674986 0.55767298
-1.490495 0.67647499 0.557594
-2.049865 0.65161401 0.56329697
-2.049577 0.65926802 0.56187302
-2.006104 0.65685499 0.56339401
-1.94867 0.65659702 0.56472999
-1.8370841 0.65819502 0.564161
-1.84305 0.664455 0.56201601
-1.815432 0.66291302 0.56072003
-1.780955 0.66280699 0.56182098
-1.70705 0.66944802 0.56043798
-1.729588 0.672113 0.56210703
-1.716087 0.671826 0.56140703
-1.539578 0.67104399 0.564933
-1.924872 0.642878 0.56875497
-1.9579951 0.65038502 0.56809902
-2.0297959 0.65566099 0.56982499
-1.956389 0.66399997 0.56552202
-1.83269 0.66221601 0.567514
-1.513801 0.66238499 0.56926298
-1.497545 0.66418397 0.56683201
-1.76773 0.66945201 0.56631798
-1.750265 0.66550702 0.56887698
-1.545882 0.67371798 0.56782597
-1.55548 0.67526799 0.565391
-1.933658 0.64886099 0.57131499
-2.0672221 0.65359199 0.57119203
-2.023068 0.65074599 0.57431901
-1.966073 0.6516 0.573111
-1.854345 0.65430403 0.57090998
-1.973758 0.65841401 0.57469499
-1.815509 0.65543598 0.57303602
-1.74279 0.65574998 0.57477999
-1.7212811 0.65767598 0.57231402
-1.9366159 0.661538 0.57151902
-1.846735 0.663073 0.571257
-1.812963 0.66129798 0.57111001
-1.745811 0.66286898 0.57329899
-1.562628 0.67062199 0.571486
-1.538667 0.67011201 0.57398301
-1.951183 0.64512199 0.577003
-1.816043 0.64576697 0.57704002
-2.0028701 0.65200597 0.57766902
-1.983842 0.65279001 0.57523102
-1.9738261 0.65173399 0.57633501
-1.877332 0.65461099 0.57852602
-1.8493299 0.651631 0.57849902
-1.920089 0.66023302 0.57534897
-1.763015 0.66136098 0.57976198
-1.6309429 0.662525 0.57545
-1.596121 0.66442901 0.57880598
-1.5890779 0.66810101 0.57629502
-1.5504169 0.66781998 0.57893503
-1.959646 0.63503999 0.58235401
-1.856778 0.63919401 0.58491099
-2.084867 0.64791602 0.58051199
-1.983477 0.64660197 0.58149302
-1.911272 0.64681202 0.581056
-1.833419 0.64505702 0.58381498
-1.960415 0.65193701 0.58294803
-1.759552 0.65093702 0.58285201
-1.8815351 0.65564901 0.58255202
-1.8296191 0.65583301 0.580639
-1.791249 0.65754801 0.58376998
-1.7625051 0.65731299 0.58205497
-1.612868 0.66133302 0.58246601
-1.605878 0.66451699 0.58174801
-1.471163 0.66465998 0.58480603
-1.455009 0.66644698 0.58239001
-1.440997 0.66627902 0.582268
-1.977033 0.63112003 0.58915299
-2.02824 0.63830799 0.58742499
-1.986235 0.63764399 0.58837903
-2.1025119 0.64223999 0.58983099
-2.00088 0.64160502 0.58987403
-1.935837 0.64442801 0.58882099
-1.991173 0.64596099 0.58543301
-1.894473 0.64968902 0.58678102
-1.8662781 0.64599001 0.58738899
-1.898936 0.65193701 0.58819902
-1.727374 0.65034997 0.58937198
-1.689451 0.65430403 0.58937597
-1.779729 0.65598398 0.58859003
-1.646361 0.655141 0.58978599
-1.6296149 0.65823698 0.58612603
-1.577394 0.66178298 0.58527398
-1.566504 0.66246599 0.587372
-1.873914 0.63533098 0.59161198
-1.85026 0.63963997 0.59271002
-1.927834 0.64084899 0.59172302
-1.906128 0.64263201 0.59116
-2.0084939 0.64723998 0.59304202
-1.804747 0.64663601 0.59358102
-1.808135 0.65269899 0.59190202
-1.7791981 0.651757 0.59081
-1.4782799 0.652637 0.593732
-1.5939341 0.65805501 0.59174198
-1.5196249 0.659298 0.59205198
-1.9944201 0.62720102 0.59595197
-2.0454221 0.63266999 0.59725499
-2.0280581 0.634592 0.59549701
-2.081753 0.638614 0.599549
-2.0569949 0.63853002 0.59617001
-2.0182829 0.63660699 0.59825599
-1.9116139 0.64476597 0.59503597
-1.883227 0.64034897 0.59627801
-1.862932 0.644903 0.59969699
-1.9172831 0.646213 0.59789902
-1.795891 0.64620101 0.59956503
-1.679854 0.64894801 0.59710598
-1.706225 0.65052301 0.59593499
-1.494333 0.65086102 0.59613198
-1.990468 0.62857002 0.60192603
-2.045573 0.63064301 0.60234702
-1.944396 0.63488501 0.60238898
-1.8671 0.63422197 0.601605
-2.11868 0.63578498 0.60021502
-1.9018919 0.63700902 0.601071
-1.900569 0.64038199 0.60336602
-1.713347 0.64275497 0.60442501
-1.758764 0.64727801 0.60492599
-1.722998 0.64674199 0.60249501
-1.696601 0.64585203 0.60076499
-1.673075 0.65018201 0.60355699
-1.598677 0.65175802 0.60424697
-2.0079091 0.629821 0.60950899
-1.908187 0.62760597 0.60501498
-2.0990729 0.63293099 0.60945702
-2.035687 0.63160998 0.60663801
-1.8074909 0.63178998 0.60722399
-1.838774 0.63896501 0.60688698
-1.730094 0.63965899 0.60808498
-1.934363 0.64052802 0.606857
-1.841908 0.64300102 0.60816699
-1.812584 0.64064598 0.60832101
-1.739771 0.64296103 0.60905403
-1.6962399 0.64079303 0.60969698
-1.813157 0.64523202 0.60624498
-2.0542991 0.62087798 0.61476499
-2.0076799 0.62284201 0.61095399
-1.925324 0.623743 0.61171597
-1.904768 0.62226099 0.61378098
-2.0432129 0.62864 0.612728
-1.960958 0.62892097 0.61305499
-1.912541 0.62836099 0.610421
-1.789521 0.62909502 0.61485797
-1.855788 0.63512999 0.61353999
-1.819927 0.636401 0.613401
-1.792482 0.64104402 0.61229497
-1.706674 0.64301503 0.614461
-1.521925 0.643695 0.613469
-1.9424599 0.61988002 0.61841702
-2.0251429 0.624277 0.61861199
-1.929553 0.62347502 0.61861402
-2.0530901 0.62661201 0.61501902
-1.953722 0.62595201 0.61789298
-1.862695 0.628286 0.61640501
-1.9630359 0.63 0.619802
-1.951442 0.63484401 0.61581498
-1.836961 0.63276702 0.61892903
-1.7430789 0.63485199 0.61976397
-1.7565449 0.63918 0.61561298
-1.723473 0.639431 0.61991298
-1.712564 0.63536 0.61825901
-1.692341 0.64021301 0.61818302
-1.623055 0.64356297 0.617594
-1.5381269 0.64004302 0.61980498
-2.070493 0.62161398 0.62340099
-1.992432 0.62317699 0.62490898
-1.97752 0.62295699 0.62372202
-2.0654869 0.62900001 0.62160802
-1.968522 0.62915999 0.62477303
-1.892754 0.633421 0.62208599
-1.886783 0.63081998 0.62191498
-1.729871 0.63341397 0.62452799
-1.7733181 0.63539898 0.622172
-1.639581 0.640508 0.62120599
-2.0711269 0.61481798 0.62560302
-2.042104 0.61138397 0.62900901
-2.0969689 0.61575699 0.62674499
-1.7984281 0.61724198 0.628838
-1.879225 0.62286198 0.625862
-1.912901 0.62850797 0.62828398
-1.84597 0.62953401 0.62583101
-1.728888 0.62992603 0.62682098
-1.7595969 0.630108 0.62772
-1.740272 0.63584697 0.62536597
-1.554329 0.63639098 0.62614
-2.024416 0.60715801 0.63476199
-1.944196 0.60508901 0.63200003
-2.0779071 0.61709398 0.63092399
-2.009692 0.619286 0.63165897
-1.994082 0.61699402 0.63438803
-1.840269 0.61826903 0.63132799
-1.906828 0.62362498 0.63349998
-1.903088 0.62494898 0.63241601
-1.8613935 0.62301755 0.63293803
-1.661509 0.62397599 0.63496101
-1.7462161 0.62815601 0.63316101
-1.6450911 0.627011 0.63137299
-1.68916 0.63134098 0.63204098
-1.617739 0.63165498 0.63296098
-1.5705301 0.63273901 0.63247597
-2.0702209 0.60513097 0.63880599
-2.0596099 0.61319 0.63681602
-1.963578 0.61370498 0.635001
-1.857185 0.61466098 0.63681799
-1.814894 0.61194497 0.63753498
-2.1080871 0.61774898 0.63532102
-2.0473599 0.61708599 0.63865298
-2.0204129 0.616678 0.63720602
-1.968448 0.61854702 0.63921702
-1.876886 0.61724299 0.63936198
-1.929557 0.623043 0.63781297
-1.776255 0.62084901 0.63541901
-1.744154 0.62149 0.637573
-1.724426 0.629686 0.63653898
-1.705686 0.628286 0.63565302
-1.694554 0.62860799 0.63991702
-1.680225 0.62505901 0.63711798
-2.068382 0.59751898 0.64380002
-1.967971 0.61214501 0.64072502
-2.0912199 0.617549 0.64071602
-1.919392 0.61907798 0.64291698
-1.905099 0.618231 0.64104402
-1.879356 0.61842197 0.64334202
-1.7929111 0.61709499 0.64193201
-1.7611876 0.61849546 0.64346647
-1.76256 0.622899 0.64179301
-1.557386 0.62796199 0.64396697
-2.0765281 0.59992701 0.64706397
-1.964124 0.59765899 0.64997
-2.076679 0.604433 0.64704901
-1.860388 0.60043299 0.64897901
-2.076843 0.607647 0.64591801
-1.98492 0.60650402 0.64961499
-1.908847 0.60894299 0.64686
-1.83136 0.60664898 0.64623201
-2.037329 0.61112797 0.64688301
-1.863793 0.61245102 0.64829397
-1.809567 0.61334002 0.64844602
-1.679111 0.62498701 0.646433
-1.573591 0.62496501 0.64750898
-1.991912 0.59990698 0.65226001
-1.9976031 0.60393399 0.65138799
-1.968145 0.60171902 0.65497297
-1.878013 0.60137397 0.65409899
-1.928815 0.606592 0.65423203
-1.808974 0.60755998 0.65200698
-1.9578691 0.61211902 0.65346003
-1.935697 0.61320698 0.65341699
-1.896049 0.61286598 0.65209699
-1.841351 0.61295402 0.65457797
-1.794205 0.61081302 0.653817
-1.809152 0.61587799 0.65158498
-1.778905 0.61764097 0.65042597
-1.695197 0.61963302 0.65487099
-1.606001 0.61897302 0.65459198
-1.619136 0.621782 0.651483
-1.5897959 0.62196898 0.65104997
-2.014616 0.59904802 0.65958101
-2.075036 0.60444498 0.65860599
-2.042444 0.60007 0.65947998
-2.001868 0.60086298 0.65850401
-1.91041 0.60761601 0.65550703
-1.880381 0.60711497 0.65705597
-1.810889 0.60725403 0.65923202
-1.82567 0.61113501 0.65954101
-1.729503 0.61395001 0.65638798
-2.0083449 0.59399003 0.66284198
-1.910798 0.59443998 0.66004902
-1.9849859 0.59630197 0.66386801
-1.812202 0.59902298 0.66143101
-1.9635741 0.60498601 0.66237402
-1.9271719 0.60280299 0.66358
-1.827572 0.60369498 0.66464698
-1.974883 0.608284 0.66011298
-1.952002 0.60733598 0.66391802
-1.8428791 0.60583103 0.66147202
-1.794185 0.60819399 0.66106802
-1.745929 0.61024803 0.66281199
-1.659528 0.61466098 0.66170901
-1.638412 0.61298102 0.66167498
-2.0576279 0.57937503 0.66859603
-2.0316291 0.594163 0.66777498
-2.0437689 0.59910297 0.66638798
-1.896053 0.59635502 0.66748703
-2.019357 0.602171 0.66610599
-1.89697 0.60177898 0.66581702
-1.859535 0.60207701 0.66798598
-1.779972 0.60141498 0.66553599
-1.842188 0.60639101 0.66749603
-1.762355 0.60654497 0.66923499
-1.654617 0.60998398 0.66521698
-1.716485 0.61058998 0.66500902
-1.634202 0.61192 0.66577703
-2.0565219 0.57655901 0.67356402
-2.0526321 0.57518399 0.67356998
-2.0010619 0.58418798 0.67408103
-1.913559 0.596443 0.67457902
-1.8761899 0.59832197 0.67449898
-1.7961971 0.596196 0.67410499
-1.844256 0.60013598 0.67006099
-1.730781 0.60810298 0.67323399
-1.727371 0.60892498 0.671745
-1.675223 0.60951197 0.67068797
-1.6677409 0.61082602 0.67049003
-2.0449221 0.57726598 0.67556399
-2.0342071 0.57817101 0.67982298
-2.0376179 0.58333898 0.67996103
-2.0603311 0.59313899 0.67705399
-1.912621 0.590841 0.67617601
-1.8574589 0.59165198 0.67974502
-2.0310619 0.595478 0.67699802
-1.979533 0.59930497 0.67521
-1.690919 0.60436201 0.679667
-1.54193 0.604159 0.67974401
-1.683943 0.60717398 0.676826
-1.526033 0.607099 0.67627001
-2.0316689 0.57826298 0.6825
-1.912185 0.57626802 0.68452102
-2.081641 0.58165002 0.68069601
-1.929189 0.58532703 0.68486601
-1.987424 0.59410799 0.68136001
-1.978404 0.590321 0.68260199
-1.950233 0.59061199 0.68126899
-1.843606 0.59087098 0.68179297
-1.765232 0.59243399 0.68192202
-1.890198 0.59692699 0.68252301
-1.875224 0.59690499 0.68340701
-1.66608 0.60276598 0.68112999
-1.579779 0.60124499 0.68401599
-1.557827 0.60122001 0.683218
-2.068866 0.56856197 0.68527699
-2.000268 0.567765 0.68942302
-2.0012751 0.57439202 0.68814701
-2.045927 0.57557601 0.68851298
-2.0527151 0.58394003 0.68517202
-1.944569 0.58226198 0.68615299
-1.9136879 0.58016598 0.68971401
-1.8783621 0.58410901 0.68730301
-1.977459 0.58836299 0.68779802
-1.936291 0.58885902 0.68988401
-1.781545 0.58875698 0.68830103
-1.75318 0.58974898 0.68729502
-1.761657 0.59457701 0.68535203
-1.728614 0.59305501 0.68642801
-1.782316 0.59654701 0.68637502
-1.706614 0.59921199 0.68864602
-1.6820199 0.598189 0.688806
-1.648448 0.59924901 0.68824399
-1.615949 0.60230798 0.68768102
-2.050534 0.55884498 0.69493997
-2.069664 0.57829899 0.69406199
-2.057641 0.57623899 0.69459099
-1.945758 0.579813 0.69355601
-1.994934 0.58489799 0.69205803
-1.926158 0.58705801 0.69403899
-1.797858 0.58508003 0.69467998
-1.906481 0.59158403 0.69183803
-1.8606271 0.591353 0.69358897
-1.5561301 0.60004097 0.69257897
-2.032198 0.562334 0.69646251
-2.0675189 0.56724101 0.69888097
-2.017988 0.56901598 0.69697398
-2.0191269 0.580504 0.69743299
-1.876404 0.58145201 0.69758898
-2.0031919 0.58782899 0.69531101
-1.893838 0.587309 0.69915402
-1.859482 0.58646202 0.69531602
-1.815232 0.58952498 0.69705802
-1.677582 0.589836 0.69780499
-1.6214139 0.58946401 0.697115
-1.722309 0.59406298 0.69762498
-1.6979589 0.593611 0.69648302
-1.9138319 0.56414002 0.70462
-2.0328889 0.56689 0.70010197
-2.086612 0.572658 0.70295101
-1.977847 0.57270598 0.70218003
-1.962326 0.57429802 0.70224601
-2.0114641 0.57947397 0.70151502
-2.0635309 0.58223498 0.70041001
-1.963325 0.58043498 0.70086402
-1.952141 0.582394 0.70131302
-1.814171 0.58140302 0.70105898
-1.922763 0.58624202 0.70115298
-1.876971 0.58609599 0.70222098
-1.791532 0.58500302 0.70272303
-1.637311 0.58652401 0.70059001
-1.627409 0.590509 0.70264202
-2.0484891 0.55779499 0.70507503
-2.0841761 0.56177598 0.70841002
-2.0347021 0.56364 0.70580202
-2.06919 0.56921601 0.708341
-2.0740731 0.57032198 0.70517302
-2.069798 0.57188398 0.70584399
-2.1100171 0.575248 0.70905399
-1.892803 0.57674301 0.70548701
-1.909771 0.581572 0.70941597
-1.810155 0.58064997 0.708709
-1.807654 0.58244002 0.70652199
-1.735638 0.58240598 0.70814401
-1.791718 0.58750898 0.70549399
-1.643286 0.58692998 0.70885098
-1.553436 0.59138799 0.70950699
-2.0652511 0.55298102 0.71314698
-1.994486 0.56792802 0.71019399
-1.978894 0.568784 0.71093601
-1.816739 0.56761003 0.71341199
-2.1668129 0.57181299 0.71336001
-1.859717 0.57048303 0.71006501
-1.846796 0.57404798 0.71381801
-1.80711 0.57939303 0.71275502
-1.75173 0.57877898 0.71443701
-1.729838 0.58445698 0.71183598
-1.552451 0.58795297 0.71192098
-2.100832 0.55631101 0.71793902
-2.0992141 0.55886602 0.71503001
-2.0851619 0.556198 0.71819001
-2.086031 0.56379801 0.71723598
-2.059763 0.564623 0.71894097
-2.023941 0.56424499 0.71619701
-2.010617 0.56331199 0.71776801
-1.9630851 0.56427598 0.71580398
-1.8938 0.56151199 0.71942902
-2.12658 0.56928402 0.71972001
-2.0858879 0.56615698 0.718786
-1.826321 0.57600802 0.71649498
-1.659163 0.58335102 0.71505898
-1.5686259 0.58645296 0.71549249
-1.859977 0.55475402 0.72458899
-1.861583 0.55953801 0.72294903
-2.136471 0.56148303 0.721093
-2.061497 0.56850398 0.72236103
-2.044523 0.568627 0.72042799
-2.0149491 0.56730998 0.72294801
-1.842487 0.57136601 0.72428101
-1.822688 0.57378399 0.72278798
-1.823891 0.576801 0.72236902
-1.767822 0.57515103 0.72073001
-1.711422 0.57828999 0.72127402
-1.67504 0.579772 0.721268
-1.651642 0.57966602 0.72357798
-1.65882 0.58010399 0.720972
-2.0987749 0.54335397 0.72929299
-1.978294 0.55273002 0.72576898
-2.027765 0.55837101 0.72622102
-2.0120299 0.55775499 0.72831601
-1.910082 0.55683702 0.72727102
-2.0130911 0.564426 0.72714901
-1.942001 0.56261599 0.72918099
-1.8525831 0.57196701 0.725263
-1.7271661 0.57305002 0.72953099
-1.619055 0.57457799 0.72831398
-1.573146 0.57453799 0.72741997
-1.728894 0.576199 0.72746402
-1.690917 0.57619298 0.72747701
-1.6741821 0.57506299 0.729761
-1.6152411 0.576343 0.72564399
-2.083734 0.53998601 0.733199
-2.132987 0.54916799 0.731296
-2.0848441 0.54751003 0.73228502
-1.962865 0.54836702 0.73051798
-2.1597331 0.55381501 0.73477501
-2.044404 0.55359298 0.73423398
-1.87769 0.55435699 0.73145598
-2.1532559 0.55597597 0.73069501
-2.0758679 0.55805498 0.73055297
-1.9097691 0.559663 0.73408997
-2.143142 0.56332099 0.73038602
-2.1019781 0.56042898 0.731727
-2.066843 0.56099099 0.73407102
-2.0311279 0.56148398 0.73336798
-1.770643 0.56156701 0.73279601
-1.868508 0.566742 0.73437297
-1.838266 0.568174 0.73282099
-1.777656 0.57072598 0.73486501
-1.706794 0.57261401 0.73368502
-1.683479 0.57287401 0.73391098
-1.636542 0.57142299 0.73405999
-2.1188021 0.54500198 0.735834
-2.028599 0.55224103 0.737005
-2.02968 0.55909002 0.73591
-1.9584 0.55790597 0.73707902
-1.941103 0.55929703 0.73812503
-1.7866271 0.55796403 0.73904598
-2.077414 0.561827 0.73595202
-1.999691 0.56300002 0.73559999
-1.874819 0.56208098 0.73985201
-1.824439 0.56116199 0.736687
-1.72267 0.56903499 0.73989397
-1.699398 0.56947798 0.73907697
-1.6699851 0.56900901 0.73568898
-1.744657 0.57112801 0.73579001
-1.689545 0.57002199 0.73855001
-1.5942971 0.57285398 0.73833901
-2.135622 0.53940398 0.74465603
-2.1624751 0.54859197 0.742764
-2.061043 0.54881501 0.742248
-1.937517 0.54962099 0.74124599
-2.118068 0.55470198 0.74466902
-2.1095359 0.55024701 0.744789
-2.0919721 0.55148602 0.74216598
-1.9726945 0.55386502 0.74472153
-1.925994 0.55444402 0.74265897
-2.047307 0.55565798 0.74378699
-1.97062 0.55612701 0.74417198
-1.853844 0.56256503 0.742854
-1.842024 0.56034303 0.743393
-1.685596 0.56452602 0.74320698
-1.651976 0.56645799 0.742212
-2.0836799 0.53147 0.74710602
-2.007483 0.53220499 0.748245
-2.1508009 0.53991503 0.746526
-2.186826 0.54496098 0.74989998
-2.045167 0.546727 0.74569499
-2.0827479 0.55448598 0.74628401
-1.80261 0.55436099 0.745296
-2.015542 0.55653501 0.74702901
-1.84041 0.55584699 0.74506301
-1.704908 0.564982 0.74733901
-1.609697 0.56843197 0.74575597
-2.1080761 0.544918 0.75377798
-2.0289471 0.54308999 0.75059003
-1.94074 0.54351699 0.75256002
-2.0634861 0.549833 0.75420702
-2.0181749 0.54986101 0.75284398
-1.991199 0.54848802 0.75287497
-1.986751 0.54923099 0.753712
-1.875931 0.54716998 0.75335401
-1.8563811 0.55053103 0.75344002
-1.900358 0.556292 0.75259399
-1.869422 0.55695599 0.752886
-1.8580149 0.55519903 0.75183898
-1.848282 0.55701399 0.75219399
-1.747154 0.55929101 0.75457603
-1.6652991 0.559187 0.75256902
-1.593738 0.56643301 0.750067
-2.1002691 0.52613401 0.75586802
-2.0236449 0.52690202 0.75749099
-2.060848 0.53357798 0.75611901
-2.045413 0.53779399 0.759287
-1.92601 0.53881401 0.75697702
-2.156234 0.54073799 0.75808698
-1.958443 0.54400599 0.75979698
-2.0986531 0.54798102 0.758497
-1.986148 0.54977697 0.75609499
-2.0313921 0.550071 0.75845802
-1.923295 0.550955 0.75800598
-1.907151 0.55279702 0.75542301
-1.763073 0.55589497 0.75974298
-1.682844 0.55652899 0.758515
-1.6509711 0.55699497 0.75785297
-1.562713 0.56171203 0.75788701
-2.0773661 0.52883399 0.76407403
-2.1571679 0.531362 0.76175201
-2.057627 0.53169298 0.76085001
-2.044075 0.530837 0.76027101
-2.0783031 0.535698 0.76307499
-1.956944 0.53812402 0.76105899
-2.1921129 0.54022998 0.76242399
-2.079664 0.544007 0.76462698
-2.0075979 0.54377902 0.760773
-2.002913 0.54392803 0.76295799
-1.923317 0.548154 0.76320899
-1.872352 0.54521602 0.76181698
-1.811105 0.54688501 0.76345199
-1.75737 0.54861802 0.76397502
-1.9043241 0.55003101 0.76455498
-1.885 0.551346 0.76291901
-1.680714 0.55405599 0.76065397
-1.578077 0.55824798 0.76389498
-2.1516991 0.52600503 0.76759601
-2.1726661 0.53482097 0.76867002
-2.11096 0.53448099 0.76628798
-2.10271 0.53325802 0.76586097
-2.061878 0.53249699 0.76798397
-2.0239971 0.539069 0.76867098
-1.974667 0.53878701 0.76836699
-2.001677 0.54342598 0.76801902
-1.938779 0.54463899 0.769171
-1.899857 0.54104102 0.76746398
-1.816571 0.54807198 0.76617098
-1.696129 0.548926 0.76873899
-2.173203 0.52480501 0.774064
-2.07391 0.52635002 0.77016503
-2.094871 0.53018397 0.77176499
-1.826934 0.54233998 0.77107501
-1.805884 0.54685098 0.770818
-2.0901921 0.52100801 0.77947998
-2.1890979 0.52890402 0.77925301
-2.118479 0.52697903 0.77981198
-2.0783441 0.527201 0.77667999
-2.001688 0.528566 0.77795702
-2.208303 0.53343803 0.77624899
-2.128643 0.53280503 0.77711898
-2.0279329 0.53310698 0.77610898
-1.9908921 0.53356802 0.77693599
-1.924085 0.533342 0.776546
-1.9042929 0.534585 0.77857
-2.017206 0.53707498 0.77994299
-1.987408 0.53694099 0.77695799
-1.9075735 0.53941751 0.777143
-1.832154 0.54295897 0.77508599
-1.711544 0.54379499 0.776824
-1.697666 0.54646897 0.77611297
-1.65825 0.54705501 0.77773398
-2.111439 0.52467 0.78045499
-2.0240531 0.52410901 0.78215998
-2.07692 0.52788901 0.78107899
-1.940137 0.52873302 0.78427601
-1.806502 0.53172302 0.78450799
-1.784658 0.53464597 0.78051901
-1.815573 0.53888702 0.78465599
-1.804686 0.53795201 0.78247797
-1.726959 0.538665 0.78490901
-1.763651 0.54211199 0.78079897
-1.713231 0.542961 0.78219998
-1.7088749 0.54016298 0.78460902
-1.623577 0.54254001 0.78030401
-1.641106 0.546009 0.78233302
-2.1064739 0.51566601 0.78879499
-2.01773 0.52330297 0.787135
-2.156389 0.525213 0.78861398
-2.1446021 0.52712399 0.78995502
-2.043659 0.52669299 0.78744799
-1.9361399 0.52812397 0.78632498
-1.920264 0.52926898 0.786946
-2.003221 0.53124702 0.78714198
-1.9231535 0.5337435 0.78718996
-1.85859 0.53324902 0.78632098
-1.7792619 0.53762901 0.78831798
-1.728796 0.53945202 0.78828698
-1.638696 0.53767699 0.78828901
-1.61254 0.53851801 0.78707099
-2.1098559 0.50894397 0.79477203
-2.0772769 0.51156402 0.79094601
-2.111275 0.51660699 0.79407299
-1.990436 0.51809001 0.79100502
-2.14135 0.52041399 0.79241103
-2.0929749 0.52210802 0.79141903
-2.073195 0.52494198 0.79236501
-1.956189 0.52412301 0.79200703
-1.882594 0.52041399 0.794406
-2.05354 0.52908403 0.79245901
-1.937968 0.52947998 0.79406798
-1.822134 0.52652103 0.79270703
-1.86332 0.53273302 0.792916
-1.824198 0.53063798 0.79109102
-1.627805 0.53507698 0.79303998
-2.0065429 0.512909 0.79951203
-2.0337729 0.51803899 0.79631299
-1.97224 0.51951402 0.79973698
-1.859872 0.518902 0.79919201
-2.1186459 0.52451402 0.79706502
-2.067559 0.522717 0.799941
-2.055372 0.52126497 0.79805797
-1.9515049 0.52185702 0.79740399
-1.914749 0.52464998 0.79868501
-2.019033 0.52555299 0.79732603
-1.731778 0.52654099 0.79952002
-1.853116 0.53113103 0.79558998
-1.794873 0.53314602 0.79583597
-1.766852 0.53020799 0.79662001
-1.7600141 0.53170502 0.79927403
-1.64307 0.531636 0.79900903
-1.5764689 0.53752601 0.79862702
-1.920068 0.51405001 0.800717
-2.172493 0.51864499 0.80022699
-2.039566 0.51791102 0.80264401
-1.952206 0.51863801 0.80369902
-1.963094 0.520293 0.80364102
-1.877162 0.52488297 0.80419701
-1.878902 0.52762097 0.80182999
-1.84605 0.52791297 0.80428398
-1.658335 0.52819502 0.80497903
-1.759926 0.532435 0.80045998
-2.108315 0.49346 0.808873
-2.139039 0.50498098 0.80742502
-2.109966 0.50104898 0.80821103
-2.161144 0.50812697 0.80652398
-2.1500151 0.514422 0.80771297
-1.988292 0.51490402 0.807468
-1.937881 0.51424199 0.807818
-1.875592 0.51438802 0.80676299
-2.071697 0.51583201 0.80662
-2.060461 0.51744199 0.80950999
-2.034847 0.51985902 0.80751002
-1.96687 0.51559001 0.808483
-1.921142 0.51679498 0.80624002
-1.906075 0.51961303 0.80919099
-1.853399 0.51611501 0.80910498
-2.0203121 0.52030098 0.80992299
-1.8555011 0.52056903 0.807625
-1.782107 0.52520198 0.80534703
-1.66638 0.525801 0.80633497
-1.591365 0.53256798 0.80644
-2.0658579 0.50751197 0.81466901
-2.188597 0.51207697 0.81183898
-2.154778 0.51026398 0.813609
-2.1412449 0.51166099 0.81340802
-2.1250851 0.51054603 0.81209898
-2.0557899 0.51269197 0.81121302
-1.9789031 0.51510602 0.81268603
-1.89573 0.52092302 0.81214303
-1.826095 0.52418 0.81087297
-1.797362 0.52019697 0.81407499
-1.6736 0.52475399 0.81094801
-1.5867341 0.52978897 0.81030798
-2.1553221 0.499639 0.81673998
-2.1263101 0.495792 0.81684399
-2.1180699 0.495051 0.81951398
-1.982235 0.50932401 0.81956202
-1.953757 0.50913501 0.816203
-2.0998819 0.51211202 0.81843299
-1.945676 0.51351398 0.81860298
-1.936195 0.51063901 0.81779802
-1.869031 0.510912 0.81730402
-1.892144 0.51955003 0.81624699
-1.871153 0.51553398 0.81589103
-1.734921 0.51904899 0.81751102
-1.659911 0.52350402 0.81901002
-1.601806 0.52639198 0.81620198
-2.1905661 0.50426698 0.82056701
-2.1606719 0.500718 0.82016301
-2.0703759 0.50037098 0.820553
-2.0324991 0.50428301 0.82327199
-1.969633 0.50402802 0.824588
-1.994712 0.50991899 0.82173002
-1.984148 0.508008 0.82045197
-1.9070311 0.50536001 0.821904
-1.894063 0.50783902 0.824875
-1.937732 0.51052302 0.82443702
-1.910863 0.51475102 0.82305503
-1.8868051 0.510499 0.82415801
-1.82754 0.51006198 0.82341599
-1.750217 0.51465601 0.82487798
-1.810243 0.51639402 0.82118499
-1.806316 0.51681101 0.82372898
-1.7041301 0.51787198 0.822887
-1.616877 0.522995 0.82209498
-1.6021301 0.52266002 0.82180703
-2.12201 0.49480101 0.828067
-2.08658 0.49497801 0.82905197
-2.1429 0.49786901 0.82808602
-2.1334851 0.495608 0.82785702
-2.054863 0.49736601 0.82503301
-2.000118 0.50269198 0.82882899
-1.951248 0.50448197 0.82935703
-2.157023 0.50520802 0.82552201
-1.8846641 0.50570899 0.82550299
-1.804033 0.51301301 0.825333
-1.7192781 0.513749 0.82733846
-1.685468 0.51556098 0.825387
-1.675004 0.51916897 0.82627898
-1.631948 0.51959699 0.82798898
-1.617257 0.51943302 0.82671601
-2.1406641 0.48181701 0.83040601
-2.1472909 0.49281001 0.83368403
-2.0709691 0.492185 0.83354002
-2.1206689 0.499533 0.83230603
-2.048193 0.49863201 0.83337998
-1.985509 0.49892101 0.83297402
-1.943995 0.49830499 0.83394998
-2.1065619 0.501037 0.83280599
-2.0105209 0.50473201 0.83077401
-1.9095351 0.50276202 0.833727
-1.95356 0.50597799 0.83205998
-1.925997 0.50857902 0.83396697
-1.902457 0.50546402 0.832425
-1.843045 0.50560999 0.83088303
-1.819448 0.507882 0.83341801
-1.880108 0.510638 0.83133501
-1.82175 0.51184702 0.83188099
-1.765514 0.51026398 0.83224398
-1.690097 0.514835 0.83354801
-1.647019 0.51620001 0.83388197
-2.1111269 0.47831401 0.839284
-2.163403 0.48500401 0.835114
-2.1324329 0.48826799 0.83578801
-2.0800359 0.48726499 0.83831298
-2.1059401 0.490812 0.836734
-2.1728001 0.49875599 0.83763701
-2.1044641 0.497035 0.83692098
-2.016089 0.49737701 0.83720499
-2.078104 0.50044 0.83983302
-1.85855 0.501158 0.83835
-1.78081 0.505871 0.83961099
-2.1998849 0.48866901 0.84084302
-2.1732509 0.493202 0.84311801
-2.122288 0.49462301 0.844145
-2.113986 0.491721 0.84220201
-2.001385 0.49381399 0.84135902
-2.1864901 0.49553299 0.84083098
-1.837184 0.50688201 0.84003198
-2.1874521 0.47836399 0.84777403
-2.1487222 0.4809365 0.84784496
-2.1281209 0.48025599 0.84633702
-2.0457771 0.48333699 0.84882897
-1.942366 0.483334 0.84906501
-2.017261 0.48870701 0.84974402
-1.908968 0.48831099 0.84760898
-2.120688 0.49181601 0.84548998
-2.069355 0.491777 0.845348
-2.04214 0.49435699 0.84886301
-2.0320599 0.49206099 0.84558201
-1.902676 0.49075001 0.845599
-1.992066 0.49680901 0.84847999
-1.93376 0.495395 0.84895802
-1.9036781 0.49939999 0.84594703
-1.874054 0.496705 0.84581798
-1.850278 0.49762201 0.84958798
-1.852618 0.501917 0.84818399
-1.796106 0.50147903 0.84697801
-1.61929 0.50576502 0.84667498
-2.215862 0.482153 0.85236299
-2.0795829 0.48732901 0.85359502
-2.0865841 0.491016 0.85286301
-1.981355 0.49217001 0.85247397
-1.947355 0.49187499 0.85447103
-1.931561 0.49010101 0.85009998
-1.8546391 0.49828699 0.85319799
-1.763984 0.49836099 0.85146397
-1.758311 0.49720949 0.85301101
-1.6807441 0.50282001 0.85331899
-1.634088 0.50151497 0.85380203
-2.099766 0.47438499 0.85607702
-2.1698101 0.47758901 0.85885102
-2.187135 0.48277399 0.85631102
-2.167552 0.48234099 0.85541397
-2.0331371 0.483601 0.85812902
-1.947193 0.484898 0.85829902
-1.92433 0.48326999 0.85639697
-1.87515 0.48285899 0.85804403
-2.1380141 0.48820901 0.85548401
-2.0902171 0.48907501 0.85706598
-2.0847621 0.485015 0.85861802
-1.797689 0.48777401 0.85904002
-2.00753 0.49124101 0.85843903
-1.949412 0.49035999 0.857225
-1.873638 0.49517 0.85771197
-2.1369891 0.477786 0.86324698
-2.0406549 0.47968301 0.86291999
-2.2053609 0.48164001 0.86379802
-2.0952771 0.48167801 0.86370301
-2.064002 0.48142999 0.86233503
-1.850659 0.483201 0.86242199
-2.0583229 0.48668399 0.86231202
-1.955952 0.487533 0.86028099
-1.9385329 0.48657799 0.86108202
-1.8694381 0.49225101 0.86386901
-1.7789249 0.493458 0.86001199
-1.7732966 0.49410951 0.86066496
-1.685165 0.490955 0.86383498
-1.695641 0.49786201 0.86113203
-1.609882 0.49907801 0.86076099
-2.210953 0.46561 0.86940098
-2.1832039 0.47593999 0.867432
-1.9628249 0.47969601 0.86649799
