# .PCD v0.7 - Point Cloud Data file format
VERSION 0.7
FIELDS x y z
SIZE 4 4 4
TYPE F F F
COUNT 1 1 1
WIDTH 250
HEIGHT 1
VIEWPOINT 0 0 0 1 0 0 0
POINTS 250
DATA ascii
-2.0666621 0.29855901 0.474675
-2.0631599 0.28448299 0.48730901
-2.030952 0.28952 0.48952201
-2.0275469 0.278063 0.49121299
-2.042562 0.28361601 0.49023601
-2.0366189 0.28428099 0.490251
-2.034853 0.28172001 0.49121699
-2.0523224 0.292005 0.491016
-2.0595479 0.30877 0.49408799
-2.049186 0.314567 0.493866
-2.061955 0.33371899 0.492257
-2.03967 0.28928301 0.497076
-2.05232 0.29198399 0.49779701
-2.04234 0.301164 0.49586201
-2.0402169 0.30687001 0.49738199
-2.048624 0.31599 0.49695501
-2.0768211 0.33434799 0.498005
-2.0677209 0.340036 0.49828699
-2.050348 0.27415901 0.50453597
-2.0240059 0.27664599 0.50000399
-2.0465429 0.28227699 0.50290501
-2.0167179 0.288517 0.50311297
-2.0435381 0.294487 0.50161701
-2.028209 0.291886 0.50288802
-2.0591819 0.30103499 0.50119698
-2.049355 0.31848699 0.50118899
-2.0581739 0.33218101 0.50166202
-2.0564461 0.268895 0.50999099
-2.039701 0.271496 0.50898302
-2.0343249 0.270686 0.50810599
-2.0380931 0.27516001 0.50655299
-2.0686271 0.29869199 0.50928801
-2.0308261 0.297988 0.50513798
-2.046917 0.30183601 0.50521302
-2.064908 0.30726299 0.50736201
-2.049948 0.31001401 0.50545198
-2.04232 0.313777 0.50882202
-2.0489399 0.32272199 0.50989503
-2.0364561 0.26923701 0.51288003
-2.032763 0.26878801 0.51401198
-2.052233 0.27910301 0.512878
-2.047122 0.277643 0.51405197
-2.0388529 0.27576801 0.51295698
-2.0844231 0.282765 0.51325798
-2.032083 0.28224999 0.51419199
-2.0434959 0.28563401 0.51462698
-2.019567 0.28803101 0.51429302
-2.0139029 0.288082 0.51245898
-2.055882 0.29999501 0.51087397
-2.048506 0.30281901 0.51217502
-2.035589 0.30047601 0.51161999
-2.0447831 0.326902 0.51143599
-2.068558 0.33517 0.51022798
-2.0575669 0.34738901 0.51100498
-2.0719121 0.35124701 0.511159
-2.0409629 0.35130599 0.51070702
-2.063746 0.35692999 0.512061
-2.0658431 0.26659799 0.51785398
-2.049788 0.265118 0.51806498
-2.0376959 0.287449 0.51683003
-2.0169351 0.30783701 0.51758498
-2.043005 0.31317499 0.51986802
-2.0387051 0.31042099 0.51510501
-2.055203 0.317588 0.51508498
-2.015517 0.31681299 0.51771897
-2.073971 0.325248 0.51526701
-2.0292029 0.332688 0.51896799
-2.073761 0.34284699 0.51980901
-2.053931 0.34899101 0.51515502
-2.0358109 0.356148 0.517232
-2.0860629 0.37344801 0.51966798
-2.0719991 0.26145801 0.52331102
-2.0378721 0.27965701 0.52368897
-2.0352621 0.28288099 0.52327198
-2.0525 0.28530899 0.523763
-2.051579 0.29533201 0.52006602
-2.045856 0.30359399 0.52053702
-2.0322361 0.30759501 0.52114302
-2.060967 0.32401499 0.52101898
-2.0252841 0.32295001 0.52380502
-2.0369811 0.32742399 0.52304399
-2.044879 0.339127 0.52393299
-2.028111 0.33679101 0.524939
-2.038094 0.262467 0.52859098
-2.0318739 0.26037201 0.52872902
-2.0400691 0.26699799 0.52522498
-2.0587831 0.27938199 0.52636498
-2.0289061 0.279964 0.52845699
-2.0484469 0.28986201 0.52715498
-2.0316689 0.28571901 0.52570897
-2.08061 0.29359999 0.52763599
-2.06757 0.290189 0.528512
-2.0582261 0.29164699 0.52983201
-2.0432861 0.29400599 0.527915
-2.038198 0.29917601 0.52873802
-2.0089459 0.29991099 0.52677
-2.042208 0.302504 0.52911901
-2.048414 0.31067801 0.529827
-2.031507 0.31166899 0.52616501
-2.0338731 0.32635501 0.528593
-2.0409429 0.337814 0.52591699
-2.0697269 0.34205899 0.52876002
-2.0370951 0.36229599 0.52529103
-2.069932 0.366669 0.52574199
-2.028749 0.26785001 0.53315502
-2.0117221 0.27452701 0.53005099
-2.061816 0.28286499 0.531775
-2.049454 0.28487501 0.53320199
-2.0613401 0.297279 0.53170103
-2.0323889 0.30233601 0.53001499
-2.047498 0.30652499 0.53461099
-2.042294 0.306694 0.532377
-2.0287211 0.30519801 0.53375602
-2.061692 0.31881899 0.53283602
-2.040767 0.31663501 0.53496999
-2.052387 0.321123 0.53487402
-2.039093 0.324514 0.534522
-2.021636 0.32002899 0.53350401
-2.0116279 0.32272401 0.53077
-2.0442181 0.33160999 0.53344601
-2.065449 0.336059 0.53400999
-2.0422111 0.34301701 0.53341103
-2.039099 0.344771 0.53027999
-2.024699 0.34424001 0.53346503
-2.0362041 0.34997901 0.53336799
-2.0188401 0.346109 0.530222
-2.0503521 0.35120001 0.53333801
-2.0697479 0.35953999 0.53381503
-2.0373621 0.36482301 0.53483802
-2.0304689 0.255099 0.535146
-2.040539 0.262036 0.53625798
-2.033783 0.26979899 0.53957999
-2.027072 0.26899999 0.53993702
-2.0447619 0.27468699 0.53677303
-2.0330901 0.27393401 0.53748399
-2.068054 0.277872 0.53708303
-2.030823 0.29426599 0.537561
-2.057786 0.29689401 0.53915203
-2.041975 0.29943401 0.53564399
-2.0330789 0.29546201 0.537067
-2.0485549 0.301723 0.53753501
-2.067337 0.30978999 0.53774601
-2.027765 0.31906301 0.53553599
-2.060504 0.33150199 0.53736401
-2.031642 0.34107101 0.53726602
-2.026294 0.34618101 0.53573298
-2.082772 0.36186701 0.53826302
-2.0803249 0.280707 0.54250801
-2.057946 0.294119 0.54402101
-2.0478439 0.29683399 0.54244602
-2.063488 0.30138201 0.54305601
-2.0446601 0.300621 0.54143298
-2.054317 0.30825901 0.54337502
-2.037214 0.31442001 0.54353601
-2.049397 0.31984201 0.54184997
-2.0270829 0.31722301 0.54320103
-2.04088 0.32448801 0.54093099
-2.0348179 0.332113 0.54353398
-2.052408 0.34458601 0.54186702
-2.0345349 0.34045699 0.54032999
-2.023253 0.35009 0.54197901
-2.0654831 0.35886899 0.54225397
-2.0339711 0.35791299 0.54482502
-2.013808 0.358114 0.54474699
-2.032233 0.26504299 0.54543
-2.0465181 0.289116 0.54654002
-2.0577891 0.299133 0.54569602
-2.056251 0.31031999 0.54613501
-2.043416 0.317718 0.549155
-2.0356791 0.32967499 0.54940301
-2.047049 0.33477101 0.54909599
-2.023294 0.33052999 0.54992801
-2.007354 0.33919901 0.54680902
-2.0409894 0.34175998 0.54817951
-2.0530851 0.357519 0.548334
-2.038342 0.35951799 0.54738998
-2.020195 0.35579199 0.54796302
-2.032263 0.36140099 0.54812998
-2.0474944 0.36793852 0.54732651
-2.0484769 0.289002 0.55021501
-2.0641091 0.294285 0.55085498
-2.0593841 0.308689 0.55362397
-2.0527921 0.30881 0.55356902
-2.0263841 0.30565101 0.55184901
-2.0380909 0.310691 0.55019301
-2.04461 0.31813699 0.55130702
-2.0631289 0.32646099 0.551126
-2.056443 0.34790701 0.55140197
-2.0279031 0.35359049 0.55317152
-2.0985401 0.35558799 0.55221403
-2.0568559 0.36440599 0.55342299
-2.004673 0.26340601 0.556315
-2.015074 0.270291 0.55865401
-2.044594 0.287752 0.55611998
-2.0540619 0.30537599 0.55857003
-2.059407 0.31257501 0.55760098
-2.0417056 0.3115505 0.55567098
-2.053761 0.31540099 0.55961603
-2.0504091 0.324871 0.55691803
-2.0373585 0.326038 0.55730599
-2.0322189 0.326336 0.55795401
-2.0512669 0.33049899 0.55761403
-2.044565 0.335776 0.55533803
-2.037066 0.33532301 0.555309
-2.0361199 0.350566 0.557073
-2.020972 0.28779501 0.56059599
-2.0683701 0.30320099 0.56360197
-2.037473 0.31255901 0.56497502
-2.039335 0.32891101 0.56370002
-2.053118 0.33071399 0.56304002
-2.0574501 0.33509099 0.56079298
-2.0417089 0.348418 0.56331801
-2.0312679 0.34719199 0.56383097
-2.0539551 0.35182199 0.56079501
-2.035996 0.35415801 0.56274599
-2.032299 0.314805 0.56823897
-2.0549121 0.32015601 0.56801599
-2.0600901 0.32926199 0.56859398
-2.0406649 0.33455101 0.56507897
-2.033253 0.346158 0.56968701
-2.039732 0.35170901 0.56882602
-2.055326 0.32376799 0.572146
-2.0369329 0.33447099 0.57301098
-2.011884 0.33401299 0.57148302
-2.034632 0.33681101 0.57336402
-2.027225 0.33825201 0.57237101
-2.069567 0.34412599 0.57419997
-2.0465009 0.341483 0.57046098
-2.052103 0.348977 0.571253
-2.0521021 0.35009599 0.57408297
-2.090678 0.36558199 0.57014
-2.0288651 0.26703301 0.57736701
-2.025142 0.29021901 0.57708597
-2.023607 0.31166601 0.576361
-2.053026 0.317561 0.57766402
-2.030323 0.333206 0.57929099
-2.0682089 0.34379601 0.57976002
-2.03672 0.35096499 0.57885098
-2.0123079 0.304225 0.58255601
-2.050441 0.331624 0.58240902
-2.0332999 0.33289799 0.58426499
-2.0524681 0.32765299 0.58639097
-2.0301609 0.348279 0.58775699
-2.0087039 0.31922001 0.590011
-2.0183511 0.32510301 0.59036398
-1.984955 0.30668801 0.59878498
-2.007386 0.31596699 0.596762
-2.0482941 0.34418499 0.59965998
-2.0222001 0.34068701 0.59688503
-2.0200419 0.336088 0.60393298
