# .PCD v.7 - Point Cloud Data file format
FIELDS x y z rgb imX imY
SIZE 4 4 4 4 4 4
TYPE F F F F F F
COUNT 1 1 1 1 1 1
WIDTH 845
HEIGHT 1
VIEWPOINT 0 0 0 1 0 0 0
POINTS 845
DATA ascii
0.013828539 0.71700001 0.018857099 5.7139612e-39 331 225
0.015085679 0.71700001 0.018857099 5.6214097e-39 332 225
0.016342819 0.71700001 0.018857099 5.3451829e-39 333 225
0.017649053 0.71899998 0.018909698 5.7125389e-39 334 225
0.018909698 0.71899998 0.018909698 5.4355919e-39 335 225
0.020198401 0.72000003 0.018935999 3.6039309e-39 336 225
-0.037714198 0.71700001 0.017599959 9.0340997e-39 290 226
-0.036406212 0.71600002 0.017575413 8.7575114e-39 291 226
-0.035052639 0.71399999 0.017526319 8.5691587e-39 292 226
-0.033658739 0.71100003 0.01745268 7.8315937e-39 293 226
-0.032184184 0.70599997 0.017329946 7.0021959e-39 294 226
-0.030858666 0.704 0.017280852 6.5412178e-39 295 226
-0.029624319 0.704 0.017280852 6.2606736e-39 296 226
-0.028389972 0.704 0.017280852 5.430913e-39 297 226
-0.027117053 0.70300001 0.017256306 5.061036e-39 298 226
-0.025773998 0.69999999 0.017182667 4.5078623e-39 299 226
-0.024546666 0.69999999 0.017182667 4.4138842e-39 300 226
-0.023319334 0.69999999 0.017182667 4.229853e-39 301 226
-0.02202888 0.69800001 0.017133573 4.1376728e-39 302 226
-0.020805053 0.69800001 0.017133573 4.1376728e-39 303 226
-0.019637333 0.69999999 0.017182667 4.5050106e-39 304 226
-0.018409999 0.69999999 0.017182667 4.5972062e-39 305 226
-0.017182667 0.69999999 0.017182667 5.2418498e-39 306 226
-0.015955333 0.69999999 0.017182667 5.426241e-39 307 226
-0.014727999 0.69999999 0.017182667 5.7049733e-39 308 226
-0.013500666 0.69999999 0.017182667 6.6269296e-39 309 226
-0.012273333 0.69999999 0.017182667 7.5499467e-39 310 226
-0.011045999 0.69999999 0.017182667 8.1031191e-39 311 226
-0.0098186666 0.69999999 0.017182667 8.4693779e-39 312 226
-0.0085913334 0.69999999 0.017182667 8.2849866e-39 313 226
-0.0073639993 0.69999999 0.017182667 8.2849838e-39 314 226
-0.0061366665 0.69999999 0.017182667 8.1009527e-39 315 226
-0.0049093333 0.69999999 0.017182667 7.9144118e-39 316 226
-0.0036819996 0.69999999 0.017182667 7.176488e-39 317 226
-0.0024581731 0.70099998 0.017207211 6.3474715e-39 318 226
-0.0012290865 0.70099998 0.017207211 5.8864933e-39 319 226
0 0.70099998 0.017207211 5.3354929e-39 320 226
0.0012290865 0.70099998 0.017207211 5.7039167e-39 321 226
0.0024581731 0.70099998 0.017207211 5.2465385e-39 322 226
0.0036872597 0.70099998 0.017207211 5.523124e-39 323 226
0.0049163462 0.70099998 0.017207211 5.157217e-39 324 226
0.0061454331 0.70099998 0.017207211 5.2494126e-39 325 226
0.0073745195 0.70099998 0.017207211 5.3433991e-39 326 226
0.0087263398 0.71100003 0.01745268 5.712183e-39 327 226
0.0099729598 0.71100003 0.01745268 5.8061695e-39 328 226
0.01121958 0.71100003 0.01745268 6.0831165e-39 329 226
0.012518799 0.71399999 0.017526319 6.1767373e-39 330 226
0.01377068 0.71399999 0.017526319 5.9001518e-39 331 226
0.01506464 0.71600002 0.017575413 6.0820179e-39 332 226
0.016320027 0.71600002 0.017575413 5.9898223e-39 333 226
0.017599959 0.71700001 0.017599959 5.5284952e-39 334 226
0.018857099 0.71700001 0.017599959 5.067517e-39 335 226
0.020170346 0.71899998 0.017649053 2.7702073e-39 336 226
-0.037556399 0.71399999 0.016274439 8.6624389e-39 290 227
-0.036253672 0.713 0.016251646 7.5564515e-39 291 227
-0.034905359 0.71100003 0.01620606 6.9089115e-39 292 227
-0.033611398 0.70999998 0.016183265 6.3557377e-39 293 227
-0.032184184 0.70599997 0.016092092 6.1695472e-39 294 227
-0.030858666 0.704 0.016046507 5.6163748e-39 295 227
-0.029624319 0.704 0.016046507 5.1528841e-39 296 227
-0.028389972 0.704 0.016046507 5.1528841e-39 297 227
-0.027117053 0.70300001 0.016023712 4.9663377e-39 298 227
-0.025810819 0.70099998 0.015978126 4.5975566e-39 299 227
-0.024546666 0.69999999 0.015955333 4.2305663e-39 300 227
-0.023319334 0.69999999 0.015955333 4.2305663e-39 301 227
-0.022091998 0.69999999 0.015955333 4.4156694e-39 302 227
-0.020864666 0.69999999 0.015955333 4.6918962e-39 303 227
-0.019637333 0.69999999 0.015955333 4.8759231e-39 304 227
-0.018409999 0.69999999 0.015955333 5.3368999e-39 305 227
-0.017182667 0.69999999 0.015955333 5.2464965e-39 306 227
-0.015955333 0.69999999 0.015955333 5.4312479e-39 307 227
-0.014727999 0.69999999 0.015955333 6.2584834e-39 308 227
-0.013500666 0.69999999 0.015955333 6.8112985e-39 309 227
-0.012273333 0.69999999 0.015955333 7.9165572e-39 310 227
-0.011045999 0.69999999 0.015955333 8.2853397e-39 311 227
-0.0098186666 0.69999999 0.015955333 8.6519614e-39 312 227
-0.0085913334 0.69999999 0.015955333 8.46721e-39 313 227
-0.0073639993 0.69999999 0.015955333 8.650881e-39 314 227
-0.0061366665 0.69999999 0.015955333 8.7430781e-39 315 227
-0.0049093333 0.69999999 0.015955333 7.9140433e-39 316 227
-0.0036819996 0.69999999 0.015955333 6.8995312e-39 317 227
-0.0024581731 0.70099998 0.015978126 6.1626976e-39 318 227
-0.0012273333 0.69999999 0.015955333 5.9779477e-39 319 227
0 0.69999999 0.015955333 5.336181e-39 320 227
0.0012290865 0.70099998 0.015978126 5.5202121e-39 321 227
0.0024581731 0.70099998 0.015978126 5.3372628e-39 322 227
0.0036872597 0.70099998 0.015978126 5.4294598e-39 323 227
0.0049163462 0.70099998 0.015978126 5.3379929e-39 324 227
0.0061454331 0.70099998 0.015978126 5.3379929e-39 325 227
0.0073745195 0.70099998 0.015978126 5.247242e-39 326 227
0.0086404262 0.704 0.016046507 5.5238275e-39 327 227
0.0099028256 0.70599997 0.016092092 5.7089418e-39 328 227
0.01117224 0.708 0.01613768 5.9855287e-39 329 227
0.012448666 0.70999998 0.016183265 5.8047318e-39 330 227
0.013751393 0.713 0.016251646 6.0813172e-39 331 227
0.015001519 0.713 0.016251646 5.8983553e-39 332 227
0.016320027 0.71600002 0.016320027 5.6214097e-39 333 227
0.017575413 0.71600002 0.016320027 5.5292141e-39 334 227
0.018857099 0.71700001 0.016342819 5.1607903e-39 335 227
0.020114239 0.71700001 0.016342819 4.8827881e-39 336 227
0.021430992 0.71899998 0.016388407 3.8689949e-39 337 227
-0.037556399 0.71399999 0.015022559 8.1074701e-39 290 228
-0.036253672 0.713 0.015001519 6.9089269e-39 291 228
-0.034856264 0.70999998 0.014938398 6.5386898e-39 292 228
-0.033516716 0.708 0.01489632 6.1695472e-39 293 228
-0.03227536 0.708 0.01489632 6.0744789e-39 294 228
-0.030946331 0.70599997 0.014854239 5.6138595e-39 295 228
-0.029624319 0.704 0.014812159 5.4291123e-39 296 228
-0.028389972 0.704 0.014812159 4.8759385e-39 297 228
-0.027117053 0.70300001 0.014791119 4.6908242e-39 298 228
-0.025884461 0.70300001 0.014791119 4.4142373e-39 299 228
-0.024581732 0.70099998 0.014749039 4.3231151e-39 300 228
-0.023319334 0.69999999 0.014727999 4.5078651e-39 301 228
-0.022091998 0.69999999 0.014727999 5.5194932e-39 302 228
-0.020864666 0.69999999 0.014727999 6.072667e-39 303 228
-0.019637333 0.69999999 0.014727999 6.9913737e-39 304 228
-0.018409999 0.69999999 0.014727999 7.2683207e-39 305 228
-0.017182667 0.69999999 0.014727999 6.7183713e-39 306 228
-0.015909746 0.69800001 0.01468592 6.7183713e-39 307 228
-0.01468592 0.69800001 0.01468592 6.993882e-39 308 228
-0.013462093 0.69800001 0.01468592 7.3623044e-39 309 228
-0.012238266 0.69800001 0.01468592 7.6381795e-39 310 228
-0.01101444 0.69800001 0.01468592 7.6381795e-39 311 228
-0.0097906133 0.69800001 0.01468592 8.0048068e-39 312 228
-0.0085913334 0.69999999 0.014727999 7.7285786e-39 313 228
-0.0073429602 0.69800001 0.01468592 7.3605164e-39 314 228
-0.006119133 0.69800001 0.01468592 6.9913737e-39 315 228
-0.0049093333 0.69999999 0.014727999 6.897746e-39 316 228
-0.0036819996 0.69999999 0.014727999 6.6207989e-39 317 228
-0.0024546667 0.69999999 0.014727999 5.7020866e-39 318 228
-0.0012273333 0.69999999 0.014727999 5.7020866e-39 319 228
0 0.69999999 0.014727999 5.2436322e-39 320 228
0.0012273333 0.69999999 0.014727999 5.2436322e-39 321 228
0.0024546667 0.69999999 0.014727999 4.9692089e-39 322 228
0.0036819996 0.69999999 0.014727999 4.9692089e-39 323 228
0.0049093333 0.69999999 0.014727999 4.6025914e-39 324 228
0.0061366665 0.69999999 0.014727999 4.6951458e-39 325 228
0.0073639993 0.69999999 0.014727999 4.7869897e-39 326 228
0.0086036054 0.70099998 0.014749039 4.7869897e-39 327 228
0.0098747732 0.704 0.014812159 4.8802699e-39 328 228
0.011140679 0.70599997 0.014854239 5.157217e-39 329 228
0.012396066 0.70700002 0.01487528 5.1597309e-39 330 228
0.013693533 0.70999998 0.014938398 5.3444823e-39 331 228
0.014959441 0.71100003 0.014959441 5.5288609e-39 332 228
0.016320027 0.71600002 0.01506464 5.5288609e-39 333 228
0.017575413 0.71600002 0.01506464 5.3451857e-39 334 228
0.018857099 0.71700001 0.015085679 5.3451857e-39 335 228
0.020114239 0.71700001 0.015085679 4.9771249e-39 336 228
0.021371379 0.71700001 0.015085679 3.6863861e-39 337 228
0.02262852 0.71700001 0.015085679 1.2082766e-39 338 228
-0.037503798 0.713 0.013751393 6.8156439e-39 290 229
-0.036101133 0.70999998 0.013693533 5.9858818e-39 291 229
-0.034758076 0.708 0.013654959 6.1670305e-39 292 229
-0.033516716 0.708 0.013654959 6.0748348e-39 293 229
-0.032184184 0.70599997 0.013616386 5.9811973e-39 294 229
-0.030946331 0.70599997 0.013616386 5.796806e-39 295 229
-0.029624319 0.704 0.013577812 5.3365439e-39 296 229
-0.028389972 0.704 0.013577812 4.8759259e-39 297 229
-0.027039904 0.70099998 0.013519952 4.8744868e-39 298 229
-0.025773998 0.69999999 0.013500666 4.8744868e-39 299 229
-0.024476532 0.69800001 0.013462093 4.8759231e-39 300 229
-0.023252707 0.69800001 0.013462093 5.2443455e-39 301 229
-0.02202888 0.69800001 0.013462093 6.1659346e-39 302 229
-0.020805053 0.69800001 0.013462093 6.8113041e-39 303 229
-0.019581227 0.69800001 0.013462093 7.7285758e-39 304 229
-0.0183574 0.69800001 0.013462093 7.7285758e-39 305 229
-0.017133573 0.69800001 0.013462093 7.0860777e-39 306 229
-0.015909746 0.69800001 0.013462093 6.8091306e-39 307 229
-0.01468592 0.69800001 0.013462093 6.9006102e-39 308 229
-0.013462093 0.69800001 0.013462093 6.9006102e-39 309 229
-0.012238266 0.69800001 0.013462093 7.2672375e-39 310 229
-0.01101444 0.69800001 0.013462093 7.2672375e-39 311 229
-0.0097906133 0.69800001 0.013462093 7.4512701e-39 312 229
-0.0085667865 0.69800001 0.013462093 7.3587143e-39 313 229
-0.0073429602 0.69800001 0.013462093 7.0806897e-39 314 229
-0.006119133 0.69800001 0.013462093 6.8037427e-39 315 229
-0.0048953067 0.69800001 0.013462093 6.6190011e-39 316 229
-0.0036819996 0.69999999 0.013500666 6.6190011e-39 317 229
-0.0024546667 0.69999999 0.013500666 5.7932033e-39 318 229
-0.0012273333 0.69999999 0.013500666 5.7932033e-39 319 229
0 0.69999999 0.013500666 5.3347489e-39 320 229
0.0012273333 0.69999999 0.013500666 5.4269445e-39 321 229
0.0024546667 0.69999999 0.013500666 4.9684845e-39 322 229
0.0036819996 0.69999999 0.013500666 4.9684845e-39 323 229
0.0049093333 0.69999999 0.013500666 4.7866127e-39 324 229
0.0061366665 0.69999999 0.013500666 4.6025816e-39 325 229
0.0073639993 0.69999999 0.013500666 4.7866127e-39 326 229
0.0086036054 0.70099998 0.013519952 4.7866127e-39 327 229
0.0098607466 0.70300001 0.013558527 4.7873372e-39 328 229
0.011109119 0.704 0.013577812 5.0639227e-39 329 229
0.012378532 0.70599997 0.013616386 4.9731718e-39 330 229
0.013654959 0.708 0.013654959 5.2497601e-39 331 229
0.014938398 0.70999998 0.013693533 5.3423145e-39 332 229
0.01620606 0.71100003 0.01371282 5.6185412e-39 333 229
0.017575413 0.71600002 0.013809253 5.436301e-39 334 229
0.0188308 0.71600002 0.013809253 5.436301e-39 335 229
0.020114239 0.71700001 0.013828539 5.2529859e-39 336 229
0.021371379 0.71700001 0.013828539 4.5154209e-39 337 229
0.02262852 0.71700001 0.013828539 2.7658885e-39 338 229
0.02388566 0.71700001 0.013828539 6.6381036e-39 339 229
0.0251428 0.71700001 0.013828539 1.0795912e-38 340 229
-0.041312039 0.71399999 0.012518799 6.0910507e-39 287 230
-0.040004052 0.713 0.012501267 7.5560984e-39 288 230
-0.038645219 0.71100003 0.0124662 6.7263363e-39 289 230
-0.037345998 0.70999998 0.012448666 7.2741039e-39 290 230
-0.03599944 0.708 0.0124136 6.6287345e-39 291 230
-0.034708988 0.70700002 0.012396066 6.3521378e-39 292 230
-0.033422034 0.70599997 0.012378532 5.7993227e-39 293 230
-0.032184184 0.70599997 0.012378532 5.8897177e-39 294 230
-0.030858666 0.704 0.012343466 5.7053264e-39 295 230
-0.029624319 0.704 0.012343466 5.7049593e-39 296 230
-0.028268991 0.70099998 0.012290866 5.3361782e-39 297 230
-0.027001332 0.69999999 0.012273333 5.3350964e-39 298 230
-0.025773998 0.69999999 0.012273333 5.427292e-39 299 230
-0.024476532 0.69800001 0.012238266 5.3361754e-39 300 230
-0.023252707 0.69800001 0.012238266 5.5205652e-39 301 230
-0.02202888 0.69800001 0.012238266 5.7953543e-39 302 230
-0.020805053 0.69800001 0.012238266 5.7031586e-39 303 230
-0.019581227 0.69800001 0.012238266 5.8857492e-39 304 230
-0.0183574 0.69800001 0.012238266 5.8857492e-39 305 230
-0.017133573 0.69800001 0.012238266 5.9775847e-39 306 230
-0.015909746 0.69800001 0.012238266 5.8850304e-39 307 230
-0.01468592 0.69800001 0.012238266 5.7928361e-39 308 230
-0.013462093 0.69800001 0.012238266 5.8850332e-39 309 230
-0.012238266 0.69800001 0.012238266 6.5286061e-39 310 230
-0.01101444 0.69800001 0.012238266 6.89739e-39 311 230
-0.0097906133 0.69800001 0.012238266 7.2690368e-39 312 230
-0.0085667865 0.69800001 0.012238266 7.4537868e-39 313 230
-0.0073429602 0.69800001 0.012238266 8.0969856e-39 314 230
-0.006119133 0.69800001 0.012238266 8.00479e-39 315 230
-0.0048953067 0.69800001 0.012238266 7.1771943e-39 316 230
-0.0036714801 0.69800001 0.012238266 6.4396293e-39 317 230
-0.0024476533 0.69800001 0.012238266 6.0704992e-39 318 230
-0.0012238267 0.69800001 0.012238266 5.9783036e-39 319 230
0 0.69800001 0.012238266 5.2436294e-39 320 230
0.0012238267 0.69800001 0.012238266 5.1514338e-39 321 230
0.0024476533 0.69800001 0.012238266 5.0596011e-39 322 230
0.0036714801 0.69800001 0.012238266 5.0596011e-39 323 230
0.0048953067 0.69800001 0.012238266 4.785175e-39 324 230
0.006119133 0.69800001 0.012238266 4.785175e-39 325 230
0.0073639993 0.69999999 0.012273333 4.5100273e-39 326 230
0.0085913334 0.69999999 0.012273333 4.5100273e-39 327 230
0.0098607466 0.70300001 0.012325933 4.6022257e-39 328 230
0.01109334 0.70300001 0.012325933 4.7862568e-39 329 230
0.012343466 0.704 0.012343466 4.7873428e-39 330 230
0.013616386 0.70599997 0.012378532 5.0635696e-39 331 230
0.01487528 0.70700002 0.012396066 5.2479636e-39 332 230
0.01613768 0.708 0.0124136 5.7089418e-39 333 230
0.01745268 0.71100003 0.0124662 5.6185384e-39 334 230
0.0188308 0.71600002 0.012553867 5.7110928e-39 335 230
0.020114239 0.71700001 0.0125714 5.4362982e-39 336 230
0.021371379 0.71700001 0.0125714 5.067517e-39 337 230
0.02262852 0.71700001 0.0125714 3.5938499e-39 338 230
0.02388566 0.71700001 0.0125714 2.8562849e-39 339 230
0.0251428 0.71700001 0.0125714 7.2038792e-39 340 230
-0.042563915 0.71399999 0.011266919 9.2192253e-39 286 231
-0.041254178 0.713 0.011251139 6.084934e-39 287 231
-0.040004052 0.713 0.011251139 7.18659e-39 288 231
-0.038645219 0.71100003 0.01121958 6.8181662e-39 289 231
-0.037345998 0.70999998 0.011203799 7.5510369e-39 290 231
-0.03599944 0.708 0.01117224 6.9978631e-39 291 231
-0.034708988 0.70700002 0.011156459 6.6276331e-39 292 231
-0.033422034 0.70599997 0.011140679 6.1670136e-39 293 231
-0.032093015 0.704 0.011109119 5.8893492e-39 294 231
-0.030858666 0.704 0.011109119 5.7971535e-39 295 231
-0.029582238 0.70300001 0.01109334 5.8882716e-39 296 231
-0.028268991 0.70099998 0.011061779 5.6116861e-39 297 231
-0.027001332 0.69999999 0.011045999 5.5205652e-39 298 231
-0.025773998 0.69999999 0.011045999 5.3361754e-39 299 231
-0.024476532 0.69800001 0.01101444 5.336181e-39 300 231
-0.023252707 0.69800001 0.01101444 5.151431e-39 301 231
-0.02202888 0.69800001 0.01101444 5.4240704e-39 302 231
-0.020805053 0.69800001 0.01101444 5.3318748e-39 303 231
-0.019581227 0.69800001 0.01101444 4.7805059e-39 304 231
-0.0183574 0.69800001 0.01101444 4.6883103e-39 305 231
-0.017133573 0.69800001 0.01101444 4.8716225e-39 306 231
-0.015909746 0.69800001 0.01101444 4.9638181e-39 307 231
-0.01468592 0.69800001 0.01101444 4.8705463e-39 308 231
-0.013442807 0.69700003 0.01099866 5.1471332e-39 309 231
-0.012220734 0.69700003 0.01099866 5.5173451e-39 310 231
-0.01099866 0.69700003 0.01099866 6.2549101e-39 311 231
-0.0097765867 0.69700003 0.01099866 6.8109327e-39 312 231
-0.0085545136 0.69700003 0.01099866 7.6406934e-39 313 231
-0.00733244 0.69700003 0.01099866 8.5611825e-39 314 231
-0.0061103669 0.69700003 0.01099866 8.5611825e-39 315 231
-0.0048882933 0.69700003 0.01099866 8.3739172e-39 316 231
-0.00366622 0.69700003 0.01099866 7.4523196e-39 317 231
-0.0024476533 0.69800001 0.01101444 6.6222213e-39 318 231
-0.0012238267 0.69800001 0.01101444 6.3459945e-39 319 231
0 0.69800001 0.01101444 5.4272948e-39 320 231
0.0012238267 0.69800001 0.01101444 5.3350992e-39 321 231
0.0024476533 0.69800001 0.01101444 4.87557e-39 322 231
0.0036714801 0.69800001 0.01101444 4.87557e-39 323 231
0.0048953067 0.69800001 0.01101444 4.6929794e-39 324 231
0.006119133 0.69800001 0.01101444 4.6929794e-39 325 231
0.0073639993 0.69999999 0.011045999 4.6011439e-39 326 231
0.0085913334 0.69999999 0.011045999 4.6011439e-39 327 231
0.0098326923 0.70099998 0.011061779 4.4178316e-39 328 231
0.01109334 0.70300001 0.01109334 4.5100273e-39 329 231
0.012325933 0.70300001 0.01109334 4.7862596e-39 330 231
0.013577812 0.704 0.011109119 4.8784553e-39 331 231
0.014812159 0.704 0.011109119 5.0628535e-39 332 231
0.016092092 0.70599997 0.011140679 5.4312759e-39 333 231
0.017329946 0.70599997 0.011140679 5.250479e-39 334 231
0.0186204 0.708 0.01117224 5.435229e-39 335 231
0.01994592 0.71100003 0.01121958 5.436301e-39 336 231
0.021371379 0.71700001 0.01131426 5.436301e-39 337 231
0.02262852 0.71700001 0.01131426 4.6991073e-39 338 231
0.02388566 0.71700001 0.01131426 1.0112807e-39 339 231
0.0251428 0.71700001 0.01131426 3.9705484e-39 340 231
-0.043754432 0.713 0.010001013 9.4057717e-39 285 232
-0.042504307 0.713 0.010001013 8.2897104e-39 286 232
-0.041138459 0.71100003 0.0099729598 6.0773754e-39 287 232
-0.039835732 0.70999998 0.0099589331 8.0095165e-39 288 232
-0.038590867 0.70999998 0.0099589331 8.0095165e-39 289 232
-0.0372408 0.708 0.0099308798 7.1851383e-39 290 232
-0.035948593 0.70700002 0.0099168532 6.6323246e-39 291 232
-0.034659892 0.70599997 0.0099028256 6.3542902e-39 292 232
-0.033422034 0.70599997 0.0099028256 5.6167237e-39 293 232
-0.032093015 0.704 0.0098747732 6.072667e-39 294 232
-0.030858666 0.704 0.0098747732 5.7038845e-39 295 232
-0.029498078 0.70099998 0.0098326923 5.7953571e-39 296 232
-0.028228667 0.69999999 0.0098186666 5.7953571e-39 297 232
-0.026924185 0.69800001 0.0097906133 5.4272948e-39 298 232
-0.025700359 0.69800001 0.0097906133 5.3350992e-39 299 232
-0.024441468 0.69700003 0.0097765867 5.33403e-39 300 232
-0.023219392 0.69700003 0.0097765867 5.057083e-39 301 232
-0.02202888 0.69800001 0.0097906133 4.9641713e-39 302 232
-0.020805053 0.69800001 0.0097906133 4.9641713e-39 303 232
-0.019581227 0.69800001 0.0097906133 4.5961076e-39 304 232
-0.018331099 0.69700003 0.0097765867 4.5961076e-39 305 232
-0.017109027 0.69700003 0.0097765867 4.8712526e-39 306 232
-0.015886955 0.69700003 0.0097765867 4.8712526e-39 307 232
-0.01466488 0.69700003 0.0097765867 4.8712498e-39 308 232
-0.013442807 0.69700003 0.0097765867 4.9638055e-39 309 232
-0.0122032 0.69599998 0.0097625591 5.2414644e-39 310 232
-0.010982879 0.69599998 0.0097625591 6.070865e-39 311 232
-0.0097625591 0.69599998 0.0097625591 7.1764726e-39 312 232
-0.0085422397 0.69599998 0.0097625591 7.9143964e-39 313 232
-0.0073219193 0.69599998 0.0097625591 8.9281728e-39 314 232
-0.0061015999 0.69599998 0.0097625591 8.8359771e-39 315 232
-0.0048882933 0.69700003 0.0097765867 8.4661184e-39 316 232
-0.00366622 0.69700003 0.0097765867 7.3597709e-39 317 232
-0.0024441467 0.69700003 0.0097765867 6.5307529e-39 318 232
-0.0012220733 0.69700003 0.0097765867 6.2541646e-39 319 232
0 0.69800001 0.0097906133 5.5187744e-39 320 232
0.0012220733 0.69700003 0.0097765867 5.3343831e-39 321 232
0.0024441467 0.69700003 0.0097765867 5.0596011e-39 322 232
0.0036714801 0.69800001 0.0097906133 4.87557e-39 323 232
0.0048953067 0.69800001 0.0097906133 4.600781e-39 324 232
0.006119133 0.69800001 0.0097906133 4.600781e-39 325 232
0.0073639993 0.69999999 0.0098186666 4.3256332e-39 326 232
0.0085913334 0.69999999 0.0098186666 4.3256332e-39 327 232
0.0098326923 0.70099998 0.0098326923 4.3256332e-39 328 232
0.01109334 0.70300001 0.0098607466 4.4181876e-39 329 232
0.012325933 0.70300001 0.0098607466 4.6936983e-39 330 232
0.013577812 0.704 0.0098747732 4.7858939e-39 331 232
0.014812159 0.704 0.0098747732 4.9702879e-39 332 232
0.016046507 0.704 0.0098747732 5.3387117e-39 333 232
0.017329946 0.70599997 0.0099028256 5.3415858e-39 334 232
0.018567799 0.70599997 0.0099028256 5.5259771e-39 335 232
0.019917866 0.70999998 0.0099589331 5.4355765e-39 336 232
0.021341572 0.71600002 0.010043093 5.4355765e-39 337 232
0.022596961 0.71600002 0.010043093 5.067517e-39 338 232
0.023852346 0.71600002 0.010043093 1.3796904e-39 339 232
0.025107734 0.71600002 0.010043093 6.5365108e-40 340 232
-0.045067675 0.71399999 0.0087631596 1.4565483e-38 284 233
-0.043754432 0.713 0.0087508867 8.6649627e-39 285 233
-0.042504307 0.713 0.0087508867 8.5572995e-39 286 233
-0.041138459 0.71100003 0.0087263398 8.0041257e-39 287 233
-0.039835732 0.70999998 0.0087140659 8.3768557e-39 288 233
-0.038590867 0.70999998 0.0087140659 8.5608868e-39 289 233
-0.0372408 0.708 0.008689519 7.4620699e-39 290 233
-0.035948593 0.70700002 0.008677247 7.2776772e-39 291 233
-0.034659892 0.70599997 0.0086649731 6.9049304e-39 292 233
-0.03332736 0.704 0.0086404262 6.4435921e-39 293 233
-0.032093015 0.704 0.0086404262 5.7042376e-39 294 233
-0.030727165 0.70099998 0.0086036054 5.612042e-39 295 233
-0.029455997 0.69999999 0.0085913334 5.3361782e-39 296 233
-0.028228667 0.69999999 0.0085913334 5.2439826e-39 297 233
-0.026924185 0.69800001 0.0085667865 5.4262228e-39 298 233
-0.025700359 0.69800001 0.0085667865 5.1496345e-39 299 233
-0.024441468 0.69700003 0.0085545136 5.057083e-39 300 233
-0.023219392 0.69700003 0.0085545136 4.6886606e-39 301 233
-0.02199732 0.69700003 0.0085545136 4.6886578e-39 302 233
-0.020775247 0.69700003 0.0085545136 4.5964607e-39 303 233
-0.019553173 0.69700003 0.0085545136 4.5042651e-39 304 233
-0.018331099 0.69700003 0.0085545136 4.5964607e-39 305 233
-0.017109027 0.69700003 0.0085545136 4.3213158e-39 306 233
-0.015886955 0.69700003 0.0085545136 4.3213158e-39 307 233
-0.014643839 0.69599998 0.0085422397 4.7797758e-39 308 233
-0.013423519 0.69599998 0.0085422397 4.8719728e-39 309 233
-0.0122032 0.69599998 0.0085422397 4.9663223e-39 310 233
-0.01095132 0.69400001 0.0085176928 5.5191373e-39 311 233
-0.0097345067 0.69400001 0.0085176928 5.9804658e-39 312 233
-0.0085422397 0.69599998 0.0085422397 6.8105852e-39 313 233
-0.0073219193 0.69599998 0.0085422397 7.4537812e-39 314 233
-0.0061015999 0.69599998 0.0085422397 7.9147593e-39 315 233
-0.0048812795 0.69599998 0.0085422397 8.0959066e-39 316 233
-0.00366622 0.69700003 0.0085545136 7.5427328e-39 317 233
-0.0024441467 0.69700003 0.0085545136 6.3463574e-39 318 233
-0.0012220733 0.69700003 0.0085545136 6.0701307e-39 319 233
0 0.69700003 0.0085545136 5.3350992e-39 320 233
0.0012220733 0.69700003 0.0085545136 5.3350992e-39 321 233
0.0024441467 0.69700003 0.0085545136 4.87557e-39 322 233
0.0036714801 0.69800001 0.0085667865 4.87557e-39 323 233
0.0048953067 0.69800001 0.0085667865 4.5085839e-39 324 233
0.006119133 0.69800001 0.0085667865 4.5085839e-39 325 233
0.0073429602 0.69800001 0.0085667865 4.233439e-39 326 233
0.0085913334 0.69999999 0.0085913334 4.233439e-39 327 233
0.0098186666 0.69999999 0.0085913334 4.233439e-39 328 233
0.011045999 0.69999999 0.0085913334 4.325636e-39 329 233
0.012290866 0.70099998 0.0086036054 4.3263577e-39 330 233
0.013558527 0.70300001 0.0086281532 4.4185533e-39 331 233
0.014812159 0.704 0.0086404262 4.5103958e-39 332 233
0.016046507 0.704 0.0086404262 4.6951458e-39 333 233
0.017280852 0.704 0.0086404262 4.6965891e-39 334 233
0.018567799 0.70599997 0.0086649731 5.0653702e-39 335 233
0.019833706 0.70700002 0.008677247 4.9756871e-39 336 233
0.021073313 0.70700002 0.008677247 4.8834915e-39 337 233
0.022533838 0.71399999 0.0087631596 5.066438e-39 338 233
0.023852346 0.71600002 0.0087877065 2.3009279e-39 339 233
0.025107734 0.71600002 0.0087877065 1.3782653e-39 340 233
-0.045067675 0.71399999 0.0075112795 1.3737149e-38 284 234
-0.043815799 0.71399999 0.0075112795 7.9288242e-39 285 234
-0.042385083 0.71100003 0.0074797203 9.5653166e-39 286 234
-0.041138459 0.71100003 0.0074797203 1.0026655e-38 287 234
-0.039835732 0.70999998 0.0074691991 8.1960532e-39 288 234
-0.038482159 0.708 0.0074481601 8.1960532e-39 289 234
-0.037188202 0.70700002 0.0074376399 7.5560816e-39 290 234
-0.035897743 0.70599997 0.0074271196 7.5560816e-39 291 234
-0.034561705 0.704 0.0074060797 6.9045955e-39 292 234
-0.03332736 0.704 0.0074060797 5.7982479e-39 293 234
-0.032047424 0.70300001 0.0073955595 5.7968032e-39 294 234
-0.030727165 0.70099998 0.0073745195 5.2436294e-39 295 234
-0.029455997 0.69999999 0.0073639993 5.5194932e-39 296 234
-0.028148014 0.69800001 0.0073429602 5.335102e-39 297 234
-0.026924185 0.69800001 0.0073429602 5.2425504e-39 298 234
-0.025663542 0.69700003 0.00733244 5.0585179e-39 299 234
-0.024441468 0.69700003 0.00733244 4.9645244e-39 300 234
-0.023219392 0.69700003 0.00733244 4.87197e-39 301 234
-0.02199732 0.69700003 0.00733244 4.5964607e-39 302 234
-0.020775247 0.69700003 0.00733244 4.5964607e-39 303 234
-0.019525118 0.69599998 0.0073219193 4.3213158e-39 304 234
-0.018304799 0.69599998 0.0073219193 4.3213158e-39 305 234
-0.017084479 0.69599998 0.0073219193 4.4127926e-39 306 234
-0.015864158 0.69599998 0.0073219193 4.4127926e-39 307 234
-0.014643839 0.69599998 0.0073219193 4.7801289e-39 308 234
-0.013384946 0.69400001 0.0073008798 4.872326e-39 309 234
-0.012168133 0.69400001 0.0073008798 5.3325782e-39 310 234
-0.01095132 0.69400001 0.0073008798 5.6095239e-39 311 234
-0.0097345067 0.69400001 0.0073008798 6.0704992e-39 312 234
-0.0085176928 0.69400001 0.0073008798 6.438923e-39 313 234
-0.0073008798 0.69400001 0.0073008798 7.4498309e-39 314 234
-0.0060840664 0.69400001 0.0073008798 7.5423853e-39 315 234
-0.0048672534 0.69400001 0.0073008798 7.4498337e-39 316 234
-0.0036609597 0.69599998 0.0073219193 6.8966599e-39 317 234
-0.0024406398 0.69599998 0.0073219193 5.9779505e-39 318 234
-0.0012203199 0.69599998 0.0073219193 5.6091693e-39 319 234
0 0.69599998 0.0073219193 5.335102e-39 320 234
0.0012203199 0.69599998 0.0073219193 5.2425476e-39 321 234
0.0024406398 0.69599998 0.0073219193 4.7837261e-39 322 234
0.00366622 0.69700003 0.00733244 4.7837261e-39 323 234
0.0048882933 0.69700003 0.00733244 4.5085811e-39 324 234
0.0061103669 0.69700003 0.00733244 4.4163855e-39 325 234
0.0073429602 0.69800001 0.0073429602 4.1412433e-39 326 234
0.0085667865 0.69800001 0.0073429602 4.1412433e-39 327 234
0.0098186666 0.69999999 0.0073639993 4.0501267e-39 328 234
0.011045999 0.69999999 0.0073639993 4.0501267e-39 329 234
0.012290866 0.70099998 0.0073745195 4.325636e-39 330 234
0.013519952 0.70099998 0.0073745195 4.4178316e-39 331 234
0.014791119 0.70300001 0.0073955595 4.5100273e-39 332 234
0.016046507 0.704 0.0074060797 4.6025816e-39 333 234
0.017280852 0.704 0.0074060797 4.6951402e-39 334 234
0.018515198 0.704 0.0074060797 5.0639227e-39 335 234
0.019805651 0.70599997 0.0074271196 5.0650017e-39 336 234
0.021073313 0.70700002 0.0074376399 4.9728061e-39 337 234
0.022344479 0.708 0.0074481601 5.1561211e-39 338 234
0.023852346 0.71600002 0.00753232 3.3122085e-39 339 234
0.025107734 0.71600002 0.00753232 2.6682881e-39 340 234
-0.046514176 0.71700001 0.0062857 1.4569796e-38 283 235
-0.045193922 0.71600002 0.0062769335 1.3735703e-38 284 235
-0.043815799 0.71399999 0.0062593995 8.7571401e-39 285 235
-0.042385083 0.71100003 0.0062330998 9.564948e-39 286 235
-0.041138459 0.71100003 0.0062330998 1.0763491e-38 287 235
-0.039835732 0.70999998 0.0062243328 8.0134598e-39 288 235
-0.038482159 0.708 0.0062067998 7.6446787e-39 289 235
-0.037188202 0.70700002 0.0061980332 7.5557271e-39 290 235
-0.035897743 0.70599997 0.0061892662 7.9245082e-39 291 235
-0.034561705 0.704 0.0061717331 6.8123999e-39 292 235
-0.033280019 0.70300001 0.0061629666 5.9822791e-39 293 235
-0.031956252 0.70099998 0.0061454331 5.7046076e-39 294 235
-0.030683333 0.69999999 0.0061366665 5.3358251e-39 295 235
-0.029371841 0.69800001 0.006119133 5.4272948e-39 296 235
-0.028148014 0.69800001 0.006119133 5.4272948e-39 297 235
-0.026885614 0.69700003 0.0061103669 5.4265759e-39 298 235
-0.025663542 0.69700003 0.0061103669 5.2421833e-39 299 235
-0.0244064 0.69599998 0.0061015999 5.3322251e-39 300 235
-0.023186078 0.69599998 0.0061015999 5.1478339e-39 301 235
-0.021965759 0.69599998 0.0061015999 4.7808534e-39 302 235
-0.020745439 0.69599998 0.0061015999 4.7808534e-39 303 235
-0.019525118 0.69599998 0.0061015999 4.5971782e-39 304 235
-0.018304799 0.69599998 0.0061015999 4.5971782e-39 305 235
-0.017084479 0.69599998 0.0061015999 4.3216717e-39 306 235
-0.015864158 0.69599998 0.0061015999 4.3216717e-39 307 235
-0.014643839 0.69599998 0.0061015999 4.779773e-39 308 235
-0.013384946 0.69400001 0.0060840664 4.87197e-39 309 235
-0.012168133 0.69400001 0.0060840664 5.05672e-39 310 235
-0.01095132 0.69400001 0.0060840664 5.2411113e-39 311 235
-0.0097345067 0.69400001 0.0060840664 5.5173423e-39 312 235
-0.0085176928 0.69400001 0.0060840664 5.6095379e-39 313 235
-0.0073008798 0.69400001 0.0060840664 5.7028083e-39 314 235
-0.0060840664 0.69400001 0.0060840664 5.7950039e-39 315 235
-0.0048672534 0.69400001 0.0060840664 6.3456568e-39 316 235
-0.0036504399 0.69400001 0.0060840664 5.9768757e-39 317 235
-0.0024336267 0.69400001 0.0060840664 5.3343831e-39 318 235
-0.0012168133 0.69400001 0.0060840664 5.2418274e-39 319 235
0 0.69599998 0.0061015999 4.9670383e-39 320 235
0.0012203199 0.69599998 0.0061015999 4.9670383e-39 321 235
0.0024406398 0.69599998 0.0061015999 4.6915304e-39 322 235
0.00366622 0.69700003 0.0061103669 4.5989761e-39 323 235
0.0048882933 0.69700003 0.0061103669 4.5989817e-39 324 235
0.0061103669 0.69700003 0.0061103669 4.6911773e-39 325 235
0.00733244 0.69700003 0.0061103669 4.2327201e-39 326 235
0.0085667865 0.69800001 0.006119133 4.2327201e-39 327 235
0.0097906133 0.69800001 0.006119133 3.9579311e-39 328 235
0.011045999 0.69999999 0.0061366665 4.0501267e-39 329 235
0.012273333 0.69999999 0.0061366665 4.0497708e-39 330 235
0.013519952 0.70099998 0.0061454331 4.1419678e-39 331 235
0.014791119 0.70300001 0.0061629666 4.3260017e-39 332 235
0.016023712 0.70300001 0.0061629666 4.3260017e-39 333 235
0.017280852 0.704 0.0061717331 4.235604e-39 334 235
0.018515198 0.704 0.0061717331 4.420354e-39 335 235
0.019805651 0.70599997 0.0061892662 4.6043907e-39 336 235
0.021043506 0.70599997 0.0061892662 4.5121951e-39 337 235
0.022344479 0.708 0.0062067998 4.6958605e-39 338 235
0.02378572 0.71399999 0.0062593995 3.5898716e-39 339 235
0.025107734 0.71600002 0.0062769335 3.3125743e-39 340 235
0.02639994 0.71700001 0.0062857 8.4755296e-39 341 235
-0.046449307 0.71600002 0.0050215465 1.4200293e-38 283 236
-0.045067675 0.71399999 0.0050075199 1.3367643e-38 284 236
-0.043754432 0.713 0.0050005065 9.7720151e-39 285 236
-0.042385083 0.71100003 0.0049864799 1.067454e-38 286 236
-0.041138459 0.71100003 0.0049864799 1.0305397e-38 287 236
-0.039835732 0.70999998 0.0049794666 7.461735e-39 288 236
-0.038482159 0.708 0.0049654399 7.0007568e-39 289 236
-0.037188202 0.70700002 0.0049584266 7.6457731e-39 290 236
-0.035897743 0.70599997 0.0049514128 7.92236e-39 291 236
-0.034561705 0.704 0.0049373866 6.444339e-39 292 236
-0.03318534 0.70099998 0.0049163462 5.7989696e-39 293 236
-0.031910665 0.69999999 0.0049093333 5.5212883e-39 294 236
-0.030595668 0.69800001 0.0048953067 5.1525058e-39 295 236
-0.029371841 0.69800001 0.0048953067 5.4272948e-39 296 236
-0.028107686 0.69700003 0.0048882933 5.4272948e-39 297 236
-0.026885614 0.69700003 0.0048882933 5.5187716e-39 298 236
-0.025626717 0.69599998 0.0048812795 5.4265759e-39 299 236
-0.0244064 0.69599998 0.0048812795 5.4254955e-39 300 236
-0.023186078 0.69599998 0.0048812795 5.4254955e-39 301 236
-0.021965759 0.69599998 0.0048812795 4.874121e-39 302 236
-0.020685827 0.69400001 0.0048672534 4.874121e-39 303 236
-0.019469013 0.69400001 0.0048672534 4.6897326e-39 304 236
-0.0182522 0.69400001 0.0048672534 4.5971782e-39 305 236
-0.017035386 0.69400001 0.0048672534 4.413866e-39 306 236
-0.015818574 0.69400001 0.0048672534 4.3216689e-39 307 236
-0.01460176 0.69400001 0.0048672534 4.872326e-39 308 236
-0.013384946 0.69400001 0.0048672534 4.872326e-39 309 236
-0.012168133 0.69400001 0.0048672534 5.1478367e-39 310 236
-0.01095132 0.69400001 0.0048672534 5.1478367e-39 311 236
-0.0097345067 0.69400001 0.0048672534 5.4237047e-39 312 236
-0.0085176928 0.69400001 0.0048672534 5.3315091e-39 313 236
-0.0073008798 0.69400001 0.0048672534 5.4251424e-39 314 236
-0.0060840664 0.69400001 0.0048672534 5.2411113e-39 315 236
-0.0048672534 0.69400001 0.0048672534 5.3340272e-39 316 236
-0.0036504399 0.69400001 0.0048672534 5.1496345e-39 317 236
-0.0024336267 0.69400001 0.0048672534 5.1496345e-39 318 236
-0.0012168133 0.69400001 0.0048672534 5.0574389e-39 319 236
0 0.69599998 0.0048812795 4.6908116e-39 320 236
0.0012203199 0.69599998 0.0048812795 4.6908116e-39 321 236
0.0024406398 0.69599998 0.0048812795 4.5989761e-39 322 236
0.0036609597 0.69599998 0.0048812795 4.5067805e-39 323 236
0.0048812795 0.69599998 0.0048812795 4.3241899e-39 324 236
0.0061015999 0.69599998 0.0048812795 4.4163855e-39 325 236
0.00733244 0.69700003 0.0048882933 4.1405245e-39 326 236
0.0085667865 0.69800001 0.0048953067 4.1405245e-39 327 236
0.0097906133 0.69800001 0.0048953067 3.9575751e-39 328 236
0.011045999 0.69999999 0.0049093333 3.9575751e-39 329 236
0.012273333 0.69999999 0.0049093333 3.9575751e-39 330 236
0.013519952 0.70099998 0.0049163462 4.0497708e-39 331 236
0.014791119 0.70300001 0.0049303733 4.1419678e-39 332 236
0.016023712 0.70300001 0.0049303733 4.3263577e-39 333 236
0.017280852 0.704 0.0049373866 4.1434055e-39 334 236
0.018515198 0.704 0.0049373866 4.2359599e-39 335 236
0.019805651 0.70599997 0.0049514128 4.236683e-39 336 236
0.021043506 0.70599997 0.0049514128 4.1444873e-39 337 236
0.022312919 0.70700002 0.0049584266 4.6036634e-39 338 236
0.023752406 0.713 0.0050005065 4.4196323e-39 339 236
0.025107734 0.71600002 0.0050215465 3.7753517e-39 340 236
0.02639994 0.71700001 0.0050285598 6.6334162e-39 341 236
-0.046449307 0.71600002 0.00376616 1.3555648e-38 283 237
-0.045067675 0.71399999 0.0037556398 1.2540405e-38 284 237
-0.043754432 0.713 0.0037503797 1.0327708e-38 285 237
-0.042385083 0.71100003 0.0037398601 1.1140202e-38 286 237
-0.041138459 0.71100003 0.0037398601 8.8353129e-39 287 237
-0.039835732 0.70999998 0.0037345996 6.6327002e-39 288 237
-0.038482159 0.708 0.00372408 6.3557531e-39 289 237
-0.037188202 0.70700002 0.0037188199 6.9986086e-39 290 237
-0.035796054 0.704 0.0037030398 6.906413e-39 291 237
-0.034561705 0.704 0.0037030398 5.7989696e-39 292 237
-0.03318534 0.70099998 0.0036872597 5.6145784e-39 293 237
-0.031910665 0.69999999 0.0036819996 5.6116861e-39 294 237
-0.030595668 0.69800001 0.0036714801 5.5194904e-39 295 237
-0.02932976 0.69700003 0.00366622 5.4272976e-39 296 237
-0.028107686 0.69700003 0.00366622 5.5194932e-39 297 237
-0.026885614 0.69700003 0.00366622 5.6116917e-39 298 237
-0.025626717 0.69599998 0.0036609597 5.6116917e-39 299 237
-0.024336265 0.69400001 0.0036504399 5.5220142e-39 300 237
-0.023119451 0.69400001 0.0036504399 5.4294598e-39 301 237
-0.021965759 0.69599998 0.0036609597 5.2436294e-39 302 237
-0.020685827 0.69400001 0.0036504399 5.0592382e-39 303 237
-0.019469013 0.69400001 0.0036504399 4.8744868e-39 304 237
-0.0182522 0.69400001 0.0036504399 4.59826e-39 305 237
-0.017035386 0.69400001 0.0036504399 4.6893766e-39 306 237
-0.015818574 0.69400001 0.0036504399 4.6893766e-39 307 237
-0.01460176 0.69400001 0.0036504399 4.6886578e-39 308 237
-0.013384946 0.69400001 0.0036504399 4.5964607e-39 309 237
-0.012168133 0.69400001 0.0036504399 4.87197e-39 310 237
-0.01095132 0.69400001 0.0036504399 4.9645244e-39 311 237
-0.0097345067 0.69400001 0.0036504399 4.9645244e-39 312 237
-0.0085176928 0.69400001 0.0036504399 5.05672e-39 313 237
-0.0073008798 0.69400001 0.0036504399 5.0574389e-39 314 237
-0.0060840664 0.69400001 0.0036504399 4.9652433e-39 315 237
-0.0048672534 0.69400001 0.0036504399 5.0574389e-39 316 237
-0.0036504399 0.69400001 0.0036504399 4.7808534e-39 317 237
-0.0024336267 0.69400001 0.0036504399 4.6893766e-39 318 237
-0.0012168133 0.69400001 0.0036504399 4.7815723e-39 319 237
0 0.69599998 0.0036609597 4.4145848e-39 320 237
0.0012203199 0.69599998 0.0036609597 4.4145848e-39 321 237
0.0024406398 0.69599998 0.0036609597 4.323471e-39 322 237
0.0036609597 0.69599998 0.0036609597 4.323471e-39 323 237
0.0048812795 0.69599998 0.0036609597 4.4163855e-39 324 237
0.0061015999 0.69599998 0.0036609597 4.2319942e-39 325 237
0.00733244 0.69700003 0.00366622 3.8657326e-39 326 237
0.0085667865 0.69800001 0.0036714801 3.8657326e-39 327 237
0.0097906133 0.69800001 0.0036714801 3.9572122e-39 328 237
0.011045999 0.69999999 0.0036819996 3.9572122e-39 329 237
0.012273333 0.69999999 0.0036819996 3.9568563e-39 330 237
0.013519952 0.70099998 0.0036872597 4.1408874e-39 331 237
0.014791119 0.70300001 0.0036977797 3.7742629e-39 332 237
0.016023712 0.70300001 0.0036977797 3.958294e-39 333 237
0.017280852 0.704 0.0037030398 3.7756992e-39 334 237
0.018515198 0.704 0.0037030398 3.8678948e-39 335 237
0.019749546 0.704 0.0037030398 3.8689767e-39 336 237
0.021043506 0.70599997 0.0037135598 3.776781e-39 337 237
0.022312919 0.70700002 0.0037188199 4.4196295e-39 338 237
0.023652466 0.70999998 0.0037345996 4.788412e-39 339 237
0.025037598 0.71399999 0.0037556398 4.0519386e-39 340 237
0.026363119 0.71600002 0.00376616 5.434873e-39 341 237
0.027657079 0.71700001 0.0037714199 1.0880532e-38 342 237
-0.046449307 0.71600002 0.0025107733 1.3553849e-38 283 238
-0.045067675 0.71399999 0.0025037599 1.2816269e-38 284 238
-0.043631699 0.71100003 0.0024932399 1.1617726e-38 285 238
-0.042385083 0.71100003 0.0024932399 1.1696973e-38 286 238
-0.041080594 0.70999998 0.0024897333 7.1793873e-39 287 238
-0.039723519 0.708 0.00248272 5.5270743e-39 288 238
-0.038427804 0.70700002 0.0024792133 5.5270743e-39 289 238
-0.037135597 0.70599997 0.0024757064 5.7096705e-39 290 238
-0.035796054 0.704 0.0024686933 5.4327248e-39 291 238
-0.034414422 0.70099998 0.0024581731 5.3376397e-39 292 238
-0.03318534 0.70099998 0.0024581731 5.2454441e-39 293 238
-0.031910665 0.69999999 0.0024546667 5.5198562e-39 294 238
-0.030595668 0.69800001 0.0024476533 5.3358251e-39 295 238
-0.02932976 0.69700003 0.0024441467 5.3358251e-39 296 238
-0.028107686 0.69700003 0.0024441467 5.3358251e-39 297 238
-0.026885614 0.69700003 0.0024441467 5.4283892e-39 298 238
-0.025626717 0.69599998 0.0024406398 6.0737586e-39 299 238
-0.024336265 0.69400001 0.0024336267 6.443267e-39 300 238
-0.023119451 0.69400001 0.0024336267 6.0741258e-39 301 238
-0.021965759 0.69599998 0.0024406398 5.5209422e-39 302 238
-0.020685827 0.69400001 0.0024336267 5.2439952e-39 303 238
-0.019469013 0.69400001 0.0024336267 5.2418274e-39 304 238
-0.0182522 0.69400001 0.0024336267 5.1496317e-39 305 238
-0.017035386 0.69400001 0.0024336267 4.9652405e-39 306 238
-0.015818574 0.69400001 0.0024336267 4.9652405e-39 307 238
-0.01460176 0.69400001 0.0024336267 4.87197e-39 308 238
-0.013384946 0.69400001 0.0024336267 4.87197e-39 309 238
-0.012150601 0.69300002 0.00243012 4.87197e-39 310 238
-0.010935539 0.69300002 0.00243012 4.9645244e-39 311 238
-0.0097204801 0.69300002 0.00243012 4.9645244e-39 312 238
-0.0085054198 0.69300002 0.00243012 4.9645244e-39 313 238
-0.0073008798 0.69400001 0.0024336267 4.9645244e-39 314 238
-0.0060840664 0.69400001 0.0024336267 4.9645244e-39 315 238
-0.0048672534 0.69400001 0.0024336267 4.7808534e-39 316 238
-0.0036504399 0.69400001 0.0024336267 4.7808534e-39 317 238
-0.0024336267 0.69400001 0.0024336267 4.5060644e-39 318 238
-0.0012168133 0.69400001 0.0024336267 4.5060644e-39 319 238
0 0.69400001 0.0024336267 4.2305565e-39 320 238
0.0012203199 0.69599998 0.0024406398 4.2305565e-39 321 238
0.0024406398 0.69599998 0.0024406398 4.2309194e-39 322 238
0.0036609597 0.69599998 0.0024406398 4.3231151e-39 323 238
0.0048812795 0.69599998 0.0024406398 4.3238339e-39 324 238
0.0061015999 0.69599998 0.0024406398 4.3238339e-39 325 238
0.0073219193 0.69599998 0.0024406398 3.6824204e-39 326 238
0.0085667865 0.69800001 0.0024476533 3.6824204e-39 327 238
0.0097906133 0.69800001 0.0024476533 3.8653767e-39 328 238
0.01101444 0.69800001 0.0024476533 3.8653767e-39 329 238
0.012273333 0.69999999 0.0024546667 3.7731839e-39 330 238
0.013519952 0.70099998 0.0024581731 3.7731839e-39 331 238
0.014749039 0.70099998 0.0024581731 3.7742657e-39 332 238
0.015978126 0.70099998 0.0024581731 3.7742657e-39 333 238
0.017256306 0.70300001 0.0024651866 3.6824302e-39 334 238
0.018515198 0.704 0.0024686933 3.8671816e-39 335 238
0.019749546 0.704 0.0024686933 3.6845882e-39 336 238
0.021043506 0.70599997 0.0024757064 3.6845882e-39 337 238
0.022312919 0.70700002 0.0024792133 4.0522945e-39 338 238
0.023585839 0.708 0.00248272 4.5129139e-39 339 238
0.025037598 0.71399999 0.0025037599 4.1441398e-39 340 238
0.026363119 0.71600002 0.0025107733 4.420368e-39 341 238
0.027618507 0.71600002 0.0025107733 1.0324839e-38 342 238
-0.046449307 0.71600002 0.0012553866 1.3276897e-38 283 239
-0.045004558 0.713 0.0012501266 1.3183978e-38 284 239
-0.043631699 0.71100003 0.00124662 1.3737152e-38 285 239
-0.042385083 0.71100003 0.00124662 1.3083876e-38 286 239
-0.041080594 0.70999998 0.0012448666 5.707867e-39 287 239
-0.039723519 0.708 0.00124136 4.9706677e-39 288 239
-0.038427804 0.70700002 0.0012396066 5.6160371e-39 289 239
-0.037135597 0.70599997 0.0012378532 5.429841e-39 290 239
-0.035796054 0.704 0.0012343467 5.245091e-39 291 239
-0.034414422 0.70099998 0.0012290865 5.518787e-39 292 239
-0.033137999 0.69999999 0.0012273333 5.518787e-39 293 239
-0.031910665 0.69999999 0.0012273333 5.4269445e-39 294 239
-0.030595668 0.69800001 0.0012238267 5.6113357e-39 295 239
-0.02932976 0.69700003 0.0012220733 5.2439952e-39 296 239
-0.028107686 0.69700003 0.0012220733 5.1517995e-39 297 239
-0.026847038 0.69599998 0.0012203199 5.5252708e-39 298 239
-0.025626717 0.69599998 0.0012203199 8.5677266e-39 299 239
-0.024336265 0.69400001 0.0012168133 9.4853725e-39 300 239
-0.023119451 0.69400001 0.0012168133 8.0098837e-39 301 239
-0.021965759 0.69599998 0.0012203199 6.2592289e-39 302 239
-0.020685827 0.69400001 0.0012168133 5.0606857e-39 303 239
-0.019469013 0.69400001 0.0012168133 5.3347461e-39 304 239
-0.0182522 0.69400001 0.0012168133 4.9663223e-39 305 239
-0.017035386 0.69400001 0.0012168133 4.8741238e-39 306 239
-0.015818574 0.69400001 0.0012168133 4.6897326e-39 307 239
-0.01460176 0.69400001 0.0012168133 4.9638055e-39 308 239
-0.013384946 0.69400001 0.0012168133 4.8712498e-39 309 239
-0.012150601 0.69300002 0.00121506 4.87197e-39 310 239
-0.010935539 0.69300002 0.00121506 4.87197e-39 311 239
-0.0097204801 0.69300002 0.00121506 4.9645216e-39 312 239
-0.0085054198 0.69300002 0.00121506 4.9645216e-39 313 239
-0.0073008798 0.69400001 0.0012168133 4.7808534e-39 314 239
-0.0060753003 0.69300002 0.00121506 4.6886578e-39 315 239
-0.00486024 0.69300002 0.00121506 4.6893766e-39 316 239
-0.0036504399 0.69400001 0.0012168133 4.597181e-39 317 239
-0.0024336267 0.69400001 0.0012168133 4.2305537e-39 318 239
-0.0012168133 0.69400001 0.0012168133 4.2305537e-39 319 239
0 0.69400001 0.0012168133 4.3216689e-39 320 239
0.0012168133 0.69400001 0.0012168133 4.413866e-39 321 239
0.0024406398 0.69599998 0.0012203199 4.2302006e-39 322 239
0.0036609597 0.69599998 0.0012203199 4.5067861e-39 323 239
0.0048812795 0.69599998 0.0012203199 4.1405217e-39 324 239
0.0061015999 0.69599998 0.0012203199 4.2327173e-39 325 239
0.0073219193 0.69599998 0.0012203199 3.6824204e-39 326 239
0.0085545136 0.69700003 0.0012220733 3.6824204e-39 327 239
0.0097906133 0.69800001 0.0012238267 3.6820645e-39 328 239
0.01101444 0.69800001 0.0012238267 3.6820645e-39 329 239
0.012273333 0.69999999 0.0012273333 3.8646579e-39 330 239
0.013500666 0.69999999 0.0012273333 3.8646579e-39 331 239
0.014749039 0.70099998 0.0012290865 3.7731811e-39 332 239
0.015978126 0.70099998 0.0012290865 3.7731811e-39 333 239
0.017256306 0.70300001 0.0012325933 3.8657326e-39 334 239
0.018515198 0.704 0.0012343467 3.8657326e-39 335 239
0.019749546 0.704 0.0012343467 3.6831393e-39 336 239
0.021043506 0.70599997 0.0012378532 3.7753349e-39 337 239
0.022312919 0.70700002 0.0012396066 4.2359571e-39 338 239
0.023585839 0.708 0.00124136 4.5125454e-39 339 239
0.024897331 0.70999998 0.0012448666 4.1430552e-39 340 239
0.026252659 0.713 0.0012501266 3.7746314e-39 341 239
0.02754136 0.71399999 0.00125188 9.8653009e-39 342 239
-0.044878319 0.71100003 -0 1.2999233e-38 284 240
-0.043631699 0.71100003 -0 1.3644603e-38 285 240
-0.042325463 0.70999998 -0 1.2080887e-38 286 240
-0.041080594 0.70999998 -0 2.4925414e-39 287 240
-0.039723519 0.708 -0 3.8636069e-39 288 240
-0.038427804 0.70700002 -0 5.0621501e-39 289 240
-0.037135597 0.70599997 -0 5.0599795e-39 290 240
-0.035796054 0.704 -0 4.8755882e-39 291 240
-0.034414422 0.70099998 -0 4.6911927e-39 292 240
-0.033137999 0.69999999 -0 4.6911927e-39 293 240
-0.031819493 0.69800001 -0 5.0603298e-39 294 240
-0.030595668 0.69800001 -0 5.4291123e-39 295 240
-0.02932976 0.69700003 -0 5.6160049e-39 296 240
-0.028107686 0.69700003 -0 7.0907748e-39 297 240
-0.026847038 0.69599998 -0 7.9237865e-39 298 240
-0.025626717 0.69599998 -0 1.0689295e-38 299 240
-0.024336265 0.69400001 -0 1.17953e-38 300 240
-0.023119451 0.69400001 -0 8.5684525e-39 301 240
-0.021965759 0.69599998 -0 6.2639078e-39 302 240
-0.020685827 0.69400001 -0 4.3277996e-39 303 240
-0.019469013 0.69400001 -0 5.0592382e-39 304 240
-0.0182522 0.69400001 -0 4.9670411e-39 305 240
-0.017035386 0.69400001 -0 4.9652405e-39 306 240
-0.015818574 0.69400001 -0 4.7812093e-39 307 240
-0.01460176 0.69400001 -0 5.0549208e-39 308 240
-0.01336566 0.69300002 -0 5.0549208e-39 309 240
-0.012150601 0.69300002 -0 4.87197e-39 310 240
-0.010935539 0.69300002 -0 4.9645244e-39 311 240
-0.0097204801 0.69300002 -0 4.9645216e-39 312 240
-0.0085054198 0.69300002 -0 4.9645216e-39 313 240
-0.0073008798 0.69400001 -0 4.7808534e-39 314 240
-0.0060753003 0.69300002 -0 4.6886578e-39 315 240
-0.00486024 0.69300002 -0 4.597181e-39 316 240
-0.0036451798 0.69300002 -0 4.597181e-39 317 240
-0.00243012 0.69300002 -0 4.1380007e-39 318 240
-0.0012168133 0.69400001 -0 4.0458051e-39 319 240
0 0.69400001 -0 4.3213158e-39 320 240
0.0012168133 0.69400001 -0 4.3213158e-39 321 240
0.0024336267 0.69400001 -0 4.4135156e-39 322 240
0.0036609597 0.69599998 -0 4.5979069e-39 323 240
0.0048812795 0.69599998 -0 4.3238339e-39 324 240
0.0061015999 0.69599998 -0 4.4163883e-39 325 240
0.0073219193 0.69599998 -0 4.1412405e-39 326 240
0.0085545136 0.69700003 -0 3.9572094e-39 327 240
0.0097906133 0.69800001 -0 3.6820645e-39 328 240
0.01101444 0.69800001 -0 3.5898688e-39 329 240
0.012273333 0.69999999 -0 3.6809855e-39 330 240
0.013500666 0.69999999 -0 3.7731811e-39 331 240
0.014727999 0.69999999 -0 3.6806323e-39 332 240
0.015978126 0.70099998 -0 3.4966012e-39 333 240
0.017256306 0.70300001 -0 3.6806323e-39 334 240
0.018515198 0.704 -0 3.6806323e-39 335 240
0.019749546 0.704 -0 3.3147267e-39 336 240
0.021043506 0.70599997 -0 3.4991179e-39 337 240
0.022312919 0.70700002 -0 3.4083684e-39 338 240
0.023585839 0.708 -0 4.0537379e-39 339 240
0.024897331 0.70999998 -0 3.0417495e-39 340 240
0.026179021 0.71100003 -0 2.5807714e-39 341 240
0.027502786 0.713 -0 1.0692901e-38 342 240
-0.044878319 0.71100003 -0.00124662 1.1248235e-38 284 241
-0.043570329 0.70999998 -0.0012448666 1.1985802e-38 285 241
-0.042325463 0.70999998 -0.0012448666 1.0328454e-38 286 241
-0.040964879 0.708 -0.00124136 1.2010865e-39 287 241
-0.039667413 0.70700002 -0.0012396066 3.5862969e-39 288 241
-0.038427804 0.70700002 -0.0012396066 4.7848401e-39 289 241
-0.037135597 0.70599997 -0.0012378532 4.783387e-39 290 241
-0.035796054 0.704 -0.0012343467 4.5071588e-39 291 241
