# .PCD v.7 - Point Cloud Data file format
FIELDS x y z rgb imX imY
SIZE 4 4 4 4 4 4
TYPE F F F F F F
COUNT 1 1 1 1 1 1
WIDTH 832
HEIGHT 1
VIEWPOINT 0 0 0 1 0 0 0
POINTS 832
DATA ascii
0.01605352 0.65399998 -0.050453916 1.4101828e-38 334 284
0.017226499 0.65499997 -0.050531063 1.4101828e-38 335 284
0.018374931 0.65499997 -0.050531063 1.3641576e-38 336 284
0.019582979 0.65700001 -0.050685361 1.3456825e-38 337 284
0.020734919 0.65700001 -0.050685361 1.3639777e-38 338 284
0.021920172 0.65799999 -0.050762504 1.3455387e-38 339 284
0.023073865 0.65799999 -0.050762504 1.3088049e-38 340 284
0.024264378 0.65899998 -0.050839648 1.2811461e-38 341 284
0.025419824 0.65899998 -0.050839648 1.2534538e-38 342 284
0.026655925 0.66100001 -0.050993945 1.1981724e-38 343 284
0.02781488 0.66100001 -0.050993945 1.1519692e-38 344 284
0.029017664 0.662 -0.051071092 1.1335301e-38 345 284
0.030223956 0.66299999 -0.051148236 1.1520061e-38 346 284
0.031433757 0.66399997 -0.051225383 1.216543e-38 347 284
0.032696161 0.66600001 -0.051379681 1.2443088e-38 348 284
0.033914726 0.667 -0.051456824 1.2811869e-38 349 284
0.035136797 0.66799998 -0.051533967 1.2813653e-38 350 284
0.036416732 0.67000002 -0.051688269 1.2905848e-38 351 284
0.037591465 0.67000002 -0.051688269 1.3090235e-38 352 284
0.038824059 0.671 -0.051765412 1.3182431e-38 353 284
0.040000543 0.671 -0.051765412 1.3273908e-38 354 284
0.041177034 0.671 -0.051765412 1.3273908e-38 355 284
0.042416636 0.67199999 -0.051842555 1.3181356e-38 356 284
0.043594878 0.67199999 -0.051842555 1.3366106e-38 357 284
0.044972997 0.67500001 -0.052074 1.3182806e-38 358 284
0.0461565 0.67500001 -0.052074 1.2998415e-38 359 284
0.047550395 0.67799997 -0.052305438 1.1892097e-38 360 284
-0.07201992 0.65200001 -0.051442798 1.7878259e-38 257 285
-0.070876747 0.65200001 -0.051442798 1.7878256e-38 258 285
-0.069733568 0.65200001 -0.051442798 1.8062646e-38 259 285
-0.068590395 0.65200001 -0.051442798 1.7878975e-38 260 285
-0.06744723 0.65200001 -0.051442798 1.7786779e-38 261 285
-0.066304058 0.65200001 -0.051442798 1.8062641e-38 262 285
-0.064960994 0.64999998 -0.051284995 1.7878609e-38 263 285
-0.063821331 0.64999998 -0.051284995 1.8062262e-38 264 285
-0.062681668 0.64999998 -0.051284995 1.7877511e-38 265 285
-0.061447315 0.64899999 -0.051206097 1.7878234e-38 266 285
-0.060309403 0.64899999 -0.051206097 1.7694201e-38 267 285
-0.059171494 0.64899999 -0.051206097 1.7693852e-38 268 285
-0.058033578 0.64899999 -0.051206097 1.7693852e-38 269 285
-0.056895666 0.64899999 -0.051206097 1.769385e-38 270 285
-0.055671841 0.648 -0.051127199 1.769385e-38 271 285
-0.05453568 0.648 -0.051127199 1.7509457e-38 272 285
-0.053399518 0.648 -0.051127199 1.769385e-38 273 285
-0.052344013 0.64899999 -0.051206097 1.7784965e-38 274 285
-0.051206097 0.64899999 -0.051206097 1.7692769e-38 275 285
-0.050068185 0.64899999 -0.051206097 1.7509451e-38 276 285
-0.04885488 0.648 -0.051127199 1.7417256e-38 277 285
-0.047718719 0.648 -0.051127199 1.7600574e-38 278 285
-0.046582561 0.648 -0.051127199 1.7692769e-38 279 285
-0.045516532 0.64899999 -0.051206097 1.7783896e-38 280 285
-0.044378616 0.64899999 -0.051206097 1.76917e-38 281 285
-0.043174081 0.648 -0.051127199 1.7233962e-38 282 285
-0.042037919 0.648 -0.051127199 1.7233962e-38 283 285
-0.040901758 0.648 -0.051127199 1.7326508e-38 284 285
-0.0397656 0.648 -0.051127199 1.7234312e-38 285 285
-0.038629439 0.648 -0.051127199 1.7509454e-38 286 285
-0.037493281 0.648 -0.051127199 1.7509454e-38 287 285
-0.03635712 0.648 -0.051127199 1.7693122e-38 288 285
-0.035220958 0.648 -0.051127199 1.7600568e-38 289 285
-0.034084801 0.648 -0.051127199 1.7509457e-38 290 285
-0.032948639 0.648 -0.051127199 1.7417261e-38 291 285
-0.031812482 0.648 -0.051127199 1.7600574e-38 292 285
-0.03067632 0.648 -0.051127199 1.7600574e-38 293 285
-0.029494572 0.64700001 -0.051048297 1.7232864e-38 294 285
-0.028360168 0.64700001 -0.051048297 1.7232864e-38 295 285
-0.02726784 0.648 -0.051127199 1.7232511e-38 296 285
-0.02613168 0.648 -0.051127199 1.7232511e-38 297 285
-0.024995521 0.648 -0.051127199 1.7232514e-38 298 285
-0.023859359 0.648 -0.051127199 1.7232514e-38 299 285
-0.0227232 0.648 -0.051127199 1.7232164e-38 300 285
-0.02158704 0.648 -0.051127199 1.7232164e-38 301 285
-0.02041932 0.64700001 -0.051048297 1.695595e-38 302 285
-0.019284913 0.64700001 -0.051048297 1.695595e-38 303 285
-0.018150507 0.64700001 -0.051048297 1.6404577e-38 304 285
-0.0170161 0.64700001 -0.051048297 1.6404577e-38 305 285
-0.015881693 0.64700001 -0.051048297 1.6219829e-38 306 285
-0.014747286 0.64700001 -0.051048297 1.6219829e-38 307 285
-0.01363392 0.648 -0.051127199 1.6218378e-38 308 285
-0.01249776 0.648 -0.051127199 1.6126182e-38 309 285
-0.011379133 0.64899999 -0.051206097 1.5667709e-38 310 285
-0.01024122 0.64899999 -0.051206097 1.5575514e-38 311 285
-0.0091033066 0.64899999 -0.051206097 1.5576233e-38 312 285
-0.0079653924 0.64899999 -0.051206097 1.5300006e-38 313 285
-0.0068274797 0.64899999 -0.051206097 1.52993e-38 314 285
-0.0056895665 0.64899999 -0.051206097 1.5391495e-38 315 285
-0.0045586661 0.64999998 -0.051284995 1.5391511e-38 316 285
-0.0034137398 0.64899999 -0.051206097 1.5299315e-38 317 285
-0.0022758266 0.64899999 -0.051206097 1.5391148e-38 318 285
-0.0011396665 0.64999998 -0.051284995 1.5298952e-38 319 285
0 0.64999998 -0.051284995 1.5206398e-38 320 285
0.0011431733 0.65200001 -0.051442798 1.5206398e-38 321 285
0.0022863466 0.65200001 -0.051442798 1.4930887e-38 322 285
0.0034295199 0.65200001 -0.051442798 1.4930887e-38 323 285
0.0045726933 0.65200001 -0.051442798 1.4747566e-38 324 285
0.0057158666 0.65200001 -0.051442798 1.4747566e-38 325 285
0.0068590399 0.65200001 -0.051442798 1.493051e-38 326 285
0.0080144862 0.653 -0.0515217 1.4746479e-38 327 285
0.0091594132 0.653 -0.0515217 1.447204e-38 328 285
0.01032012 0.65399998 -0.051600594 1.4379845e-38 329 285
0.011466799 0.65399998 -0.051600594 1.4195093e-38 330 285
0.012613479 0.65399998 -0.051600594 1.3826671e-38 331 285
0.013760159 0.65399998 -0.051600594 1.345863e-38 332 285
0.014906839 0.65399998 -0.051600594 1.345863e-38 333 285
0.01605352 0.65399998 -0.051600594 1.3364303e-38 334 285
0.017226499 0.65499997 -0.051679496 1.3364303e-38 335 285
0.018374931 0.65499997 -0.051679496 1.3179913e-38 336 285
0.019523365 0.65499997 -0.051679496 1.3087358e-38 337 285
0.020734919 0.65700001 -0.051837299 1.2995519e-38 338 285
0.021886859 0.65700001 -0.051837299 1.2718933e-38 339 285
0.023073865 0.65799999 -0.051916201 1.2718933e-38 340 285
0.024264378 0.65899998 -0.051995095 1.253454e-38 341 285
0.025419824 0.65899998 -0.051995095 1.2350146e-38 342 285
0.026655925 0.66100001 -0.052152898 1.1981724e-38 343 285
0.02781488 0.66100001 -0.052152898 1.1795903e-38 344 285
0.029017664 0.662 -0.0522318 1.1611512e-38 345 285
0.030223956 0.66299999 -0.052310698 1.1612604e-38 346 285
0.031433757 0.66399997 -0.052389596 1.2257973e-38 347 285
0.032696161 0.66600001 -0.052547399 1.2443441e-38 348 285
0.033914726 0.667 -0.052626297 1.2627832e-38 349 285
0.035136797 0.66799998 -0.052705199 1.2813653e-38 350 285
0.036416732 0.67000002 -0.052863002 1.2905848e-38 351 285
0.037647571 0.671 -0.052941896 1.2906567e-38 352 285
0.038824059 0.671 -0.052941896 1.2906567e-38 353 285
0.040000543 0.671 -0.052941896 1.3181359e-38 354 285
0.041177034 0.671 -0.052941896 1.3181359e-38 355 285
0.042416636 0.67199999 -0.053020798 1.3181362e-38 356 285
0.043594878 0.67199999 -0.053020798 1.3181362e-38 357 285
0.044972997 0.67500001 -0.053257499 1.2721116e-38 358 285
-0.074986562 0.648 -0.05226336 1.7970432e-38 254 286
-0.073850393 0.648 -0.05226336 1.7970432e-38 255 286
-0.072714239 0.648 -0.05226336 1.8061912e-38 256 286
-0.07201992 0.65200001 -0.052585974 1.8061912e-38 257 286
-0.070876747 0.65200001 -0.052585974 1.7877528e-38 258 286
-0.069519661 0.64999998 -0.052424666 1.7877528e-38 259 286
-0.068379998 0.64999998 -0.052424666 1.7876809e-38 260 286
-0.067240328 0.64999998 -0.052424666 1.7784612e-38 261 286
-0.066100657 0.64999998 -0.052424666 1.7599852e-38 262 286
-0.064960994 0.64999998 -0.052424666 1.7323264e-38 263 286
-0.063821331 0.64999998 -0.052424666 1.7047382e-38 264 286
-0.062681668 0.64999998 -0.052424666 1.6955186e-38 265 286
-0.061447315 0.64899999 -0.052344013 1.6772239e-38 266 286
-0.060309403 0.64899999 -0.052344013 1.6772239e-38 267 286
-0.059171494 0.64899999 -0.052344013 1.6772608e-38 268 286
-0.058033578 0.64899999 -0.052344013 1.6588577e-38 269 286
-0.056808002 0.648 -0.05226336 1.6496378e-38 270 286
-0.055671841 0.648 -0.05226336 1.6496378e-38 271 286
-0.05453568 0.648 -0.05226336 1.6771889e-38 272 286
-0.053399518 0.648 -0.05226336 1.6679693e-38 273 286
-0.05226336 0.648 -0.05226336 1.6956283e-38 274 286
-0.051127199 0.648 -0.05226336 1.6864088e-38 275 286
-0.049991041 0.648 -0.05226336 1.6497097e-38 276 286
-0.048779488 0.64700001 -0.052182708 1.6404902e-38 277 286
-0.047645077 0.64700001 -0.052182708 1.6679691e-38 278 286
-0.046582561 0.648 -0.05226336 1.6679691e-38 279 286
-0.0454464 0.648 -0.05226336 1.6954129e-38 280 286
-0.044310238 0.648 -0.05226336 1.732291e-38 281 286
-0.043107454 0.64700001 -0.052182708 1.7414034e-38 282 286
-0.041973047 0.64700001 -0.052182708 1.7414034e-38 283 286
-0.04083864 0.64700001 -0.052182708 1.7139598e-38 284 286
-0.039704233 0.64700001 -0.052182708 1.6954848e-38 285 286
-0.038569827 0.64700001 -0.052182708 1.6771523e-38 286 286
-0.03743542 0.64700001 -0.052182708 1.6771523e-38 287 286
-0.036301013 0.64700001 -0.052182708 1.6679325e-38 288 286
-0.035166606 0.64700001 -0.052182708 1.6679325e-38 289 286
-0.0340322 0.64700001 -0.052182708 1.6679693e-38 290 286
-0.032897793 0.64700001 -0.052182708 1.6771889e-38 291 286
-0.031763386 0.64700001 -0.052182708 1.6772611e-38 292 286
-0.030628979 0.64700001 -0.052182708 1.6496025e-38 293 286
-0.029494572 0.64700001 -0.052182708 1.6587498e-38 294 286
-0.028360168 0.64700001 -0.052182708 1.6587498e-38 295 286
-0.027225759 0.64700001 -0.052182708 1.6403827e-38 296 286
-0.026091354 0.64700001 -0.052182708 1.6496381e-38 297 286
-0.024956945 0.64700001 -0.052182708 1.6679691e-38 298 286
-0.023822539 0.64700001 -0.052182708 1.6587495e-38 299 286
-0.022688134 0.64700001 -0.052182708 1.6771167e-38 300 286
-0.02158704 0.648 -0.05226336 1.6955557e-38 301 286
-0.02041932 0.64700001 -0.052182708 1.6678621e-38 302 286
-0.019284913 0.64700001 -0.052182708 1.6678621e-38 303 286
-0.018150507 0.64700001 -0.052182708 1.658607e-38 304 286
-0.0170161 0.64700001 -0.052182708 1.6493873e-38 305 286
-0.015881693 0.64700001 -0.052182708 1.6310558e-38 306 286
-0.014747286 0.64700001 -0.052182708 1.6126167e-38 307 286
-0.013612879 0.64700001 -0.052182708 1.5758463e-38 308 286
-0.01249776 0.648 -0.05226336 1.5758463e-38 309 286
-0.0113616 0.648 -0.05226336 1.5665911e-38 310 286
-0.01024122 0.64899999 -0.052344013 1.5665911e-38 311 286
-0.0091033066 0.64899999 -0.052344013 1.5390046e-38 312 286
-0.0079653924 0.64899999 -0.052344013 1.5297851e-38 313 286
-0.0068274797 0.64899999 -0.052344013 1.5114541e-38 314 286
-0.0056895665 0.64899999 -0.052344013 1.5114541e-38 315 286
-0.0045516533 0.64899999 -0.052344013 1.5390052e-38 316 286
-0.0034137398 0.64899999 -0.052344013 1.5297497e-38 317 286
-0.0022758266 0.64899999 -0.052344013 1.5205655e-38 318 286
-0.0011379133 0.64899999 -0.052344013 1.5205655e-38 319 286
0 0.64999998 -0.052424666 1.5113457e-38 320 286
0.0011396665 0.64999998 -0.052424666 1.4929425e-38 321 286
0.0022863466 0.65200001 -0.052585974 1.4837951e-38 322 286
0.0034295199 0.65200001 -0.052585974 1.4745397e-38 323 286
0.0045726933 0.65200001 -0.052585974 1.4102544e-38 324 286
0.0057158666 0.65200001 -0.052585974 1.3918513e-38 325 286
0.0068590399 0.65200001 -0.052585974 1.4377336e-38 326 286
0.0080022132 0.65200001 -0.052585974 1.4285141e-38 327 286
0.0091594132 0.653 -0.052666627 1.3917434e-38 328 286
0.010304339 0.653 -0.052666627 1.3456456e-38 329 286
0.011449266 0.653 -0.052666627 1.3088753e-38 330 286
0.012613479 0.65399998 -0.052747279 1.3180948e-38 331 286
0.013760159 0.65399998 -0.052747279 1.3363557e-38 332 286
0.014906839 0.65399998 -0.052747279 1.3271361e-38 333 286
0.01605352 0.65399998 -0.052747279 1.3269939e-38 334 286
0.017226499 0.65499997 -0.052827932 1.3177743e-38 335 286
0.018374931 0.65499997 -0.052827932 1.2994081e-38 336 286
0.019523365 0.65499997 -0.052827932 1.2901885e-38 337 286
0.020734919 0.65700001 -0.052989237 1.2810055e-38 338 286
0.021886859 0.65700001 -0.052989237 1.2810055e-38 339 286
0.023073865 0.65799999 -0.05306989 1.2350875e-38 340 286
0.024264378 0.65899998 -0.053150542 1.2258679e-38 341 286
0.025419824 0.65899998 -0.053150542 1.2167203e-38 342 286
0.026655925 0.66100001 -0.053311851 1.1890617e-38 343 286
0.02781488 0.66100001 -0.053311851 1.1705873e-38 344 286
0.029061496 0.66299999 -0.053473156 1.1337449e-38 345 286
0.030269546 0.66399997 -0.053553808 1.1522561e-38 346 286
0.031528439 0.66600001 -0.053715117 1.1983537e-38 347 286
0.032696161 0.66600001 -0.053715117 1.2444147e-38 348 286
0.033965573 0.66799998 -0.053876422 1.2812569e-38 349 286
0.035136797 0.66799998 -0.053876422 1.2721803e-38 350 286
0.036416732 0.67000002 -0.054037735 1.2906554e-38 351 286
0.037647571 0.671 -0.054118387 1.3089867e-38 352 286
0.038824059 0.671 -0.054118387 1.3182062e-38 353 286
0.040000543 0.671 -0.054118387 1.3089879e-38 354 286
0.041238401 0.67199999 -0.054199036 1.2813653e-38 355 286
0.042542879 0.67400002 -0.054360349 1.2535286e-38 356 286
0.043724626 0.67400002 -0.054360349 1.2166143e-38 357 286
-0.086658493 0.65899998 -0.054305989 1.4843382e-38 245 287
-0.08524356 0.65700001 -0.054141179 1.5760258e-38 246 287
-0.084091611 0.65700001 -0.054141179 1.6221236e-38 247 287
-0.082687192 0.65499997 -0.053976361 1.6772608e-38 248 287
-0.081538759 0.65499997 -0.053976361 1.6864804e-38 249 287
-0.080267593 0.65399998 -0.053893957 1.7417271e-38 250 287
-0.078878954 0.65200001 -0.053729147 1.7602022e-38 251 287
-0.077497326 0.64999998 -0.053564329 1.7601667e-38 252 287
-0.076357663 0.64999998 -0.053564329 1.7601667e-38 253 287
-0.074986562 0.648 -0.053399518 1.750982e-38 254 287
-0.073850393 0.648 -0.053399518 1.7694571e-38 255 287
-0.072714239 0.648 -0.053399518 1.7784965e-38 256 287
-0.071798995 0.64999998 -0.053564329 1.7692769e-38 257 287
-0.070550621 0.64899999 -0.053481925 1.7141748e-38 258 287
-0.069412716 0.64899999 -0.053481925 1.6957357e-38 259 287
-0.068274796 0.64899999 -0.053481925 1.7140302e-38 260 287
-0.067136884 0.64899999 -0.053481925 1.6955552e-38 261 287
-0.065998971 0.64899999 -0.053481925 1.6679328e-38 262 287
-0.064861059 0.64899999 -0.053481925 1.6586773e-38 263 287
-0.063723139 0.64899999 -0.053481925 1.6218715e-38 264 287
-0.062585227 0.64899999 -0.053481925 1.612652e-38 265 287
-0.061447315 0.64899999 -0.053481925 1.5850656e-38 266 287
-0.060309403 0.64899999 -0.053481925 1.5850656e-38 267 287
-0.058989145 0.64700001 -0.053317111 1.5759176e-38 268 287
-0.057854742 0.64700001 -0.053317111 1.5759176e-38 269 287
-0.056720335 0.64700001 -0.053317111 1.5575501e-38 270 287
-0.055585928 0.64700001 -0.053317111 1.5759532e-38 271 287
-0.054451518 0.64700001 -0.053317111 1.5758826e-38 272 287
-0.053317111 0.64700001 -0.053317111 1.5943576e-38 273 287
-0.052182708 0.64700001 -0.053317111 1.6310563e-38 274 287
-0.051048297 0.64700001 -0.053317111 1.6218368e-38 275 287
-0.049913891 0.64700001 -0.053317111 1.5759905e-38 276 287
-0.048779488 0.64700001 -0.053317111 1.5759905e-38 277 287
-0.047645077 0.64700001 -0.053317111 1.5943237e-38 278 287
-0.046510674 0.64700001 -0.053317111 1.6127987e-38 279 287
-0.045376267 0.64700001 -0.053317111 1.6676835e-38 280 287
-0.044241857 0.64700001 -0.053317111 1.6769032e-38 281 287
-0.043107454 0.64700001 -0.053317111 1.6220164e-38 282 287
-0.041973047 0.64700001 -0.053317111 1.6220164e-38 283 287
-0.04083864 0.64700001 -0.053317111 1.6310577e-38 284 287
-0.039704233 0.64700001 -0.053317111 1.6402773e-38 285 287
-0.038569827 0.64700001 -0.053317111 1.622018e-38 286 287
-0.03743542 0.64700001 -0.053317111 1.6035788e-38 287 287
-0.036301013 0.64700001 -0.053317111 1.6127631e-38 288 287
-0.035166606 0.64700001 -0.053317111 1.6035435e-38 289 287
-0.0340322 0.64700001 -0.053317111 1.6310227e-38 290 287
-0.032897793 0.64700001 -0.053317111 1.6402423e-38 291 287
-0.031763386 0.64700001 -0.053317111 1.6035082e-38 292 287
-0.030628979 0.64700001 -0.053317111 1.6035082e-38 293 287
-0.029494572 0.64700001 -0.053317111 1.6126559e-38 294 287
-0.028360168 0.64700001 -0.053317111 1.6126559e-38 295 287
-0.02718368 0.64600003 -0.053234708 1.594324e-38 296 287
-0.026051028 0.64600003 -0.053234708 1.6035435e-38 297 287
-0.024918374 0.64600003 -0.053234708 1.5852473e-38 298 287
-0.023822539 0.64700001 -0.053317111 1.5852473e-38 299 287
-0.022688134 0.64700001 -0.053317111 1.5943586e-38 300 287
-0.021553727 0.64700001 -0.053317111 1.5759555e-38 301 287
-0.020387759 0.64600003 -0.053234708 1.5759555e-38 302 287
-0.019255107 0.64600003 -0.053234708 1.5759555e-38 303 287
-0.018150507 0.64700001 -0.053317111 1.5667006e-38 304 287
-0.0170161 0.64700001 -0.053317111 1.5667006e-38 305 287
-0.015881693 0.64700001 -0.053317111 1.5573714e-38 306 287
-0.014747286 0.64700001 -0.053317111 1.5573714e-38 307 287
-0.013612879 0.64700001 -0.053317111 1.5298201e-38 308 287
-0.012478473 0.64700001 -0.053317111 1.5298201e-38 309 287
-0.011344067 0.64700001 -0.053317111 1.4930157e-38 310 287
-0.010225439 0.648 -0.053399518 1.4746126e-38 311 287
-0.0090892799 0.648 -0.053399518 1.4746129e-38 312 287
-0.0079531204 0.648 -0.053399518 1.4561737e-38 313 287
-0.0068169599 0.648 -0.053399518 1.4745047e-38 314 287
-0.0056807999 0.648 -0.053399518 1.4837242e-38 315 287
-0.0045516533 0.64899999 -0.053481925 1.4562456e-38 316 287
-0.0034137398 0.64899999 -0.053481925 1.4285871e-38 317 287
-0.0022758266 0.64899999 -0.053481925 1.4376633e-38 318 287
-0.0011379133 0.64899999 -0.053481925 1.4376633e-38 319 287
0 0.64899999 -0.053481925 1.4100756e-38 320 287
0.0011379133 0.64899999 -0.053481925 1.4100756e-38 321 287
0.0022793331 0.64999998 -0.053564329 1.3917785e-38 322 287
0.0034189997 0.64999998 -0.053564329 1.3825589e-38 323 287
0.0045586661 0.64999998 -0.053564329 1.3641924e-38 324 287
0.0057158666 0.65200001 -0.053729147 1.3549727e-38 325 287
0.0068590399 0.65200001 -0.053729147 1.3366078e-38 326 287
0.0080022132 0.65200001 -0.053729147 1.308985e-38 327 287
0.0091453865 0.65200001 -0.053729147 1.3179907e-38 328 287
0.010304339 0.653 -0.05381155 1.2995516e-38 329 287
0.011449266 0.653 -0.05381155 1.2995519e-38 330 287
0.012613479 0.65399998 -0.053893957 1.2718933e-38 331 287
0.013760159 0.65399998 -0.053893957 1.2443428e-38 332 287
0.014906839 0.65399998 -0.053893957 1.2443428e-38 333 287
0.016078066 0.65499997 -0.053976361 1.2626384e-38 334 287
0.017226499 0.65499997 -0.053976361 1.2626384e-38 335 287
0.018374931 0.65499997 -0.053976361 1.253419e-38 336 287
0.019523365 0.65499997 -0.053976361 1.253419e-38 337 287
0.020734919 0.65700001 -0.054141179 1.2350875e-38 338 287
0.021886859 0.65700001 -0.054141179 1.2350875e-38 339 287
0.023073865 0.65799999 -0.054223582 1.2351228e-38 340 287
0.02422756 0.65799999 -0.054223582 1.2351228e-38 341 287
0.025419824 0.65899998 -0.054305989 1.2442698e-38 342 287
0.026655925 0.66100001 -0.054470807 1.2350502e-38 343 287
0.02781488 0.66100001 -0.054470807 1.2166468e-38 344 287
0.029061496 0.66299999 -0.054635618 1.23505e-38 345 287
0.030269546 0.66399997 -0.054718021 1.2259027e-38 346 287
0.031528439 0.66600001 -0.054882839 1.2443778e-38 347 287
0.032745253 0.667 -0.054965243 1.2628535e-38 348 287
0.033965573 0.66799998 -0.05504765 1.2812925e-38 349 287
0.035241999 0.67000002 -0.055212468 1.2997318e-38 350 287
0.036416732 0.67000002 -0.055212468 1.3089514e-38 351 287
0.037647571 0.671 -0.055294871 1.2721823e-38 352 287
0.038824059 0.671 -0.055294871 1.2721823e-38 353 287
0.040000543 0.671 -0.055294871 1.2260491e-38 354 287
0.041238401 0.67199999 -0.055377278 1.1892068e-38 355 287
0.042606 0.67500001 -0.0556245 1.1431831e-38 356 287
-0.088969387 0.65899998 -0.055461437 1.3920684e-38 243 288
-0.087813944 0.65899998 -0.055461437 1.447528e-38 244 288
-0.086658493 0.65899998 -0.055461437 1.5028095e-38 245 288
-0.08524356 0.65700001 -0.055293117 1.6038643e-38 246 288
-0.084091611 0.65700001 -0.055293117 1.6223034e-38 247 288
-0.082687192 0.65499997 -0.055124797 1.6865887e-38 248 288
-0.081538759 0.65499997 -0.055124797 1.6865887e-38 249 288
-0.080267593 0.65399998 -0.055040635 1.7417977e-38 250 288
-0.078878954 0.65200001 -0.054872319 1.7510173e-38 251 288
-0.077497326 0.64999998 -0.054703996 1.7692766e-38 252 288
-0.076357663 0.64999998 -0.054703996 1.7692766e-38 253 288
-0.075217992 0.64999998 -0.054703996 1.7600205e-38 254 288
-0.073850393 0.648 -0.05453568 1.7415812e-38 255 288
-0.072714239 0.648 -0.05453568 1.6772955e-38 256 288
-0.07168854 0.64899999 -0.054619838 1.6404533e-38 257 288
-0.070550621 0.64899999 -0.054619838 1.649528e-38 258 288
-0.069412716 0.64899999 -0.054619838 1.5942106e-38 259 288
-0.068274796 0.64899999 -0.054619838 1.5757712e-38 260 288
-0.067136884 0.64899999 -0.054619838 1.5481485e-38 261 288
-0.065998971 0.64899999 -0.054619838 1.520526e-38 262 288
-0.064861059 0.64899999 -0.054619838 1.5021229e-38 263 288
-0.063624963 0.648 -0.05453568 1.48372e-38 264 288
-0.062488798 0.648 -0.05453568 1.48372e-38 265 288
-0.061257958 0.64700001 -0.054451518 1.4653535e-38 266 288
-0.060123552 0.64700001 -0.054451518 1.4653535e-38 267 288
-0.058989145 0.64700001 -0.054451518 1.4561342e-38 268 288
-0.057854742 0.64700001 -0.054451518 1.4561342e-38 269 288
-0.056720335 0.64700001 -0.054451518 1.4378396e-38 270 288
-0.055500012 0.64600003 -0.05436736 1.4378396e-38 271 288
-0.05436736 0.64600003 -0.05436736 1.4562438e-38 272 288
-0.053234708 0.64600003 -0.05436736 1.4746829e-38 273 288
-0.052102055 0.64600003 -0.05436736 1.4930141e-38 274 288
-0.051048297 0.64700001 -0.054451518 1.4837946e-38 275 288
-0.049913891 0.64700001 -0.054451518 1.4930495e-38 276 288
-0.048779488 0.64700001 -0.054451518 1.5115245e-38 277 288
-0.047645077 0.64700001 -0.054451518 1.5390399e-38 278 288
-0.046510674 0.64700001 -0.054451518 1.5574792e-38 279 288
-0.045376267 0.64700001 -0.054451518 1.5941056e-38 280 288
-0.044173479 0.64600003 -0.05436736 1.6125448e-38 281 288
-0.043040827 0.64600003 -0.05436736 1.6309832e-38 282 288
-0.041908171 0.64600003 -0.05436736 1.6309832e-38 283 288
-0.040775519 0.64600003 -0.05436736 1.5759176e-38 284 288
-0.039642867 0.64600003 -0.05436736 1.5759176e-38 285 288
-0.038510215 0.64600003 -0.05436736 1.6126517e-38 286 288
-0.037377559 0.64600003 -0.05436736 1.6126517e-38 287 288
-0.036244906 0.64600003 -0.05436736 1.612652e-38 288 288
-0.035112254 0.64600003 -0.05436736 1.6034324e-38 289 288
-0.0340322 0.64700001 -0.054451518 1.6033968e-38 290 288
-0.032897793 0.64700001 -0.054451518 1.6126522e-38 291 288
-0.031763386 0.64700001 -0.054451518 1.5850303e-38 292 288
-0.030581642 0.64600003 -0.05436736 1.5850303e-38 293 288
-0.029448988 0.64600003 -0.05436736 1.5850306e-38 294 288
-0.028316336 0.64600003 -0.05436736 1.5850306e-38 295 288
-0.02718368 0.64600003 -0.05436736 1.5758107e-38 296 288
-0.026051028 0.64600003 -0.05436736 1.5758107e-38 297 288
-0.024918374 0.64600003 -0.05436736 1.5758829e-38 298 288
-0.023785722 0.64600003 -0.05436736 1.5758829e-38 299 288
-0.022653066 0.64600003 -0.05436736 1.5574798e-38 300 288
-0.021553727 0.64700001 -0.054451518 1.5574798e-38 301 288
-0.020387759 0.64600003 -0.05436736 1.5482599e-38 302 288
-0.019255107 0.64600003 -0.05436736 1.5390402e-38 303 288
-0.018122453 0.64600003 -0.05436736 1.5574068e-38 304 288
-0.0170161 0.64700001 -0.054451518 1.5297482e-38 305 288
-0.015881693 0.64700001 -0.054451518 1.4930851e-38 306 288
-0.014747286 0.64700001 -0.054451518 1.4838296e-38 307 288
-0.013612879 0.64700001 -0.054451518 1.4562441e-38 308 288
-0.012478473 0.64700001 -0.054451518 1.4562441e-38 309 288
-0.011344067 0.64700001 -0.054451518 1.4652481e-38 310 288
-0.01020966 0.64700001 -0.054451518 1.4560286e-38 311 288
-0.0090752533 0.64700001 -0.054451518 1.4560283e-38 312 288
-0.0079408465 0.64700001 -0.054451518 1.4468087e-38 313 288
-0.0068169599 0.648 -0.05453568 1.4376617e-38 314 288
-0.0056807999 0.648 -0.05453568 1.4284422e-38 315 288
-0.00454464 0.648 -0.05453568 1.4100033e-38 316 288
-0.0034137398 0.64899999 -0.054619838 1.4007479e-38 317 288
-0.0022758266 0.64899999 -0.054619838 1.3914913e-38 318 288
-0.0011379133 0.64899999 -0.054619838 1.3546491e-38 319 288
0 0.64899999 -0.054619838 1.3271696e-38 320 288
0.0011379133 0.64899999 -0.054619838 1.3179499e-38 321 288
0.0022793331 0.64999998 -0.054703996 1.2903991e-38 322 288
0.0034189997 0.64999998 -0.054703996 1.2903991e-38 323 288
0.0045586661 0.64999998 -0.054703996 1.2811811e-38 324 288
0.005698333 0.64999998 -0.054703996 1.2904008e-38 325 288
0.0068590399 0.65200001 -0.054872319 1.2996222e-38 326 288
0.0080022132 0.65200001 -0.054872319 1.2719637e-38 327 288
0.0091453865 0.65200001 -0.054872319 1.2810755e-38 328 288
0.010304339 0.653 -0.054956477 1.2810755e-38 329 288
0.011449266 0.653 -0.054956477 1.2626368e-38 330 288
0.012613479 0.65399998 -0.055040635 1.2626368e-38 331 288
0.013760159 0.65399998 -0.055040635 1.262637e-38 332 288
0.014906839 0.65399998 -0.055040635 1.2534175e-38 333 288
0.016078066 0.65499997 -0.055124797 1.2534172e-38 334 288
0.017226499 0.65499997 -0.055124797 1.2534172e-38 335 288
0.018374931 0.65499997 -0.055124797 1.2442342e-38 336 288
0.019523365 0.65499997 -0.055124797 1.2442342e-38 337 288
0.020734919 0.65700001 -0.055293117 1.2351228e-38 338 288
0.021886859 0.65700001 -0.055293117 1.2351228e-38 339 288
0.023073865 0.65799999 -0.055377278 1.2259746e-38 340 288
0.02422756 0.65799999 -0.055377278 1.2259746e-38 341 288
0.025419824 0.65899998 -0.055461437 1.2443778e-38 342 288
0.026655925 0.66100001 -0.05562976 1.2443778e-38 343 288
0.02781488 0.66100001 -0.05562976 1.2168633e-38 344 288
0.029061496 0.66299999 -0.055798076 1.2168633e-38 345 288
0.030269546 0.66399997 -0.055882234 1.2169355e-38 346 288
0.03157578 0.667 -0.056134716 1.2261551e-38 347 288
0.032745253 0.667 -0.056134716 1.2629254e-38 348 288
0.033965573 0.66799998 -0.056218877 1.272145e-38 349 288
0.035241999 0.67000002 -0.056387197 1.272145e-38 350 288
0.036416732 0.67000002 -0.056387197 1.272145e-38 351 288
0.037647571 0.671 -0.056471359 1.2536711e-38 352 288
0.038824059 0.671 -0.056471359 1.2260126e-38 353 288
0.040000543 0.671 -0.056471359 1.1429674e-38 354 288
0.041483864 0.676 -0.056892153 1.0784305e-38 355 288
-0.094459079 0.65700001 -0.056445058 1.4380663e-38 238 289
-0.093307137 0.65700001 -0.056445058 1.3366511e-38 239 289
-0.092155196 0.65700001 -0.056445058 1.3275668e-38 240 289
-0.091003254 0.65700001 -0.056445058 1.3183113e-38 241 289
-0.08985132 0.65700001 -0.056445058 1.4103957e-38 242 289
-0.088699378 0.65700001 -0.056445058 1.4749326e-38 243 289
-0.087547436 0.65700001 -0.056445058 1.539399e-38 244 289
-0.086395502 0.65700001 -0.056445058 1.5670578e-38 245 289
-0.084984057 0.65499997 -0.056273226 1.6131555e-38 246 289
-0.083835632 0.65499997 -0.056273226 1.6131555e-38 247 289
-0.082687192 0.65499997 -0.056273226 1.6682212e-38 248 289
-0.081538759 0.65499997 -0.056273226 1.6774407e-38 249 289
-0.08014486 0.653 -0.056101404 1.7049921e-38 250 289
-0.078878954 0.65200001 -0.056015491 1.7049921e-38 251 289
-0.077497326 0.64999998 -0.055843662 1.7232511e-38 252 289
-0.076240189 0.64899999 -0.05575775 1.704848e-38 253 289
-0.075102277 0.64899999 -0.05575775 1.6772237e-38 254 289
-0.073850393 0.648 -0.055671841 1.6311617e-38 255 289
-0.072714239 0.648 -0.055671841 1.6126855e-38 256 289
-0.071578078 0.648 -0.055671841 1.5850266e-38 257 289
-0.070441917 0.648 -0.055671841 1.5482201e-38 258 289
-0.069305755 0.648 -0.055671841 1.5205613e-38 259 289
-0.068169601 0.648 -0.055671841 1.4746087e-38 260 289
-0.067033432 0.648 -0.055671841 1.4653891e-38 261 289
-0.065897278 0.648 -0.055671841 1.4376598e-38 262 289
-0.064761117 0.648 -0.055671841 1.4468793e-38 263 289
-0.063624963 0.648 -0.055671841 1.4467721e-38 264 289
-0.062488798 0.648 -0.055671841 1.4375526e-38 265 289
-0.061257958 0.64700001 -0.055585928 1.4008181e-38 266 289
-0.060123552 0.64700001 -0.055585928 1.382415e-38 267 289
-0.058989145 0.64700001 -0.055585928 1.382415e-38 268 289
-0.057854742 0.64700001 -0.055585928 1.4008181e-38 269 289
-0.056632672 0.64600003 -0.055500012 1.3641926e-38 270 289
-0.055500012 0.64600003 -0.055500012 1.3641926e-38 271 289
-0.05436736 0.64600003 -0.055500012 1.4009633e-38 272 289
-0.053234708 0.64600003 -0.055500012 1.4009633e-38 273 289
-0.052102055 0.64600003 -0.055500012 1.4469888e-38 274 289
-0.0509694 0.64600003 -0.055500012 1.4377692e-38 275 289
-0.049836747 0.64600003 -0.055500012 1.4469522e-38 276 289
-0.048704095 0.64600003 -0.055500012 1.4653553e-38 277 289
-0.047571443 0.64600003 -0.055500012 1.4837596e-38 278 289
-0.046438787 0.64600003 -0.055500012 1.5114541e-38 279 289
-0.045306131 0.64600003 -0.055500012 1.5297488e-38 280 289
-0.044173479 0.64600003 -0.055500012 1.5481519e-38 281 289
-0.043040827 0.64600003 -0.055500012 1.5574062e-38 282 289
-0.041908171 0.64600003 -0.055500012 1.5666618e-38 283 289
-0.040775519 0.64600003 -0.055500012 1.5391456e-38 284 289
-0.039642867 0.64600003 -0.055500012 1.5207065e-38 285 289
-0.038510215 0.64600003 -0.055500012 1.5574047e-38 286 289
-0.037377559 0.64600003 -0.055500012 1.5666601e-38 287 289
-0.036244906 0.64600003 -0.055500012 1.5666262e-38 288 289
-0.035112254 0.64600003 -0.055500012 1.5574065e-38 289 289
-0.033979602 0.64600003 -0.055500012 1.5390399e-38 290 289
-0.032846946 0.64600003 -0.055500012 1.5482596e-38 291 289
-0.031714294 0.64600003 -0.055500012 1.5298572e-38 292 289
-0.030581642 0.64600003 -0.055500012 1.5390769e-38 293 289
-0.029448988 0.64600003 -0.055500012 1.5114188e-38 294 289
-0.028316336 0.64600003 -0.055500012 1.5298219e-38 295 289
-0.02718368 0.64600003 -0.055500012 1.5114185e-38 296 289
-0.026051028 0.64600003 -0.055500012 1.5114185e-38 297 289
-0.024918374 0.64600003 -0.055500012 1.5022711e-38 298 289
-0.023785722 0.64600003 -0.055500012 1.4930157e-38 299 289
-0.022653066 0.64600003 -0.055500012 1.4746847e-38 300 289
-0.021520413 0.64600003 -0.055500012 1.4654652e-38 301 289
-0.020387759 0.64600003 -0.055500012 1.4562451e-38 302 289
-0.019255107 0.64600003 -0.055500012 1.4470255e-38 303 289
-0.018122453 0.64600003 -0.055500012 1.4745383e-38 304 289
-0.016989801 0.64600003 -0.055500012 1.4560992e-38 305 289
-0.015857147 0.64600003 -0.055500012 1.456027e-38 306 289
-0.014724494 0.64600003 -0.055500012 1.456027e-38 307 289
-0.01359184 0.64600003 -0.055500012 1.3917434e-38 308 289
-0.012459187 0.64600003 -0.055500012 1.3825239e-38 309 289
-0.011344067 0.64700001 -0.055585928 1.3731957e-38 310 289
-0.01020966 0.64700001 -0.055585928 1.3547207e-38 311 289
-0.0090752533 0.64700001 -0.055585928 1.3547563e-38 312 289
-0.0079408465 0.64700001 -0.055585928 1.3639759e-38 313 289
-0.0068064397 0.64700001 -0.055585928 1.345574e-38 314 289
-0.0056807999 0.648 -0.055671841 1.3179153e-38 315 289
-0.00454464 0.648 -0.055671841 1.2719247e-38 316 289
-0.00340848 0.648 -0.055671841 1.2627051e-38 317 289
-0.00227232 0.648 -0.055671841 1.2627051e-38 318 289
-0.00113616 0.648 -0.055671841 1.2534497e-38 319 289
0 0.64899999 -0.05575775 1.2535229e-38 320 289
0.0011379133 0.64899999 -0.05575775 1.2627424e-38 321 289
0.0022758266 0.64899999 -0.05575775 1.2535241e-38 322 289
0.0034137398 0.64899999 -0.05575775 1.2535241e-38 323 289
0.0045586661 0.64999998 -0.055843662 1.2351581e-38 324 289
0.005698333 0.64999998 -0.055843662 1.2259027e-38 325 289
0.0068590399 0.65200001 -0.056015491 1.2259749e-38 326 289
0.0080022132 0.65200001 -0.056015491 1.2259749e-38 327 289
0.0091453865 0.65200001 -0.056015491 1.2259027e-38 328 289
0.010304339 0.653 -0.056101404 1.2259027e-38 329 289
0.011466799 0.65399998 -0.056187313 1.225903e-38 330 289
0.012613479 0.65399998 -0.056187313 1.225903e-38 331 289
0.013760159 0.65399998 -0.056187313 1.225903e-38 332 289
0.014906839 0.65399998 -0.056187313 1.225903e-38 333 289
0.016078066 0.65499997 -0.056273226 1.2259383e-38 334 289
0.017226499 0.65499997 -0.056273226 1.2259383e-38 335 289
0.018374931 0.65499997 -0.056273226 1.2259383e-38 336 289
0.019582979 0.65700001 -0.056445058 1.2351579e-38 337 289
0.02076648 0.65799999 -0.056530971 1.2259746e-38 338 289
0.021920172 0.65799999 -0.056530971 1.2259746e-38 339 289
0.023108931 0.65899998 -0.056616884 1.2628163e-38 340 289
0.024264378 0.65899998 -0.056616884 1.244413e-38 341 289
0.025419824 0.65899998 -0.056616884 1.2627807e-38 342 289
0.026655925 0.66100001 -0.056788713 1.2627807e-38 343 289
0.027899038 0.66299999 -0.056960538 1.262781e-38 344 289
0.02910533 0.66399997 -0.057046451 1.262781e-38 345 289
0.030360719 0.66600001 -0.057218276 1.2720008e-38 346 289
0.03157578 0.667 -0.057304189 1.2812204e-38 347 289
0.032745253 0.667 -0.057304189 1.2629257e-38 348 289
0.033914726 0.667 -0.057304189 1.2629257e-38 349 289
0.035136797 0.66799998 -0.057390101 1.2353043e-38 350 289
0.036416732 0.67000002 -0.057561934 1.2168652e-38 351 289
0.037647571 0.671 -0.057647847 1.1615493e-38 352 289
0.038824059 0.671 -0.057647847 1.0970124e-38 353 289
0.040000543 0.671 -0.057647847 1.0785049e-38 354 289
-0.095611021 0.65700001 -0.057596996 1.1525501e-38 237 290
-0.094171531 0.65499997 -0.057421666 1.1248134e-38 238 290
-0.093023092 0.65499997 -0.057421666 1.217045e-38 239 290
-0.092155196 0.65700001 -0.057596996 1.3184932e-38 240 290
-0.091003254 0.65700001 -0.057596996 1.3738106e-38 241 290
-0.08985132 0.65700001 -0.057596996 1.4473502e-38 242 290
-0.088699378 0.65700001 -0.057596996 1.4934479e-38 243 290
-0.087280929 0.65499997 -0.057421666 1.5577679e-38 244 290
-0.086132489 0.65499997 -0.057421666 1.5854624e-38 245 290
-0.084984057 0.65499997 -0.057421666 1.6498543e-38 246 290
-0.083835632 0.65499997 -0.057421666 1.6406346e-38 247 290
-0.082560956 0.65399998 -0.057333998 1.6681844e-38 248 290
-0.081289791 0.653 -0.057246335 1.6589649e-38 249 290
-0.08014486 0.653 -0.057246335 1.6404899e-38 250 290
-0.078636996 0.64999998 -0.056983333 1.6404899e-38 251 290
-0.077497326 0.64999998 -0.056983333 1.6311987e-38 252 290
-0.076240189 0.64899999 -0.056895666 1.6127236e-38 253 290
-0.075102277 0.64899999 -0.056895666 1.5851362e-38 254 290
-0.073850393 0.648 -0.056808002 1.5482219e-38 255 290
-0.072714239 0.648 -0.056808002 1.5297093e-38 256 290
-0.071578078 0.648 -0.056808002 1.4836116e-38 257 290
-0.070441917 0.648 -0.056808002 1.4376578e-38 258 290
-0.069305755 0.648 -0.056808002 1.4284383e-38 259 290
-0.068064399 0.64700001 -0.056720335 1.3823797e-38 260 290
-0.066929989 0.64700001 -0.056720335 1.4008187e-38 261 290
-0.065795586 0.64700001 -0.056720335 1.3455758e-38 262 290
-0.064661182 0.64700001 -0.056720335 1.3363563e-38 263 290
-0.063526772 0.64700001 -0.056720335 1.3638702e-38 264 290
-0.062392361 0.64700001 -0.056720335 1.3546506e-38 265 290
-0.061257958 0.64700001 -0.056720335 1.3455014e-38 266 290
-0.060123552 0.64700001 -0.056720335 1.3362817e-38 267 290
-0.058989145 0.64700001 -0.056720335 1.2995488e-38 268 290
-0.057854742 0.64700001 -0.056720335 1.3179519e-38 269 290
-0.056632672 0.64600003 -0.056632672 1.2905103e-38 270 290
-0.055500012 0.64600003 -0.056632672 1.2812907e-38 271 290
-0.05436736 0.64600003 -0.056632672 1.3639424e-38 272 290
-0.053234708 0.64600003 -0.056632672 1.3731619e-38 273 290
-0.052102055 0.64600003 -0.056632672 1.3549027e-38 274 290
-0.0509694 0.64600003 -0.056632672 1.3641223e-38 275 290
-0.049836747 0.64600003 -0.056632672 1.3916718e-38 276 290
-0.048704095 0.64600003 -0.056632672 1.4008914e-38 277 290
-0.047571443 0.64600003 -0.056632672 1.4468437e-38 278 290
-0.046438787 0.64600003 -0.056632672 1.4745383e-38 279 290
-0.045165867 0.64399999 -0.056457333 1.4469872e-38 280 290
-0.044036716 0.64399999 -0.056457333 1.4469872e-38 281 290
-0.042907573 0.64399999 -0.056457333 1.4745383e-38 282 290
-0.041778423 0.64399999 -0.056457333 1.483758e-38 283 290
-0.04064928 0.64399999 -0.056457333 1.4746087e-38 284 290
-0.03952013 0.64399999 -0.056457333 1.4653891e-38 285 290
-0.038331371 0.64300001 -0.056369666 1.5204188e-38 286 290
-0.037203979 0.64300001 -0.056369666 1.5296742e-38 287 290
-0.036132693 0.64399999 -0.056457333 1.4746103e-38 288 290
-0.035003547 0.64399999 -0.056457333 1.4838299e-38 289 290
-0.033979602 0.64600003 -0.056632672 1.4837946e-38 290 290
-0.032846946 0.64600003 -0.056632672 1.4837946e-38 291 290
-0.031714294 0.64600003 -0.056632672 1.465393e-38 292 290
-0.030581642 0.64600003 -0.056632672 1.465393e-38 293 290
-0.029448988 0.64600003 -0.056632672 1.4836877e-38 294 290
-0.028228667 0.64399999 -0.056457333 1.474468e-38 295 290
-0.027099518 0.64399999 -0.056457333 1.4745386e-38 296 290
-0.025970373 0.64399999 -0.056457333 1.4652832e-38 297 290
-0.024841227 0.64399999 -0.056457333 1.4469166e-38 298 290
-0.02371208 0.64399999 -0.056457333 1.4469166e-38 299 290
-0.022582933 0.64399999 -0.056457333 1.4469166e-38 300 290
-0.021453787 0.64399999 -0.056457333 1.4376971e-38 301 290
-0.020387759 0.64600003 -0.056632672 1.4009617e-38 302 290
-0.019255107 0.64600003 -0.056632672 1.3917422e-38 303 290
-0.018122453 0.64600003 -0.056632672 1.4283676e-38 304 290
-0.016989801 0.64600003 -0.056632672 1.400745e-38 305 290
-0.015857147 0.64600003 -0.056632672 1.3640112e-38 306 290
-0.014724494 0.64600003 -0.056632672 1.3547557e-38 307 290
-0.01359184 0.64600003 -0.056632672 1.3455367e-38 308 290
-0.012459187 0.64600003 -0.056632672 1.3086585e-38 309 290
-0.011326533 0.64600003 -0.056632672 1.2901838e-38 310 290
-0.01019388 0.64600003 -0.056632672 1.2901838e-38 311 290
-0.0090612266 0.64600003 -0.056632672 1.2626348e-38 312 290
-0.0079285735 0.64600003 -0.056632672 1.2626348e-38 313 290
-0.0068064397 0.64700001 -0.056720335 1.2717837e-38 314 290
-0.0056720334 0.64700001 -0.056720335 1.2349415e-38 315 290
-0.0045376266 0.64700001 -0.056720335 1.1981707e-38 316 290
-0.00340848 0.648 -0.056808002 1.1981707e-38 317 290
-0.00227232 0.648 -0.056808002 1.198207e-38 318 290
-0.00113616 0.648 -0.056808002 1.198207e-38 319 290
0 0.64899999 -0.056895666 1.2074273e-38 320 290
0.0011379133 0.64899999 -0.056895666 1.2166468e-38 321 290
0.0022758266 0.64899999 -0.056895666 1.2257938e-38 322 290
0.0034137398 0.64899999 -0.056895666 1.2350134e-38 323 290
0.0045586661 0.64999998 -0.056983333 1.2166822e-38 324 290
0.005698333 0.64999998 -0.056983333 1.2166822e-38 325 290
0.0068379994 0.64999998 -0.056983333 1.2167187e-38 326 290
0.0080022132 0.65200001 -0.057158668 1.2074992e-38 327 290
0.0091453865 0.65200001 -0.057158668 1.2167187e-38 328 290
0.01032012 0.65399998 -0.057333998 1.2167187e-38 329 290
0.011466799 0.65399998 -0.057333998 1.2259027e-38 330 290
0.012613479 0.65399998 -0.057333998 1.2259027e-38 331 290
0.013760159 0.65399998 -0.057333998 1.2259027e-38 332 290
0.014929632 0.65499997 -0.057421666 1.2259027e-38 333 290
0.016078066 0.65499997 -0.057421666 1.225938e-38 334 290
0.0172791 0.65700001 -0.057596996 1.225938e-38 335 290
0.01843104 0.65700001 -0.057596996 1.225938e-38 336 290
0.019582979 0.65700001 -0.057596996 1.225938e-38 337 290
0.02076648 0.65799999 -0.057684667 1.2351576e-38 338 290
0.021920172 0.65799999 -0.057684667 1.244413e-38 339 290
0.023108931 0.65899998 -0.057772331 1.2444497e-38 340 290
0.024264378 0.65899998 -0.057772331 1.2444497e-38 341 290
0.025496973 0.66100001 -0.057947662 1.2444147e-38 342 290
0.026655925 0.66100001 -0.057947662 1.2536343e-38 343 290
0.027899038 0.66299999 -0.058122993 1.2535987e-38 344 290
0.02910533 0.66399997 -0.05821066 1.2535987e-38 345 290
0.030360719 0.66600001 -0.058385998 1.244451e-38 346 290
0.03157578 0.667 -0.058473662 1.244451e-38 347 290
0.032745253 0.667 -0.058473662 1.2628185e-38 348 290
0.033914726 0.667 -0.058473662 1.2535989e-38 349 290
0.035136797 0.66799998 -0.058561329 1.1891719e-38 350 290
0.036416732 0.67000002 -0.058736663 1.1522576e-38 351 290
0.037647571 0.671 -0.058824331 1.060209e-38 352 290
0.038824059 0.671 -0.058824331 1.0232948e-38 353 290
-0.096762955 0.65700001 -0.058748938 1.0782885e-38 236 291
-0.095611021 0.65700001 -0.058748938 9.0311682e-39 237 291
-0.094171531 0.65499997 -0.058570094 1.0237566e-38 238 291
-0.093023092 0.65499997 -0.058570094 1.1343555e-38 239 291
-0.092155196 0.65700001 -0.058748938 1.2079671e-38 240 291
-0.091003254 0.65700001 -0.058748938 1.2633205e-38 241 291
-0.08985132 0.65700001 -0.058748938 1.3552624e-38 242 291
-0.088699378 0.65700001 -0.058748938 1.3828851e-38 243 291
-0.087280929 0.65499997 -0.058570094 1.4839393e-38 244 291
-0.086132489 0.65499997 -0.058570094 1.5208176e-38 245 291
-0.08485432 0.65399998 -0.05848068 1.5116684e-38 246 291
-0.083707638 0.65399998 -0.05848068 1.5116684e-38 247 291
-0.082434714 0.653 -0.058391262 1.5942106e-38 248 291
-0.081289791 0.653 -0.058391262 1.5481488e-38 249 291
-0.080022126 0.65200001 -0.058301836 1.4838633e-38 250 291
-0.078636996 0.64999998 -0.058122993 1.4838633e-38 251 291
-0.077497326 0.64999998 -0.058122993 1.4746087e-38 252 291
-0.076240189 0.64899999 -0.058033578 1.4653891e-38 253 291
-0.075102277 0.64899999 -0.058033578 1.4652087e-38 254 291
-0.073850393 0.648 -0.05794416 1.4283664e-38 255 291
-0.072714239 0.648 -0.05794416 1.4007071e-38 256 291
-0.071578078 0.648 -0.05794416 1.3638647e-38 257 291
-0.070441917 0.648 -0.05794416 1.3179484e-38 258 291
-0.069198802 0.64700001 -0.057854742 1.3363515e-38 259 291
-0.068064399 0.64700001 -0.057854742 1.3454661e-38 260 291
-0.066929989 0.64700001 -0.057854742 1.3454661e-38 261 291
-0.065795586 0.64700001 -0.057854742 1.3361409e-38 262 291
-0.064661182 0.64700001 -0.057854742 1.3177376e-38 263 291
-0.063526772 0.64700001 -0.057854742 1.2901859e-38 264 291
-0.062392361 0.64700001 -0.057854742 1.2717469e-38 265 291
-0.061257958 0.64700001 -0.057854742 1.2718178e-38 266 291
-0.060123552 0.64700001 -0.057854742 1.2902209e-38 267 291
-0.058989145 0.64700001 -0.057854742 1.2901506e-38 268 291
-0.057854742 0.64700001 -0.057854742 1.2901506e-38 269 291
-0.056632672 0.64600003 -0.057765324 1.2993704e-38 270 291
-0.055500012 0.64600003 -0.057765324 1.2717118e-38 271 291
-0.05436736 0.64600003 -0.057765324 1.3086253e-38 272 291
-0.053234708 0.64600003 -0.057765324 1.317845e-38 273 291
-0.052102055 0.64600003 -0.057765324 1.3270999e-38 274 291
-0.0509694 0.64600003 -0.057765324 1.3363194e-38 275 291
-0.049836747 0.64600003 -0.057765324 1.3546857e-38 276 291
-0.048704095 0.64600003 -0.057765324 1.3639052e-38 277 291
-0.047571443 0.64600003 -0.057765324 1.3915269e-38 278 291
-0.046438787 0.64600003 -0.057765324 1.4007465e-38 279 291
-0.045165867 0.64399999 -0.057586476 1.3824516e-38 280 291
-0.044036716 0.64399999 -0.057586476 1.373232e-38 281 291
-0.042907573 0.64399999 -0.057586476 1.3732323e-38 282 291
-0.041778423 0.64399999 -0.057586476 1.3916715e-38 283 291
-0.040586159 0.64300001 -0.057497058 1.400889e-38 284 291
-0.039458767 0.64300001 -0.057497058 1.3640109e-38 285 291
-0.038331371 0.64300001 -0.057497058 1.4007447e-38 286 291
-0.037203979 0.64300001 -0.057497058 1.4007447e-38 287 291
-0.036076587 0.64300001 -0.057497058 1.3824506e-38 288 291
-0.035003547 0.64399999 -0.057586476 1.4008537e-38 289 291
-0.0338744 0.64399999 -0.057586476 1.4099661e-38 290 291
-0.032745253 0.64399999 -0.057586476 1.4099661e-38 291 291
-0.031616107 0.64399999 -0.057586476 1.3824872e-38 292 291
-0.030581642 0.64600003 -0.057765324 1.3732676e-38 293 291
-0.029357811 0.64399999 -0.057586476 1.3915622e-38 294 291
-0.028228667 0.64399999 -0.057586476 1.3823068e-38 295 291
-0.027099518 0.64399999 -0.057586476 1.3455365e-38 296 291
-0.025970373 0.64399999 -0.057586476 1.3363168e-38 297 291
-0.024841227 0.64399999 -0.057586476 1.3455367e-38 298 291
-0.02371208 0.64399999 -0.057586476 1.317878e-38 299 291
-0.022582933 0.64399999 -0.057586476 1.3363168e-38 300 291
-0.021453787 0.64399999 -0.057586476 1.3179136e-38 301 291
-0.02032464 0.64399999 -0.057586476 1.2995461e-38 302 291
-0.019195493 0.64399999 -0.057586476 1.3087657e-38 303 291
-0.018122453 0.64600003 -0.057765324 1.3086582e-38 304 291
-0.016989801 0.64600003 -0.057765324 1.3363168e-38 305 291
-0.015857147 0.64600003 -0.057765324 1.3453945e-38 306 291
-0.014724494 0.64600003 -0.057765324 1.3269194e-38 307 291
-0.01359184 0.64600003 -0.057765324 1.2533784e-38 308 291
-0.012459187 0.64600003 -0.057765324 1.2625979e-38 309 291
-0.011326533 0.64600003 -0.057765324 1.2625979e-38 310 291
-0.01019388 0.64600003 -0.057765324 1.2625979e-38 311 291
-0.0090612266 0.64600003 -0.057765324 1.2533443e-38 312 291
-0.0079285735 0.64600003 -0.057765324 1.2533443e-38 313 291
-0.0068064397 0.64700001 -0.057854742 1.2257582e-38 314 291
-0.0056720334 0.64700001 -0.057854742 1.2257582e-38 315 291
-0.0045376266 0.64700001 -0.057854742 1.2074267e-38 316 291
-0.00340848 0.648 -0.05794416 1.2074267e-38 317 291
-0.00227232 0.648 -0.05794416 1.2165389e-38 318 291
-0.00113616 0.648 -0.05794416 1.2165389e-38 319 291
0 0.64899999 -0.058033578 1.2165389e-38 320 291
0.0011379133 0.64899999 -0.058033578 1.2257585e-38 321 291
0.0022758266 0.64899999 -0.058033578 1.198207e-38 322 291
0.0034137398 0.64899999 -0.058033578 1.198207e-38 323 291
0.0045586661 0.64999998 -0.058122993 1.1983146e-38 324 291
0.005698333 0.64999998 -0.058122993 1.1983146e-38 325 291
0.0068379994 0.64999998 -0.058122993 1.2075342e-38 326 291
0.0080022132 0.65200001 -0.058301836 1.2075342e-38 327 291
0.0091594132 0.653 -0.058391262 1.2350853e-38 328 291
0.01032012 0.65399998 -0.05848068 1.2350853e-38 329 291
0.011466799 0.65399998 -0.05848068 1.2167184e-38 330 291
0.012613479 0.65399998 -0.05848068 1.225938e-38 331 291
0.013781199 0.65499997 -0.058570094 1.2535247e-38 332 291
0.014929632 0.65499997 -0.058570094 1.2535247e-38 333 291
0.01612716 0.65700001 -0.058748938 1.2351576e-38 334 291
0.0172791 0.65700001 -0.058748938 1.2351576e-38 335 291
0.018459093 0.65799999 -0.058838356 1.2351576e-38 336 291
0.019612785 0.65799999 -0.058838356 1.244413e-38 337 291
0.020798039 0.65899998 -0.058927774 1.2352297e-38 338 291
0.021953486 0.65899998 -0.058927774 1.2444494e-38 339 291
0.023179067 0.66100001 -0.059106622 1.2444141e-38 340 291
0.02433802 0.66100001 -0.059106622 1.2444141e-38 341 291
0.025535546 0.662 -0.05919604 1.2351949e-38 342 291
0.026696252 0.662 -0.05919604 1.2444144e-38 343 291
0.027941117 0.66399997 -0.059374876 1.2444147e-38 344 291
0.029192999 0.66600001 -0.059553716 1.2444147e-38 345 291
0.030406304 0.667 -0.059643134 1.2260126e-38 346 291
0.03157578 0.667 -0.059643134 1.216793e-38 347 291
0.032745253 0.667 -0.059643134 1.170732e-38 348 291
0.033914726 0.667 -0.059643134 1.1338536e-38 349 291
0.0352946 0.671 -0.060000818 1.0968704e-38 350 291
0.036471087 0.671 -0.060000818 1.0968704e-38 351 291
-0.096762955 0.65700001 -0.05990088 4.1602842e-39 236 292
-0.095611021 0.65700001 -0.05990088 4.6212623e-39 237 292
-0.094459079 0.65700001 -0.05990088 9.1305175e-39 238 292
-0.093307137 0.65700001 -0.05990088 1.0236506e-38 239 292
-0.092155196 0.65700001 -0.05990088 1.1065523e-38 240 292
-0.091003254 0.65700001 -0.05990088 1.15265e-38 241 292
-0.08985132 0.65700001 -0.05990088 1.2538468e-38 242 292
-0.088429362 0.65499997 -0.059718527 1.2815055e-38 243 292
-0.087280929 0.65499997 -0.059718527 1.3458261e-38 244 292
-0.086000994 0.65399998 -0.059627358 1.3826683e-38 245 292
-0.084724568 0.653 -0.059536185 1.4103251e-38 246 292
-0.083579645 0.653 -0.059536185 1.3827024e-38 247 292
-0.082434714 0.653 -0.059536185 1.4652087e-38 248 292
-0.081289791 0.653 -0.059536185 1.4099272e-38 249 292
-0.080022126 0.65200001 -0.059445009 1.3641181e-38 250 292
-0.078636996 0.64999998 -0.059262663 1.3733377e-38 251 292
-0.077497326 0.64999998 -0.059262663 1.3640828e-38 252 292
-0.076240189 0.64899999 -0.059171494 1.3364601e-38 253 292
-0.075102277 0.64899999 -0.059171494 1.3547542e-38 254 292
-0.073850393 0.648 -0.059080318 1.3270954e-38 255 292
-0.072714239 0.648 -0.059080318 1.2901475e-38 256 292
-0.071578078 0.648 -0.059080318 1.2901475e-38 257 292
-0.070333213 0.64700001 -0.058989145 1.2534522e-38 258 292
-0.069198802 0.64700001 -0.058989145 1.2534522e-38 259 292
