# .PCD v.7 - Point Cloud Data file format
FIELDS x y z rgb imX imY
SIZE 4 4 4 4 4 4
TYPE F F F F F F
COUNT 1 1 1 1 1 1
WIDTH 835
HEIGHT 1
VIEWPOINT 0 0 0 1 0 0 0
POINTS 835
DATA ascii
-0.0342426 0.63 -0.048602398 4.9735067e-39 289 284
-0.033137999 0.63 -0.048602398 5.0657024e-39 290 284
-0.032033399 0.63 -0.048602398 5.2497335e-39 291 284
-0.030879704 0.62900001 -0.048525251 5.1586169e-39 292 284
-0.029729521 0.62800002 -0.048448104 5.1586169e-39 293 284
-0.028628428 0.62800002 -0.048448104 5.1586197e-39 294 284
-0.027527334 0.62800002 -0.048448104 5.066424e-39 295 284
-0.02646832 0.62900001 -0.048525251 5.2497363e-39 296 284
-0.025365472 0.62900001 -0.048525251 5.0657052e-39 297 284
-0.024224052 0.62800002 -0.048448104 5.1568218e-39 298 284
-0.023122961 0.62800002 -0.048448104 5.0646262e-39 299 284
-0.022021867 0.62800002 -0.048448104 5.0646262e-39 300 284
-0.020920772 0.62800002 -0.048448104 5.1568218e-39 301 284
-0.019819681 0.62800002 -0.048448104 4.9731536e-39 302 284
-0.018718587 0.62800002 -0.048448104 5.065708e-39 303 284
-0.017617494 0.62800002 -0.048448104 5.065352e-39 304 284
-0.016490098 0.62699997 -0.048370957 5.065352e-39 305 284
-0.015390759 0.62699997 -0.048370957 5.3415802e-39 306 284
-0.01429142 0.62699997 -0.048370957 5.2493832e-39 307 284
-0.013192079 0.62699997 -0.048370957 5.065352e-39 308 284
-0.012092739 0.62699997 -0.048370957 4.9731564e-39 309 284
-0.010993399 0.62699997 -0.048370957 5.0642702e-39 310 284
-0.009894059 0.62699997 -0.048370957 4.9720746e-39 311 284
-0.0087947194 0.62699997 -0.048370957 4.7887595e-39 312 284
-0.0076953797 0.62699997 -0.048370957 4.7887595e-39 313 284
-0.0065960395 0.62699997 -0.048370957 4.9713557e-39 314 284
-0.0054966994 0.62699997 -0.048370957 4.9713557e-39 315 284
-0.0043973597 0.62699997 -0.048370957 4.7880463e-39 316 284
-0.0032980198 0.62699997 -0.048370957 4.6954905e-39 317 284
-0.0021986798 0.62699997 -0.048370957 4.6040137e-39 318 284
-0.0010993399 0.62699997 -0.048370957 4.6040137e-39 319 284
0 0.62699997 -0.048370957 4.4206987e-39 320 284
0.0010993399 0.62699997 -0.048370957 4.4206987e-39 321 284
0.0021986798 0.62699997 -0.048370957 4.6043669e-39 322 284
0.0032875 0.625 -0.048216663 4.6043669e-39 323 284
0.004383333 0.625 -0.048216663 4.6043669e-39 324 284
0.0054791663 0.625 -0.048216663 4.6043669e-39 325 284
0.006575 0.625 -0.048216663 4.6043641e-39 326 284
0.0076953797 0.62699997 -0.048370957 4.6043641e-39 327 284
0.0087947194 0.62699997 -0.048370957 4.7883952e-39 328 284
0.009894059 0.62699997 -0.048370957 4.7883952e-39 329 284
0.011010934 0.62800002 -0.048448104 4.9724305e-39 330 284
0.012112026 0.62800002 -0.048448104 4.9724305e-39 331 284
0.01321312 0.62800002 -0.048448104 4.9735067e-39 332 284
0.014314214 0.62800002 -0.048448104 4.9735067e-39 333 284
0.015439852 0.62900001 -0.048525251 5.0660555e-39 334 284
0.016542701 0.62900001 -0.048525251 5.2500866e-39 335 284
0.017673599 0.63 -0.048602398 5.4341149e-39 336 284
0.018778199 0.63 -0.048602398 5.6181475e-39 337 284
0.0198828 0.63 -0.048602398 5.7099802e-39 338 284
0.021020712 0.63099998 -0.048679546 5.8021758e-39 339 284
0.022127066 0.63099998 -0.048679546 6.3528286e-39 340 284
0.02327024 0.63200003 -0.048756693 6.8138068e-39 341 284
0.024378346 0.63200003 -0.048756693 6.539015e-39 342 284
0.026172007 0.64899999 -0.050068185 6.7234062e-39 343 284
0.02726784 0.648 -0.049991041 6.9081506e-39 344 284
0.028404001 0.648 -0.049991041 7.0921817e-39 345 284
0.029540159 0.648 -0.049991041 7.2769331e-39 346 284
0.03067632 0.648 -0.049991041 7.2769331e-39 347 284
0.032008853 0.65200001 -0.050299626 7.7361134e-39 348 284
0.033253718 0.65399998 -0.050453916 7.7361134e-39 349 284
0.034558199 0.65700001 -0.050685361 7.9194313e-39 350 284
0.035710141 0.65700001 -0.050685361 7.9194313e-39 351 284
0.036918186 0.65799999 -0.050762504 7.919797e-39 352 284
0.038071878 0.65799999 -0.050762504 7.919797e-39 353 284
0.039285187 0.65899998 -0.050839648 8.0119926e-39 354 284
0.04044063 0.65899998 -0.050839648 8.0119926e-39 355 284
0.041596077 0.65899998 -0.050839648 7.7364847e-39 356 284
0.042686652 0.65799999 -0.050762504 7.5517348e-39 357 284
0.043840345 0.65799999 -0.050762504 7.0914839e-39 358 284
0.045335937 0.66299999 -0.051148236 6.907094e-39 359 284
0.046778932 0.667 -0.051456824 6.8174221e-39 360 284
0.048020288 0.66799998 -0.051533967 7.8312139e-39 361 284
0.049706999 0.67500001 -0.052074 9.5796883e-39 362 284
0.050890498 0.67500001 -0.052074 9.1190689e-39 363 284
0.052074 0.67500001 -0.052074 8.7466878e-39 364 284
0.053257499 0.67500001 -0.052074 8.5622966e-39 365 284
0.054682959 0.67799997 -0.052305438 7.5549816e-39 366 284
0.055871718 0.67799997 -0.052305438 8.0159597e-39 367 284
0.057144642 0.67900002 -0.052382588 8.2035908e-39 368 284
0.058421064 0.68000001 -0.052459732 8.6649291e-39 369 284
0.059613332 0.68000001 -0.052459732 9.033357e-39 370 284
-0.069309272 0.67000002 -0.052863002 8.8478882e-39 261 285
-0.067931145 0.66799998 -0.052705199 9.8598737e-39 262 285
-0.06665998 0.667 -0.052626297 1.0136462e-38 263 285
-0.065392323 0.66600001 -0.052547399 1.0317957e-38 264 285
-0.064031735 0.66399997 -0.052389596 9.4881961e-39 265 285
-0.062867515 0.66399997 -0.052389596 8.2907347e-39 266 285
-0.061703302 0.66399997 -0.052389596 8.1063435e-39 267 285
-0.060539093 0.66399997 -0.052389596 7.3705903e-39 268 285
-0.059285458 0.66299999 -0.052310698 7.5549816e-39 269 285
-0.058122993 0.66299999 -0.052310698 8.0141632e-39 270 285
-0.056874625 0.662 -0.0522318 8.1063589e-39 271 285
-0.055377278 0.65799999 -0.051916201 8.198186e-39 272 285
-0.054223582 0.65799999 -0.051916201 8.1059903e-39 273 285
-0.052827932 0.65499997 -0.051679496 8.2889397e-39 274 285
-0.051679496 0.65499997 -0.051679496 8.2889397e-39 275 285
-0.050453916 0.65399998 -0.051600594 8.1974601e-39 276 285
-0.049307238 0.65399998 -0.051600594 8.013429e-39 277 285
-0.048160557 0.65399998 -0.051600594 7.9212263e-39 278 285
-0.045719914 0.63599998 -0.050180398 7.8290307e-39 279 285
-0.044604797 0.63599998 -0.050180398 7.4613216e-39 280 285
-0.043489676 0.63599998 -0.050180398 7.2769303e-39 281 285
-0.042374559 0.63599998 -0.050180398 6.9092226e-39 282 285
-0.041194562 0.63499999 -0.050101496 6.7248313e-39 283 285
-0.039891839 0.63200003 -0.049864799 6.3556985e-39 284 285
-0.038722362 0.63099998 -0.049785897 5.7103305e-39 285 285
-0.037616011 0.63099998 -0.049785897 5.5245155e-39 286 285
-0.036509659 0.63099998 -0.049785897 5.4319611e-39 287 285
-0.035347197 0.63 -0.049706999 4.8813139e-39 288 285
-0.0342426 0.63 -0.049706999 4.9735095e-39 289 285
-0.033137999 0.63 -0.049706999 5.1589728e-39 290 285
-0.032033399 0.63 -0.049706999 5.1589728e-39 291 285
-0.030879704 0.62900001 -0.049628098 5.527384e-39 292 285
-0.029729521 0.62800002 -0.0495492 5.6195796e-39 293 285
-0.028582839 0.62699997 -0.049470294 5.8032478e-39 294 285
-0.027483499 0.62699997 -0.049470294 5.7106934e-39 295 285
-0.026384158 0.62699997 -0.049470294 5.7099774e-39 296 285
-0.025325146 0.62800002 -0.0495492 5.6177803e-39 297 285
-0.024224052 0.62800002 -0.0495492 5.8010926e-39 298 285
-0.023122961 0.62800002 -0.0495492 5.6170615e-39 299 285
-0.022021867 0.62800002 -0.0495492 5.6170643e-39 300 285
-0.020920772 0.62800002 -0.0495492 5.5245099e-39 301 285
-0.019819681 0.62800002 -0.0495492 5.5245155e-39 302 285
-0.018718587 0.62800002 -0.0495492 5.6167111e-39 303 285
-0.017617494 0.62800002 -0.0495492 5.4326856e-39 304 285
-0.016490098 0.62699997 -0.049470294 5.2482958e-39 305 285
-0.015390759 0.62699997 -0.049470294 5.1564687e-39 306 285
-0.01429142 0.62699997 -0.049470294 5.1564687e-39 307 285
-0.013192079 0.62699997 -0.049470294 4.880958e-39 308 285
-0.012092739 0.62699997 -0.049470294 4.9731536e-39 309 285
-0.010993399 0.62699997 -0.049470294 5.1571721e-39 310 285
-0.009894059 0.62699997 -0.049470294 5.1571721e-39 311 285
-0.0087947194 0.62699997 -0.049470294 5.2489992e-39 312 285
-0.0077076531 0.62800002 -0.0495492 5.4333891e-39 313 285
-0.0066065602 0.62800002 -0.0495492 5.707825e-39 314 285
-0.0054966994 0.62699997 -0.049470294 5.4315982e-39 315 285
-0.0043973597 0.62699997 -0.049470294 5.2472168e-39 316 285
-0.0032980198 0.62699997 -0.049470294 5.2472168e-39 317 285
-0.0021986798 0.62699997 -0.049470294 5.6149105e-39 318 285
-0.0010993399 0.62699997 -0.049470294 5.5227148e-39 319 285
0 0.62699997 -0.049470294 4.973134e-39 320 285
0.0010958333 0.625 -0.049312498 4.973134e-39 321 285
0.0021916665 0.625 -0.049312498 4.7894658e-39 322 285
0.0032875 0.625 -0.049312498 4.7894658e-39 323 285
0.004383333 0.625 -0.049312498 4.8816642e-39 324 285
0.0054791663 0.625 -0.049312498 4.8816642e-39 325 285
0.006575 0.625 -0.049312498 5.0649737e-39 326 285
0.0076953797 0.62699997 -0.049470294 5.2497237e-39 327 285
0.0087947194 0.62699997 -0.049470294 5.6170587e-39 328 285
0.009894059 0.62699997 -0.049470294 5.8014485e-39 329 285
0.011010934 0.62800002 -0.0495492 5.9851195e-39 330 285
0.012112026 0.62800002 -0.0495492 6.0773151e-39 331 285
0.01321312 0.62800002 -0.0495492 6.0783899e-39 332 285
0.014314214 0.62800002 -0.0495492 6.0783899e-39 333 285
0.015439852 0.62900001 -0.049628098 6.2627812e-39 334 285
0.016569 0.63 -0.049706999 6.4468123e-39 335 285
0.017673599 0.63 -0.049706999 6.5390079e-39 336 285
0.018778199 0.63 -0.049706999 6.6315637e-39 337 285
0.0198828 0.63 -0.049706999 6.9070716e-39 338 285
0.020987399 0.63 -0.049706999 6.9992672e-39 339 285
0.0227232 0.648 -0.051127199 7.090744e-39 340 285
0.023896178 0.64899999 -0.051206097 7.4595251e-39 341 285
0.025034092 0.64899999 -0.051206097 7.4595223e-39 342 285
0.026172007 0.64899999 -0.051206097 7.5517193e-39 343 285
0.02726784 0.648 -0.051127199 7.82723e-39 344 285
0.028404001 0.648 -0.051127199 8.01198e-39 345 285
0.029540159 0.648 -0.051127199 7.9201501e-39 346 285
0.030723657 0.64899999 -0.051206097 7.9201501e-39 347 285
0.032008853 0.65200001 -0.051442798 8.1038253e-39 348 285
0.033253718 0.65399998 -0.051600594 8.011271e-39 349 285
0.034558199 0.65700001 -0.051837299 8.0112738e-39 350 285
0.035710141 0.65700001 -0.051837299 7.9190781e-39 351 285
0.036862079 0.65700001 -0.051837299 7.9190781e-39 352 285
0.038014017 0.65700001 -0.051837299 8.0112738e-39 353 285
0.039225571 0.65799999 -0.051916201 7.919797e-39 354 285
0.040379263 0.65799999 -0.051916201 7.919797e-39 355 285
0.041596077 0.65899998 -0.051995095 7.6439332e-39 356 285
0.04262178 0.65700001 -0.051837299 7.2755108e-39 357 285
0.043773718 0.65700001 -0.051837299 6.9070968e-39 358 285
0.045335937 0.66299999 -0.052310698 7.0911279e-39 359 285
0.046778932 0.667 -0.052626297 7.8290503e-39 360 285
0.048020288 0.66799998 -0.052705199 8.4744197e-39 361 285
0.049706999 0.67500001 -0.053257499 9.0268704e-39 362 285
0.050890498 0.67500001 -0.053257499 8.5658937e-39 363 285
0.052151144 0.676 -0.053336397 8.196035e-39 364 285
0.053336397 0.676 -0.053336397 8.196035e-39 365 285
0.054763615 0.67900002 -0.053573098 7.373107e-39 366 285
0.055954125 0.67900002 -0.053573098 8.1106721e-39 367 285
0.057228796 0.68000001 -0.053652 8.7560471e-39 368 285
0.058421064 0.68000001 -0.053652 8.9404397e-39 369 285
-0.069826499 0.67500001 -0.054441001 8.7556912e-39 261 286
-0.068541311 0.67400002 -0.054360349 9.9491841e-39 262 286
-0.06665998 0.667 -0.05379577 1.0502356e-38 263 286
-0.065392323 0.66600001 -0.053715117 1.0412676e-38 264 286
-0.064031735 0.66399997 -0.053553808 9.7673067e-39 265 286
-0.062867515 0.66399997 -0.053553808 8.8417547e-39 266 286
-0.061703302 0.66399997 -0.053553808 8.0119926e-39 267 286
-0.060539093 0.66399997 -0.053553808 7.0950782e-39 268 286
-0.059285458 0.66299999 -0.053473156 7.0028826e-39 269 286
-0.058122993 0.66299999 -0.053473156 8.0134416e-39 270 286
-0.056874625 0.662 -0.053392503 8.0134416e-39 271 286
-0.055377278 0.65799999 -0.05306989 8.2893026e-39 272 286
-0.054223582 0.65799999 -0.05306989 8.2893026e-39 273 286
-0.052827932 0.65499997 -0.052827932 8.2889397e-39 274 286
-0.051600594 0.65399998 -0.052747279 8.3811353e-39 275 286
-0.050453916 0.65399998 -0.052747279 8.1971042e-39 276 286
-0.049307238 0.65399998 -0.052747279 8.013073e-39 277 286
-0.047865998 0.64999998 -0.052424666 8.013429e-39 278 286
-0.046654444 0.64899999 -0.052344013 7.9208732e-39 279 286
-0.0454464 0.648 -0.05226336 7.6453625e-39 280 286
-0.044310238 0.648 -0.05226336 7.5531669e-39 281 286
-0.043174081 0.648 -0.05226336 7.00287e-39 282 286
-0.042037919 0.648 -0.05226336 6.81812e-39 283 286
-0.040901758 0.648 -0.05226336 6.3571446e-39 284 286
-0.039826967 0.64899999 -0.052344013 5.9883607e-39 285 286
-0.038629439 0.648 -0.05226336 5.4326856e-39 286 286
-0.037493281 0.648 -0.05226336 5.2482958e-39 287 286
-0.03635712 0.648 -0.05226336 4.7880463e-39 288 286
-0.03527531 0.64899999 -0.052344013 5.064273e-39 289 286
-0.034137398 0.64899999 -0.052344013 5.2490174e-39 290 286
-0.032999486 0.64899999 -0.052344013 5.8021912e-39 291 286
-0.03186157 0.64899999 -0.052344013 5.7121438e-39 292 286
-0.030723657 0.64899999 -0.052344013 5.9890908e-39 293 286
-0.028582839 0.62699997 -0.050569635 5.989804e-39 294 286
-0.027483499 0.62699997 -0.050569635 5.8976084e-39 295 286
-0.026384158 0.62699997 -0.050569635 5.9890852e-39 296 286
-0.025325146 0.62800002 -0.050650291 5.8046925e-39 297 286
-0.024224052 0.62800002 -0.050650291 5.9880048e-39 298 286
-0.023122961 0.62800002 -0.050650291 5.9880048e-39 299 286
-0.022021867 0.62800002 -0.050650291 6.0784025e-39 300 286
-0.020920772 0.62800002 -0.050650291 6.0784025e-39 301 286
-0.019819681 0.62800002 -0.050650291 5.6192265e-39 302 286
-0.018718587 0.62800002 -0.050650291 5.7114221e-39 303 286
-0.017617494 0.62800002 -0.050650291 5.0685736e-39 304 286
-0.016490098 0.62699997 -0.050569635 4.976378e-39 305 286
-0.015390759 0.62699997 -0.050569635 4.7008687e-39 306 286
-0.01429142 0.62699997 -0.050569635 4.7008687e-39 307 286
-0.013192079 0.62699997 -0.050569635 4.8841782e-39 308 286
-0.012092739 0.62699997 -0.050569635 4.8841782e-39 309 286
-0.010993399 0.62699997 -0.050569635 5.2515229e-39 310 286
-0.009894059 0.62699997 -0.050569635 5.3437186e-39 311 286
-0.0088087469 0.62800002 -0.050650291 5.4366331e-39 312 286
-0.0077076531 0.62800002 -0.050650291 5.7128598e-39 313 286
-0.0066065602 0.62800002 -0.050650291 6.4479081e-39 314 286
-0.0055054668 0.62800002 -0.050650291 6.6326581e-39 315 286
-0.0044043735 0.62800002 -0.050650291 6.9074471e-39 316 286
-0.0033032801 0.62800002 -0.050650291 6.6308603e-39 317 286
-0.0021986798 0.62699997 -0.050569635 5.5291846e-39 318 286
-0.0010993399 0.62699997 -0.050569635 5.0678463e-39 319 286
0 0.62699997 -0.050569635 4.7008631e-39 320 286
0.0010958333 0.625 -0.05040833 4.7008631e-39 321 286
0.0021916665 0.625 -0.05040833 4.7008631e-39 322 286
0.0032875 0.625 -0.05040833 4.7008631e-39 323 286
0.004383333 0.625 -0.05040833 4.976378e-39 324 286
0.0054791663 0.625 -0.05040833 4.976378e-39 325 286
0.006575 0.625 -0.05040833 5.5270308e-39 326 286
0.0076708333 0.625 -0.05040833 5.7114221e-39 327 286
0.009894059 0.62699997 -0.050569635 6.1727534e-39 329 286
0.011010934 0.62800002 -0.050650291 6.3560628e-39 330 286
0.012112026 0.62800002 -0.050650291 6.4486172e-39 331 286
0.01321312 0.62800002 -0.050650291 6.4486144e-39 332 286
0.014337006 0.62900001 -0.050730944 6.54081e-39 333 286
0.015439852 0.62900001 -0.050730944 6.6330056e-39 334 286
0.016569 0.63 -0.050811596 6.6330056e-39 335 286
0.017701652 0.63099998 -0.050892249 6.8163207e-39 336 286
0.019344525 0.64899999 -0.052344013 6.9085163e-39 337 286
0.020450879 0.648 -0.05226336 7.1833082e-39 338 286
0.02158704 0.648 -0.05226336 7.1833082e-39 339 286
0.0227232 0.648 -0.05226336 7.5513718e-39 340 286
0.023896178 0.64899999 -0.052344013 7.5513718e-39 341 286
0.025034092 0.64899999 -0.052344013 8.1027435e-39 342 286
0.026172007 0.64899999 -0.052344013 8.1027435e-39 343 286
0.027309919 0.64899999 -0.052344013 8.1949392e-39 344 286
0.028447833 0.64899999 -0.052344013 8.1949392e-39 345 286
0.029585747 0.64899999 -0.052344013 8.1949392e-39 346 286
0.030770998 0.64999998 -0.052424666 8.1949392e-39 347 286
0.032057945 0.653 -0.052666627 8.2864159e-39 348 286
0.033304565 0.65499997 -0.052827932 8.1942203e-39 349 286
0.034558199 0.65700001 -0.052989237 7.9183565e-39 350 286
0.035710141 0.65700001 -0.052989237 7.9183565e-39 351 286
0.036862079 0.65700001 -0.052989237 7.9190753e-39 352 286
0.038014017 0.65700001 -0.052989237 8.011271e-39 353 286
0.039225571 0.65799999 -0.05306989 7.919797e-39 354 286
0.040379263 0.65799999 -0.05306989 7.7357659e-39 355 286
0.041596077 0.65899998 -0.053150542 7.2751549e-39 356 286
0.04262178 0.65700001 -0.052989237 7.0907622e-39 357 286
0.043773718 0.65700001 -0.052989237 6.7227e-39 358 286
0.045404319 0.66399997 -0.053553808 6.9074499e-39 359 286
0.046778932 0.667 -0.05379577 8.8410344e-39 360 286
0.04830784 0.67199999 -0.054199036 9.3020126e-39 361 286
0.049706999 0.67500001 -0.054441001 8.8424736e-39 362 286
0.050890498 0.67500001 -0.054441001 8.2896585e-39 363 286
0.052151144 0.676 -0.054521654 7.8290475e-39 364 286
0.053336397 0.676 -0.054521654 8.0134388e-39 365 286
-0.069826499 0.67500001 -0.0556245 8.5698776e-39 261 287
-0.068541311 0.67400002 -0.055542093 8.8482441e-39 262 287
-0.06705974 0.671 -0.055294871 9.2166665e-39 263 287
-0.065490507 0.667 -0.054965243 1.0319406e-38 264 287
-0.064224601 0.66600001 -0.054882839 1.0504156e-38 265 287
-0.063056879 0.66600001 -0.054882839 9.6707923e-39 266 287
-0.061889157 0.66600001 -0.054882839 8.5644447e-39 267 287
-0.060539093 0.66399997 -0.054718021 6.9106869e-39 268 287
-0.059374876 0.66399997 -0.054718021 6.9106869e-39 269 287
-0.05821066 0.66399997 -0.054718021 7.0947251e-39 270 287
-0.056788713 0.66100001 -0.054470807 7.2794765e-39 271 287
-0.055461437 0.65899998 -0.054305989 7.8304796e-39 272 287
-0.054223582 0.65799999 -0.054223582 8.0145108e-39 273 287
-0.052989237 0.65700001 -0.054141179 8.3811325e-39 274 287
-0.051600594 0.65399998 -0.053893957 8.2889369e-39 275 287
-0.050453916 0.65399998 -0.053893957 8.1963881e-39 276 287
-0.049307238 0.65399998 -0.053893957 8.1963881e-39 277 287
-0.047865998 0.64999998 -0.053564329 8.1956664e-39 278 287
-0.046654444 0.64899999 -0.053481925 8.1034694e-39 279 287
-0.0454464 0.648 -0.053399518 8.1038225e-39 280 287
-0.044310238 0.648 -0.053399518 8.1038225e-39 281 287
-0.043174081 0.648 -0.053399518 7.7361162e-39 282 287
-0.042037919 0.648 -0.053399518 7.6439206e-39 283 287
-0.040901758 0.648 -0.053399518 7.5506487e-39 284 287
-0.039826967 0.64899999 -0.053481925 6.9052807e-39 285 287
-0.038629439 0.648 -0.053399518 6.5354374e-39 286 287
-0.037493281 0.648 -0.053399518 5.5216442e-39 287 287
-0.036413226 0.64899999 -0.053481925 4.8784524e-39 288 287
-0.03527531 0.64899999 -0.053481925 4.8784524e-39 289 287
-0.034137398 0.64899999 -0.053481925 4.6969395e-39 290 287
-0.032999486 0.64899999 -0.053481925 5.1579176e-39 291 287
-0.03186157 0.64899999 -0.053481925 6.1720499e-39 292 287
-0.030723657 0.64899999 -0.053481925 6.5404723e-39 293 287
-0.029585747 0.64899999 -0.053481925 7.1843802e-39 294 287
-0.028447833 0.64899999 -0.053481925 7.1843802e-39 295 287
-0.027099518 0.64399999 -0.05306989 7.0925377e-39 296 287
-0.025930047 0.64300001 -0.052987486 6.9081478e-39 297 287
-0.024224052 0.62800002 -0.051751386 7.2747751e-39 298 287
-0.023122961 0.62800002 -0.051751386 7.3673295e-39 299 287
-0.022021867 0.62800002 -0.051751386 7.0918188e-39 300 287
-0.020920772 0.62800002 -0.051751386 7.0918188e-39 301 287
-0.019819681 0.62800002 -0.051751386 7.0910999e-39 302 287
-0.018718587 0.62800002 -0.051751386 6.9063499e-39 303 287
-0.017617494 0.62800002 -0.051751386 6.3556957e-39 304 287
-0.016490098 0.62699997 -0.051668976 6.0791088e-39 305 287
-0.015390759 0.62699997 -0.051668976 5.4369834e-39 306 287
-0.01429142 0.62699997 -0.051668976 5.3447878e-39 307 287
-0.013192079 0.62699997 -0.051668976 5.3447906e-39 308 287
-0.012092739 0.62699997 -0.051668976 5.2525949e-39 309 287
-0.010993399 0.62699997 -0.051668976 5.5281028e-39 310 287
-0.009894059 0.62699997 -0.051668976 5.8972455e-39 311 287
-0.0088087469 0.62800002 -0.051751386 6.5404597e-39 312 287
-0.0077076531 0.62800002 -0.051751386 7.4624174e-39 313 287
-0.0066065602 0.62800002 -0.051751386 8.013429e-39 314 287
-0.0055054668 0.62800002 -0.051751386 8.1974601e-39 315 287
-0.0045306133 0.64600003 -0.053234708 8.5630014e-39 316 287
-0.0032980198 0.62699997 -0.051668976 8.3786115e-39 317 287
-0.0021986798 0.62699997 -0.051668976 7.9172635e-39 318 287
-0.0010993399 0.62699997 -0.051668976 7.271894e-39 319 287
0 0.62699997 -0.051668976 6.0787431e-39 320 287
0.0010958333 0.625 -0.051504165 6.0787431e-39 321 287
0.0021916665 0.625 -0.051504165 5.2525921e-39 322 287
0.01019388 0.64600003 -0.053234708 7.0921817e-39 329 287
0.011344067 0.64700001 -0.053317111 7.6424716e-39 330 287
0.012478473 0.64700001 -0.053317111 7.6424716e-39 331 287
0.013612879 0.64700001 -0.053317111 7.4588034e-39 332 287
0.014747286 0.64700001 -0.053317111 7.4588034e-39 333 287
0.015881693 0.64700001 -0.053317111 7.3669735e-39 334 287
0.0170424 0.648 -0.053399518 7.3669735e-39 335 287
0.018206613 0.64899999 -0.053481925 7.459172e-39 336 287
0.019344525 0.64899999 -0.053481925 7.459172e-39 337 287
0.020450879 0.648 -0.053399518 7.7339652e-39 338 287
0.02158704 0.648 -0.053399518 7.7339652e-39 339 287
0.0227232 0.648 -0.053399518 7.7346841e-39 340 287
0.023896178 0.64899999 -0.053481925 7.9190753e-39 341 287
0.025034092 0.64899999 -0.053481925 8.1027435e-39 342 287
0.026172007 0.64899999 -0.053481925 8.1949392e-39 343 287
0.027309919 0.64899999 -0.053481925 8.2864159e-39 344 287
0.028491667 0.64999998 -0.053564329 8.2864159e-39 345 287
0.029722504 0.65200001 -0.053729147 8.2864159e-39 346 287
0.03091302 0.653 -0.05381155 8.2864159e-39 347 287
0.03210704 0.65399998 -0.053893957 7.9183565e-39 348 287
0.033304565 0.65499997 -0.053976361 7.8261608e-39 349 287
0.034558199 0.65700001 -0.054141179 7.8268825e-39 350 287
0.035710141 0.65700001 -0.054141179 7.9190781e-39 351 287
0.036862079 0.65700001 -0.054141179 7.9190809e-39 352 287
0.038071878 0.65799999 -0.054223582 7.9190809e-39 353 287
0.039285187 0.65899998 -0.054305989 7.643936e-39 354 287
0.04044063 0.65899998 -0.054305989 7.2751549e-39 355 287
0.04172232 0.66100001 -0.054470807 6.907094e-39 356 287
0.042881273 0.66100001 -0.054470807 6.8148984e-39 357 287
0.044240102 0.66399997 -0.054718021 6.8156201e-39 358 287
0.045541082 0.66600001 -0.054882839 7.3687938e-39 359 287
0.047129598 0.67199999 -0.055377278 8.8417603e-39 360 287
0.04830784 0.67199999 -0.055377278 9.3023783e-39 361 287
0.049633358 0.67400002 -0.055542093 8.5648133e-39 362 287
0.050815105 0.67400002 -0.055542093 8.2885865e-39 363 287
0.052151144 0.676 -0.055706903 7.5549816e-39 364 287
0.053336397 0.676 -0.055706903 8.1081553e-39 365 287
-0.069723055 0.67400002 -0.056723841 7.8344635e-39 261 288
-0.068541311 0.67400002 -0.056723841 8.8471707e-39 262 288
-0.067159683 0.67199999 -0.056555521 9.1233989e-39 263 288
-0.065785065 0.67000002 -0.056387197 1.0134294e-38 264 288
-0.064321034 0.667 -0.056134716 1.0410521e-38 265 288
-0.063151561 0.667 -0.056134716 9.9480981e-39 266 288
-0.061889157 0.66600001 -0.056050558 8.8421106e-39 267 288
-0.060721438 0.66600001 -0.056050558 7.185113e-39 268 288
-0.059374876 0.66399997 -0.055882234 7.0925587e-39 269 288
-0.05821066 0.66399997 -0.055882234 7.1861948e-39 270 288
-0.056788713 0.66100001 -0.05562976 7.3709462e-39 271 288
-0.055461437 0.65899998 -0.055461437 7.8304796e-39 272 288
-0.054305989 0.65899998 -0.055461437 8.0145108e-39 273 288
-0.052989237 0.65700001 -0.055293117 8.2896557e-39 274 288
-0.051600594 0.65399998 -0.055040635 8.1974601e-39 275 288
-0.050453916 0.65399998 -0.055040635 8.1963853e-39 276 288
-0.049307238 0.65399998 -0.055040635 8.1041897e-39 277 288
-0.047865998 0.64999998 -0.054703996 8.196021e-39 278 288
-0.046726331 0.64999998 -0.054703996 8.196021e-39 279 288
-0.045516532 0.64899999 -0.054619838 8.1045442e-39 280 288
-0.044378616 0.64899999 -0.054619838 8.0119898e-39 281 288
-0.043240704 0.64899999 -0.054619838 7.7364847e-39 282 288
-0.042102791 0.64899999 -0.054619838 7.7364847e-39 283 288
-0.040964879 0.64899999 -0.054619838 7.3691442e-39 284 288
-0.039826967 0.64899999 -0.054619838 6.7237748e-39 285 288
-0.038689051 0.64899999 -0.054619838 6.2599295e-39 286 288
-0.037551139 0.64899999 -0.054619838 5.6145601e-39 287 288
-0.036413226 0.64899999 -0.054619838 4.8780895e-39 288 288
-0.03527531 0.64899999 -0.054619838 4.7858939e-39 289 288
-0.034137398 0.64899999 -0.054619838 4.8784524e-39 290 288
-0.032999486 0.64899999 -0.054619838 5.5238219e-39 291 288
-0.03186157 0.64899999 -0.054619838 6.4457613e-39 292 288
-0.030723657 0.64899999 -0.054619838 7.2755234e-39 293 288
-0.029585747 0.64899999 -0.054619838 7.2762297e-39 294 288
-0.028447833 0.64899999 -0.054619838 7.3684253e-39 295 288
-0.027099518 0.64399999 -0.054199036 7.0925587e-39 296 288
-0.025930047 0.64300001 -0.054114878 7.000363e-39 297 288
-0.024802653 0.64300001 -0.054114878 7.2755108e-39 298 288
-0.023675259 0.64300001 -0.054114878 7.2755108e-39 299 288
-0.022582933 0.64399999 -0.054199036 7.2762269e-39 300 288
-0.021453787 0.64399999 -0.054199036 7.2762269e-39 301 288
-0.02032464 0.64399999 -0.054199036 7.2762241e-39 302 288
-0.018748393 0.62900001 -0.05293664 7.0918314e-39 303 288
-0.017617494 0.62800002 -0.052852482 6.1734722e-39 304 288
-0.016490098 0.62699997 -0.052768316 5.8972455e-39 305 288
-0.015390759 0.62699997 -0.052768316 5.3462325e-39 306 288
-0.01429142 0.62699997 -0.052768316 5.1618412e-39 307 288
-0.013192079 0.62699997 -0.052768316 5.3451563e-39 308 288
-0.012092739 0.62699997 -0.052768316 5.3451563e-39 309 288
-0.010993399 0.62699997 -0.052768316 5.8046953e-39 310 288
-0.0099098403 0.62800002 -0.052852482 6.1731191e-39 311 288
-0.0088087469 0.62800002 -0.052852482 7.2783807e-39 312 288
-0.0079408465 0.64700001 -0.054451518 8.3843695e-39 313 288
-0.0068064397 0.64700001 -0.054451518 8.9353783e-39 314 288
-0.0056720334 0.64700001 -0.054451518 9.0275739e-39 315 288
-0.0045306133 0.64600003 -0.05436736 9.2098015e-39 316 288
-0.00339796 0.64600003 -0.05436736 8.7484633e-39 317 288
-0.0022653067 0.64600003 -0.05436736 7.8272328e-39 318 288
-0.0011326533 0.64600003 -0.05436736 7.0896678e-39 319 288
0 0.64700001 -0.054451518 6.0794815e-39 320 288
0.0011344067 0.64700001 -0.054451518 5.8950903e-39 321 288
0.0022688133 0.64700001 -0.054451518 5.1607692e-39 322 288
0.0056720334 0.64700001 -0.054451518 5.4362799e-39 325 288
0.0090612266 0.64600003 -0.05436736 7.2762241e-39 328 288
0.01019388 0.64600003 -0.05436736 7.3687784e-39 329 288
0.011344067 0.64700001 -0.054451518 7.5513718e-39 330 288
0.012478473 0.64700001 -0.054451518 7.4591762e-39 331 288
0.013612879 0.64700001 -0.054451518 7.5506529e-39 332 288
0.014747286 0.64700001 -0.054451518 7.5506529e-39 333 288
0.015881693 0.64700001 -0.054451518 7.4591762e-39 334 288
0.0170424 0.648 -0.05453568 7.3666204e-39 335 288
0.018206613 0.64899999 -0.054619838 7.4588203e-39 336 288
0.019374331 0.64999998 -0.054703996 7.4588203e-39 337 288
0.02048244 0.64899999 -0.054619838 7.733968e-39 338 288
0.021620352 0.64899999 -0.054619838 7.8261636e-39 339 288
0.022758266 0.64899999 -0.054619838 7.8268797e-39 340 288
0.023932999 0.64999998 -0.054703996 7.9190753e-39 341 288
0.025072664 0.64999998 -0.054703996 8.1027435e-39 342 288
0.026212333 0.64999998 -0.054703996 8.1027435e-39 343 288
0.027351998 0.64999998 -0.054703996 8.3775325e-39 344 288
0.028579334 0.65200001 -0.054872319 8.3775325e-39 345 288
0.029813679 0.65399998 -0.055040635 8.1027435e-39 346 288
0.030960357 0.65399998 -0.055040635 7.9187124e-39 347 288
0.032156132 0.65499997 -0.055124797 7.9187124e-39 348 288
0.033406258 0.65700001 -0.055293117 7.8265168e-39 349 288
0.034558199 0.65700001 -0.055293117 7.8268797e-39 350 288
0.035710141 0.65700001 -0.055293117 7.8268797e-39 351 288
0.036918186 0.65799999 -0.055377278 7.6435702e-39 352 288
0.038129739 0.65899998 -0.055461437 7.6435702e-39 353 288
0.039404415 0.66100001 -0.05562976 7.2751549e-39 354 288
0.040563367 0.66100001 -0.05562976 7.0907622e-39 355 288
0.04172232 0.66100001 -0.05562976 6.9060178e-39 356 288
0.042946145 0.662 -0.055713918 6.9060178e-39 357 288
0.044439986 0.667 -0.056134716 6.9078129e-39 358 288
0.045677837 0.66799998 -0.056218877 7.6453793e-39 359 288
0.047129598 0.67199999 -0.056555521 8.8424792e-39 360 288
0.04830784 0.67199999 -0.056555521 8.5658937e-39 361 288
0.049633358 0.67400002 -0.056723841 8.3807822e-39 362 288
0.050815105 0.67400002 -0.056723841 8.1963909e-39 363 288
0.051996857 0.67400002 -0.056723841 7.7404504e-39 364 288
-0.069826499 0.67500001 -0.057991501 5.2601704e-39 261 289
-0.068643004 0.67500001 -0.057991501 8.3854863e-39 262 289
-0.067459501 0.67500001 -0.057991501 8.6620732e-39 263 289
-0.066177815 0.67400002 -0.057905588 9.4910926e-39 264 289
-0.064706765 0.671 -0.057647847 9.6754838e-39 265 289
-0.063435599 0.67000002 -0.057561934 1.0225764e-38 266 289
-0.062075011 0.66799998 -0.057390101 9.4881989e-39 267 289
-0.060812607 0.667 -0.057304189 7.9208774e-39 268 289
-0.059374876 0.66399997 -0.057046451 7.5517348e-39 269 289
-0.05821066 0.66399997 -0.057046451 7.0028826e-39 270 289
-0.057046451 0.66399997 -0.057046451 7.0950782e-39 271 289
-0.055882234 0.66399997 -0.057046451 7.3709434e-39 272 289
-0.054553211 0.662 -0.056874625 7.5553347e-39 273 289
-0.053311851 0.66100001 -0.056788713 8.1063435e-39 274 289
-0.051916201 0.65799999 -0.056530971 8.0141478e-39 275 289
-0.050685361 0.65700001 -0.056445058 8.1963853e-39 276 289
-0.049307238 0.65399998 -0.056187313 8.1041897e-39 277 289
-0.048160557 0.65399998 -0.056187313 8.1963853e-39 278 289
-0.046941992 0.653 -0.056101404 8.1963853e-39 279 289
-0.045586664 0.64999998 -0.055843662 8.1045442e-39 280 289
-0.044446997 0.64999998 -0.055843662 8.1045442e-39 281 289
-0.04330733 0.64999998 -0.055843662 8.0119898e-39 282 289
-0.042167664 0.64999998 -0.055843662 8.0119898e-39 283 289
-0.041027997 0.64999998 -0.055843662 7.6442891e-39 284 289
-0.039888334 0.64999998 -0.055843662 7.0911153e-39 285 289
-0.038748663 0.64999998 -0.055843662 6.7201874e-39 286 289
-0.037608996 0.64999998 -0.055843662 5.7978724e-39 287 289
-0.036469329 0.64999998 -0.055843662 4.9692061e-39 288 289
-0.035329666 0.64999998 -0.055843662 4.6929794e-39 289 289
-0.034189999 0.64999998 -0.055843662 4.4181974e-39 290 289
-0.033050328 0.64999998 -0.055843662 4.78734e-39 291 289
-0.03186157 0.64899999 -0.05575775 5.9869482e-39 292 289
-0.030723657 0.64899999 -0.05575775 6.7248734e-39 293 289
-0.029585747 0.64899999 -0.05575775 7.3677064e-39 294 289
-0.028404001 0.648 -0.055671841 7.5517376e-39 295 289
-0.027099518 0.64399999 -0.055328183 7.6432143e-39 296 289
-0.025930047 0.64300001 -0.05524227 7.4588231e-39 297 289
-0.024802653 0.64300001 -0.05524227 7.5510159e-39 298 289
-0.023675259 0.64300001 -0.05524227 7.6435702e-39 299 289
-0.022582933 0.64399999 -0.055328183 7.7346841e-39 300 289
-0.021453787 0.64399999 -0.055328183 7.8268797e-39 301 289
-0.02032464 0.64399999 -0.055328183 7.8272356e-39 302 289
-0.019255107 0.64600003 -0.055500012 7.7346813e-39 303 289
-0.018122453 0.64600003 -0.055500012 6.7241279e-39 304 289
-0.016989801 0.64600003 -0.055500012 6.4475424e-39 305 289
-0.015390759 0.62699997 -0.053867657 5.4373491e-39 306 289
-0.01429142 0.62699997 -0.053867657 5.3451535e-39 307 289
-0.013612879 0.64700001 -0.055585928 5.3451563e-39 308 289
-0.012478473 0.64700001 -0.055585928 5.3451563e-39 309 289
-0.0113616 0.648 -0.055671841 5.8043394e-39 310 289
-0.010225439 0.648 -0.055671841 6.3575132e-39 311 289
-0.0090892799 0.648 -0.055671841 7.5531697e-39 312 289
-0.0079408465 0.64700001 -0.055585928 8.2907347e-39 313 289
-0.0068064397 0.64700001 -0.055585928 8.9357286e-39 314 289
-0.0056720334 0.64700001 -0.055585928 9.0279242e-39 315 289
-0.0045306133 0.64600003 -0.055500012 9.2101547e-39 316 289
-0.00339796 0.64600003 -0.055500012 8.7488164e-39 317 289
-0.0022653067 0.64600003 -0.055500012 8.377164e-39 318 289
-0.0011326533 0.64600003 -0.055500012 7.7317946e-39 319 289
0 0.64600003 -0.055500012 6.3535503e-39 320 289
0.0011326533 0.64600003 -0.055500012 6.3535503e-39 321 289
0.0022688133 0.64700001 -0.055585928 5.2518887e-39 322 289
0.0034032199 0.64700001 -0.055585928 5.3440843e-39 323 289
0.0045376266 0.64700001 -0.055585928 5.3440843e-39 324 289
0.0056720334 0.64700001 -0.055585928 5.5284756e-39 325 289
0.00679592 0.64600003 -0.055500012 5.8968923e-39 326 289
0.0079285735 0.64600003 -0.055500012 6.4500647e-39 327 289
0.0090752533 0.64700001 -0.055585928 7.3680568e-39 328 289
0.01020966 0.64700001 -0.055585928 7.5520879e-39 329 289
0.011344067 0.64700001 -0.055585928 7.7346813e-39 330 289
0.012478473 0.64700001 -0.055585928 7.7346813e-39 331 289
0.013612879 0.64700001 -0.055585928 7.5506487e-39 332 289
0.014770079 0.648 -0.055671841 7.5506487e-39 333 289
0.015906241 0.648 -0.055671841 7.3666204e-39 334 289
0.0170424 0.648 -0.055671841 7.4591762e-39 335 289
0.018234665 0.64999998 -0.055843662 7.4588203e-39 336 289
0.019374331 0.64999998 -0.055843662 7.4588203e-39 337 289
0.020513998 0.64999998 -0.055843662 7.7339652e-39 338 289
0.021653665 0.64999998 -0.055843662 7.9183565e-39 339 289
0.022863466 0.65200001 -0.056015491 7.736119e-39 340 289
0.024006641 0.65200001 -0.056015491 7.736119e-39 341 289
0.025188386 0.653 -0.056101404 8.1027463e-39 342 289
0.026292987 0.65200001 -0.056015491 8.1027463e-39 343 289
0.02743616 0.65200001 -0.056015491 8.1942231e-39 344 289
0.028666999 0.65399998 -0.056187313 8.1942231e-39 345 289
0.029859263 0.65499997 -0.056273226 7.9190753e-39 346 289
0.031007698 0.65499997 -0.056273226 7.8268797e-39 347 289
0.03225432 0.65700001 -0.056445058 7.550297e-39 348 289
0.033406258 0.65700001 -0.056445058 7.550297e-39 349 289
0.034610797 0.65799999 -0.056530971 7.4588231e-39 350 289
0.035764489 0.65799999 -0.056530971 7.4588231e-39 351 289
0.036974292 0.65899998 -0.056616884 7.2755108e-39 352 289
0.038303319 0.662 -0.056874625 7.2755108e-39 353 289
0.039464023 0.662 -0.056874625 6.9078129e-39 354 289
0.04062473 0.662 -0.056874625 6.7234216e-39 355 289
0.041911677 0.66399997 -0.057046451 6.5390346e-39 356 289
0.043205637 0.66600001 -0.057218276 6.7234244e-39 357 289
0.044506609 0.66799998 -0.057390101 7.1854788e-39 358 289
0.045882981 0.671 -0.057647847 7.8308482e-39 359 289
0.047129598 0.67199999 -0.057733759 8.1989076e-39 360 289
0.04830784 0.67199999 -0.057733759 8.0141576e-39 361 289
0.049486078 0.67199999 -0.057733759 7.7386526e-39 362 289
-0.068744689 0.676 -0.059262663 6.5419212e-39 262 290
-0.067559443 0.676 -0.059262663 8.0174101e-39 263 290
-0.066275999 0.67500001 -0.059175 8.9382845e-39 264 290
-0.065092497 0.67500001 -0.059175 9.4914583e-39 265 290
-0.063624956 0.67199999 -0.058911994 1.0227211e-38 266 290
-0.06235379 0.671 -0.058824331 1.0042461e-38 267 290
-0.061086133 0.67000002 -0.058736663 8.7488416e-39 268 290
-0.059374876 0.66399997 -0.05821066 8.1034722e-39 269 290
-0.05821066 0.66399997 -0.05821066 6.9106841e-39 270 290
-0.057218276 0.66600001 -0.058385998 6.9106841e-39 271 290
-0.056050558 0.66600001 -0.058385998 7.0028826e-39 272 290
-0.054718021 0.66399997 -0.05821066 7.1872752e-39 273 290
-0.053473156 0.66299999 -0.058122993 7.6457353e-39 274 290
-0.0522318 0.662 -0.058035329 7.7379309e-39 275 290
-0.050839648 0.65899998 -0.057772331 8.0130758e-39 276 290
-0.049382631 0.65499997 -0.057421666 8.0130758e-39 277 290
-0.048234195 0.65499997 -0.057421666 7.9215991e-39 278 290
-0.047013879 0.65399998 -0.057333998 7.9215991e-39 279 290
-0.045867197 0.65399998 -0.057333998 8.1963853e-39 280 290
-0.044583756 0.65200001 -0.057158668 8.1041897e-39 281 290
-0.043440588 0.65200001 -0.057158668 8.1041897e-39 282 290
-0.042297412 0.65200001 -0.057158668 7.919797e-39 283 290
-0.041154239 0.65200001 -0.057158668 7.5517376e-39 284 290
-0.040011063 0.65200001 -0.057158668 7.2755108e-39 285 290
-0.038867895 0.65200001 -0.057158668 6.8123803e-39 286 290
-0.037724718 0.65200001 -0.057158668 5.7978696e-39 287 290
-0.036469329 0.64999998 -0.056983333 5.061036e-39 288 290
-0.035329666 0.64999998 -0.056983333 4.6918934e-39 289 290
-0.034189999 0.64999998 -0.056983333 4.0501267e-39 290 290
-0.033050328 0.64999998 -0.056983333 4.5107461e-39 291 290
-0.031910665 0.64999998 -0.056983333 5.3433809e-39 292 290
-0.030770998 0.64999998 -0.056983333 5.8965546e-39 293 290
-0.029585747 0.64899999 -0.056895666 7.4584699e-39 294 290
-0.028404001 0.648 -0.056808002 7.6428612e-39 295 290
-0.027225759 0.64700001 -0.056720335 7.5517376e-39 296 290
-0.025930047 0.64300001 -0.056369666 7.5517376e-39 297 290
-0.024802653 0.64300001 -0.056369666 7.5517376e-39 298 290
-0.023675259 0.64300001 -0.056369666 7.5517376e-39 299 290
-0.022582933 0.64399999 -0.056457333 7.5517376e-39 300 290
-0.021453787 0.64399999 -0.056457333 7.5517376e-39 301 290
-0.02032464 0.64399999 -0.056457333 7.7346869e-39 302 290
-0.019255107 0.64600003 -0.056632672 7.7346869e-39 303 290
-0.018122453 0.64600003 -0.056632672 6.9078031e-39 304 290
-0.016989801 0.64600003 -0.056632672 6.6308575e-39 305 290
-0.015881693 0.64700001 -0.056720335 5.712141e-39 306 290
-0.014747286 0.64700001 -0.056720335 5.5277497e-39 307 290
-0.013612879 0.64700001 -0.056720335 5.160772e-39 308 290
-0.012478473 0.64700001 -0.056720335 5.160772e-39 309 290
-0.0113616 0.648 -0.056808002 5.7117906e-39 310 290
-0.010225439 0.648 -0.056808002 6.2649644e-39 311 290
-0.0090892799 0.648 -0.056808002 7.461337e-39 312 290
-0.0079408465 0.64700001 -0.056720335 8.2914564e-39 313 290
-0.0068064397 0.64700001 -0.056720335 8.8442588e-39 314 290
-0.0056720334 0.64700001 -0.056720335 9.1204856e-39 315 290
-0.0045306133 0.64600003 -0.056632672 9.2105204e-39 316 290
-0.00339796 0.64600003 -0.056632672 8.565151e-39 317 290
-0.0022653067 0.64600003 -0.056632672 8.4693624e-39 318 290
-0.0011326533 0.64600003 -0.056632672 7.7317974e-39 319 290
0 0.64600003 -0.056632672 6.1698793e-39 320 290
0.0011326533 0.64600003 -0.056632672 6.0776837e-39 321 290
0.0022688133 0.64700001 -0.056720335 5.2518859e-39 322 290
0.0034032199 0.64700001 -0.056720335 5.3444402e-39 323 290
0.0045376266 0.64700001 -0.056720335 5.160772e-39 324 290
0.0056720334 0.64700001 -0.056720335 5.4369988e-39 325 290
0.0068064397 0.64700001 -0.056720335 6.0802046e-39 326 290
0.0079408465 0.64700001 -0.056720335 6.5411814e-39 327 290
0.0090752533 0.64700001 -0.056720335 7.5520879e-39 328 290
0.01020966 0.64700001 -0.056720335 7.5520879e-39 329 290
0.0113616 0.648 -0.056808002 7.7350372e-39 330 290
0.01249776 0.648 -0.056808002 7.5510047e-39 331 290
0.01363392 0.648 -0.056808002 7.5510047e-39 332 290
0.014770079 0.648 -0.056808002 7.5510047e-39 333 290
0.015930785 0.64899999 -0.056895666 7.4584531e-39 334 290
0.017095 0.64999998 -0.056983333 7.5506487e-39 335 290
0.018290773 0.65200001 -0.057158668 7.3677036e-39 336 290
0.019433947 0.65200001 -0.057158668 7.3677036e-39 337 290
0.02057712 0.65200001 -0.057158668 7.7346841e-39 338 290
0.021720294 0.65200001 -0.057158668 7.8268797e-39 339 290
0.022898532 0.653 -0.057246335 7.8272356e-39 340 290
0.024043459 0.653 -0.057246335 7.9194313e-39 341 290
0.025188386 0.653 -0.057246335 8.1027435e-39 342 290
0.026333313 0.653 -0.057246335 8.1027435e-39 343 290
0.027520318 0.65399998 -0.057333998 7.9190753e-39 344 290
0.028710833 0.65499997 -0.057421666 7.8268797e-39 345 290
0.02995044 0.65700001 -0.057596996 7.8268825e-39 346 290
0.03110238 0.65700001 -0.057596996 7.7346869e-39 347 290
0.032303412 0.65799999 -0.057684667 7.3666232e-39 348 290
0.033507951 0.65899998 -0.057772331 7.3666232e-39 349 290
0.0347686 0.66100001 -0.057947662 7.1833138e-39 350 290
0.035927553 0.66100001 -0.057947662 7.1833138e-39 351 290
0.037198719 0.66299999 -0.058122993 7.0914783e-39 352 290
0.038419038 0.66399997 -0.05821066 6.9074471e-39 353 290
0.039583251 0.66399997 -0.05821066 6.7234216e-39 354 290
0.040870197 0.66600001 -0.058385998 6.5393905e-39 355 290
0.042101037 0.667 -0.058473662 6.1727688e-39 356 290
0.04327051 0.667 -0.058473662 6.5419114e-39 357 290
0.044706494 0.671 -0.058824331 7.4620671e-39 358 290
0.045882981 0.671 -0.058824331 7.9230438e-39 359 290
0.047129598 0.67199999 -0.058911994 7.7386526e-39 360 290
0.04830784 0.67199999 -0.058911994 7.7386526e-39 361 290
0.049486078 0.67199999 -0.058911994 7.2801953e-39 362 290
-0.068744689 0.676 -0.06044792 5.1629371e-39 262 291
-0.067559443 0.676 -0.06044792 6.1770876e-39 263 291
-0.066374183 0.676 -0.06044792 7.8344607e-39 264 291
-0.065188929 0.676 -0.06044792 8.9408083e-39 265 291
-0.063909002 0.67500001 -0.060358498 9.9513477e-39 266 291
-0.062632568 0.67400002 -0.06026908 9.9513477e-39 267 291
-0.061177302 0.671 -0.060000818 9.3020098e-39 268 291
-0.0599114 0.67000002 -0.0599114 8.3800535e-39 269 291
-0.058561329 0.66799998 -0.05973256 6.6344574e-39 270 291
-0.057304189 0.667 -0.059643134 6.8184885e-39 271 291
-0.056134716 0.667 -0.059643134 6.910331e-39 272 291
-0.054882839 0.66600001 -0.059553716 7.0028854e-39 273 291
-0.053553808 0.66399997 -0.059374876 7.8290475e-39 274 291
-0.052310698 0.66299999 -0.059285458 7.8290475e-39 275 291
-0.051071092 0.662 -0.05919604 7.8294006e-39 276 291
-0.049910385 0.662 -0.05919604 7.8294006e-39 277 291
-0.048528757 0.65899998 -0.058927774 7.6460842e-39 278 291
-0.04722954 0.65700001 -0.058748938 7.6460842e-39 279 291
-0.046077598 0.65700001 -0.058748938 8.1045442e-39 280 291
-0.044720516 0.65399998 -0.05848068 8.1045442e-39 281 291
-0.043573838 0.65399998 -0.05848068 8.1034694e-39 282 291
-0.042297412 0.65200001 -0.058301836 8.0112738e-39 283 291
-0.041154239 0.65200001 -0.058301836 7.7357659e-39 284 291
-0.040011063 0.65200001 -0.058301836 7.5510159e-39 285 291
-0.038867895 0.65200001 -0.058301836 6.6297855e-39 286 291
-0.037724718 0.65200001 -0.058301836 5.7078278e-39 287 291
-0.036581546 0.65200001 -0.058301836 4.6933297e-39 288 291
-0.035438374 0.65200001 -0.058301836 4.4163827e-39 289 291
-0.034189999 0.64999998 -0.058122993 3.774616e-39 290 291
-0.033050328 0.64999998 -0.058122993 4.1430398e-39 291 291
-0.031910665 0.64999998 -0.058122993 5.2490202e-39 292 291
-0.030770998 0.64999998 -0.058122993 6.1709779e-39 293 291
-0.029585747 0.64899999 -0.058033578 7.3662701e-39 294 291
-0.028447833 0.64899999 -0.058033578 7.5510215e-39 295 291
-0.02726784 0.648 -0.05794416 7.6435674e-39 296 291
-0.025930047 0.64300001 -0.057497058 7.6435674e-39 297 291
-0.024802653 0.64300001 -0.057497058 7.3680596e-39 298 291
-0.023675259 0.64300001 -0.057497058 7.5520907e-39 299 291
-0.022582933 0.64399999 -0.057586476 7.5510159e-39 300 291
-0.021520413 0.64600003 -0.057765324 7.5510159e-39 301 291
-0.020387759 0.64600003 -0.057765324 7.3680596e-39 302 291
-0.019255107 0.64600003 -0.057765324 7.3680596e-39 303 291
-0.018122453 0.64600003 -0.057765324 7.0918314e-39 304 291
-0.016989801 0.64600003 -0.057765324 6.6308547e-39 305 291
-0.015881693 0.64700001 -0.057854742 5.7124969e-39 306 291
-0.014747286 0.64700001 -0.057854742 5.5277469e-39 307 291
-0.013612879 0.64700001 -0.057854742 5.0685736e-39 308 291
-0.012478473 0.64700001 -0.057854742 5.0685736e-39 309 291
-0.0113616 0.648 -0.05794416 5.895456e-39 310 291
-0.010225439 0.648 -0.05794416 6.3567943e-39 311 291
-0.0090892799 0.648 -0.05794416 7.8297524e-39 312 291
-0.0079531204 0.648 -0.05794416 8.4751218e-39 313 291
-0.0068169599 0.648 -0.05794416 9.1201226e-39 314 291
-0.0056720334 0.64700001 -0.057854742 9.2123183e-39 315 291
-0.0045376266 0.64700001 -0.057854742 9.302716e-39 316 291
-0.00339796 0.64600003 -0.057765324 8.6573466e-39 317 291
-0.0022653067 0.64600003 -0.057765324 8.1945706e-39 318 291
-0.0011344067 0.64700001 -0.057854742 7.3648099e-39 319 291
0 0.64700001 -0.057854742 6.0787557e-39 320 291
0.0011344067 0.64700001 -0.057854742 5.8025289e-39 321 291
0.0022688133 0.64700001 -0.057854742 5.0685736e-39 322 291
0.0034032199 0.64700001 -0.057854742 5.0685736e-39 323 291
0.0045376266 0.64700001 -0.057854742 5.1607692e-39 324 291
0.0056720334 0.64700001 -0.057854742 5.3448004e-39 325 291
0.0068064397 0.64700001 -0.057854742 6.1720345e-39 326 291
0.0079408465 0.64700001 -0.057854742 6.6330112e-39 327 291
0.0090752533 0.64700001 -0.057854742 7.551369e-39 328 291
0.010225439 0.648 -0.05794416 7.551369e-39 329 291
0.011379133 0.64899999 -0.058033578 7.5506487e-39 330 291
0.012517046 0.64899999 -0.058033578 7.5506487e-39 331 291
0.013654959 0.64899999 -0.058033578 7.5506487e-39 332 291
0.014815666 0.64999998 -0.058122993 7.4584531e-39 333 291
0.015955333 0.64999998 -0.058122993 7.4584531e-39 334 291
0.017095 0.64999998 -0.058122993 7.5506487e-39 335 291
0.018290773 0.65200001 -0.058301836 7.5513718e-39 336 291
0.019433947 0.65200001 -0.058301836 7.4591762e-39 337 291
0.02057712 0.65200001 -0.058301836 7.5506529e-39 338 291
0.021753605 0.653 -0.058391262 7.7346841e-39 339 291
0.022933599 0.65399998 -0.05848068 7.6435646e-39 340 291
0.024080278 0.65399998 -0.05848068 7.6435646e-39 341 291
0.025226958 0.65399998 -0.05848068 7.736119e-39 342 291
0.026413966 0.65499997 -0.058570094 7.736119e-39 343 291
0.027646558 0.65700001 -0.058748938 7.9190753e-39 344 291
0.028798498 0.65700001 -0.058748938 7.8268797e-39 345 291
0.029996024 0.65799999 -0.058838356 7.3677036e-39 346 291
0.031197058 0.65899998 -0.058927774 7.275508e-39 347 291
0.032352503 0.65899998 -0.058927774 7.183311e-39 348 291
0.033609647 0.66100001 -0.059106622 7.183311e-39 349 291
0.034821201 0.662 -0.05919604 7.0911153e-39 350 291
0.035981905 0.662 -0.05919604 7.0911153e-39 351 291
0.037367038 0.66600001 -0.059553716 6.8159704e-39 352 291
0.03853476 0.66600001 -0.059553716 6.7237748e-39 353 291
0.039702479 0.66600001 -0.059553716 6.4475578e-39 354 291
0.040931564 0.667 -0.059643134 6.4475578e-39 355 291
0.042164158 0.66799998 -0.05973256 6.35716e-39 356 291
0.043335386 0.66799998 -0.05973256 6.9103338e-39 357 291
0.044639867 0.67000002 -0.0599114 7.5549816e-39 358 291
0.0458146 0.67000002 -0.0599114 7.5549816e-39 359 291
0.047059465 0.671 -0.060000818 7.6453821e-39 360 291
0.04830784 0.67199999 -0.060090236 7.8297734e-39 361 291
-0.068744689 0.676 -0.061633173 7.9270067e-39 262 292
-0.067559443 0.676 -0.061633173 6.4518766e-39 263 292
-0.066374183 0.676 -0.061633173 7.2816373e-39 264 292
-0.065188929 0.676 -0.061633173 8.4801805e-39 265 292
-0.063909002 0.67500001 -0.061542001 1.0043899e-38 266 292
-0.062632568 0.67400002 -0.061450824 1.0227932e-38 267 292
-0.061268479 0.67199999 -0.061268479 9.9480981e-39 268 292
-0.060090236 0.67199999 -0.061268479 8.8421106e-39 269 292
-0.058736663 0.67000002 -0.061086133 7.1851102e-39 270 292
-0.057390101 0.66799998 -0.060903784 7.0929146e-39 271 292
-0.056218877 0.66799998 -0.060903784 6.8181354e-39 272 292
-0.054882839 0.66600001 -0.060721438 6.910331e-39 273 292
-0.053715117 0.66600001 -0.060721438 7.095081e-39 274 292
-0.052389596 0.66399997 -0.060539093 7.187278e-39 275 292
-0.051225383 0.66399997 -0.060539093 7.4624174e-39 276 292
-0.049985778 0.66299999 -0.060447913 7.4624174e-39 277 292
-0.048749682 0.662 -0.060356744 7.6453653e-39 278 292
-0.047517084 0.66100001 -0.060265575 7.8293964e-39 279 292
-0.04614773 0.65799999 -0.059992049 7.8286804e-39 280 292
-0.04492566 0.65700001 -0.05990088 7.8286804e-39 281 292
-0.043640465 0.65499997 -0.059718527 7.8286804e-39 282 292
-0.04242716 0.65399998 -0.059627358 7.7364847e-39 283 292
-0.041217357 0.653 -0.059536185 7.736119e-39 284 292
-0.04007243 0.653 -0.059536185 7.551369e-39 285 292
-0.038927507 0.653 -0.059536185 7.4563021e-39 286 292
-0.03778258 0.653 -0.059536185 5.888975e-39 287 292
-0.036581546 0.65200001 -0.059445009 4.3256192e-39 288 292
-0.035438374 0.65200001 -0.059445009 4.2334236e-39 289 292
-0.034295198 0.65200001 -0.059445009 3.6824204e-39 290 292
-0.033050328 0.64999998 -0.059262663 4.0508442e-39 291 292
-0.031910665 0.64999998 -0.059262663 4.7902127e-39 292 292
-0.030770998 0.64999998 -0.059262663 5.4355821e-39 293 292
-0.029585747 0.64899999 -0.059171494 7.1833278e-39 294 292
-0.028447833 0.64899999 -0.059171494 7.2755234e-39 295 292
-0.027309919 0.64899999 -0.059171494 7.5520907e-39 296 292
-0.025970373 0.64399999 -0.058715623 7.3680596e-39 297 292
-0.024841227 0.64399999 -0.058715623 7.2762241e-39 298 292
-0.02371208 0.64399999 -0.058715623 7.2762241e-39 299 292
