# .PCD v0.7 - Point Cloud Data file format
VERSION 0.7
FIELDS x y z
SIZE 4 4 4
TYPE F F F
COUNT 1 1 1
WIDTH 166
HEIGHT 1
VIEWPOINT 0 0 0 1 0 0 0
POINTS 166
DATA ascii
1.5861785 2.4065318 -0.5152905
1.5861065 2.4076321 -0.50249714
1.6118737 2.4097042 -0.50045162
1.6266161 2.4103849 -0.49519807
1.6143129 2.4084187 -0.49271667
1.6264093 2.4107583 -0.48675933
1.5909849 2.4079764 -0.48378775
1.5924731 2.4054561 -0.47555766
1.617426 2.4069557 -0.47674212
1.6322799 2.4075158 -0.47536361
1.6445413 2.4098907 -0.4733555
1.6861925 2.4152298 -0.4721269
1.647871 2.4081283 -0.46545652
1.6713301 2.4140215 -0.465143
1.6319678 2.4080794 -0.46262556
1.6288325 2.4123409 -0.46163851
1.6859753 2.4156222 -0.46326205
1.6083432 2.4058671 -0.45809859
1.6476603 2.4085093 -0.45685035
1.6565342 2.4130034 -0.45828032
1.6893249 2.4139621 -0.4550162
1.6634178 2.4091661 -0.45085478
1.6336311 2.4118569 -0.45258641
1.6723423 2.4138222 -0.45223725
1.7162338 2.4191265 -0.45481813
1.6081924 2.4061944 -0.44837576
1.6757579 2.4138532 -0.44670895
1.6958421 2.4155407 -0.44715837
1.6498919 2.4076672 -0.44007716
1.6632042 2.4095519 -0.44213447
1.6384284 2.4113758 -0.44345814
1.7194843 2.4177372 -0.44176149
1.7222755 2.4192672 -0.44490415
1.7411354 2.4196773 -0.44349557
1.6754682 2.4125199 -0.43524724
1.6924543 2.4126995 -0.43778378
1.6806303 2.415144 -0.43988937
1.7448603 2.4212685 -0.43572944
1.754586 2.4225538 -0.43729505
1.666537 2.4078302 -0.43397024
1.6432247 2.410897 -0.43425375
1.7040433 2.4163413 -0.43498135
1.7164888 2.4183631 -0.43214151
1.7241657 2.4172297 -0.43305874
1.7337568 2.4204333 -0.43469283
1.6788077 2.4108324 -0.42696992
1.6935076 2.4125896 -0.42511243
1.6804712 2.4154894 -0.42963356
1.7347604 2.418931 -0.42596513
1.7561893 2.4189816 -0.42856154
1.7447052 2.4216554 -0.42745042
1.6991446 2.4093955 -0.42092684
1.6430699 2.4112332 -0.42427206
1.7090724 2.4139113 -0.4222337
1.7135653 2.4189632 -0.42355633
1.7237649 2.4168339 -0.42453903
1.7197884 2.4203463 -0.42474806
1.7672824 2.4240334 -0.42406884
1.7737997 2.4236712 -0.42202753
1.8280016 2.4285343 -0.42026314
1.6821456 2.4091473 -0.41863173
1.7253673 2.4162326 -0.41612548
1.7313921 2.419225 -0.41666222
1.7422827 2.4179235 -0.41570404
1.7819203 2.4198141 -0.41517407
1.7484288 2.4232495 -0.41961578
1.7971361 2.4264002 -0.41680196
1.6989245 2.4097931 -0.41194022
1.6960096 2.4137092 -0.41112575
1.7139727 2.414505 -0.41471761
1.7576448 2.4186397 -0.41471979
1.7553974 2.421092 -0.41215581
1.7725446 2.4205225 -0.41297841
1.7864128 2.423955 -0.41361022
1.8501924 2.4294426 -0.41379869
1.6675036 2.4078567 -0.40743375
1.7151908 2.4131451 -0.40631416
1.7321278 2.4167304 -0.40596044
1.7423612 2.4171884 -0.40567851
1.7731237 2.418282 -0.40573221
1.7864538 2.4228318 -0.40605941
1.799899 2.4235542 -0.40851933
1.8273277 2.4275301 -0.40698206
1.706749 2.4123626 -0.40204197
1.7238778 2.414423 -0.40325919
1.753124 2.4180973 -0.40360916
1.7644281 2.4168854 -0.40313381
1.7737386 2.4210801 -0.40250874
1.8432781 2.4248364 -0.40418077
1.8046911 2.4256454 -0.40449882
1.8180647 2.4277198 -0.40165213
1.8306332 2.4261951 -0.4029133
1.8500242 2.4298627 -0.40481198
1.841779 2.430074 -0.40028423
1.8830415 2.4329967 -0.40424097
1.9076121 2.4332345 -0.40115565
1.7459239 2.4145818 -0.39696297
1.7729647 2.418679 -0.39724013
1.7816004 2.4206128 -0.39808333
1.7953727 2.4228916 -0.39943442
1.8252252 2.4250221 -0.3960731
1.8431103 2.4252548 -0.39522448
1.8626269 2.4292049 -0.39701194
1.8498559 2.4302828 -0.39582527
1.883104 2.4328408 -0.39888978
1.7176727 2.4112787 -0.3935748
1.734304 2.4112296 -0.39497915
1.7537422 2.414418 -0.39438829
1.7656698 2.4156122 -0.39434874
1.7825258 2.4167588 -0.39395663
1.7951388 2.4197884 -0.39307222
1.8212701 2.4181502 -0.39327854
1.805904 2.4227681 -0.39415276
1.8120167 2.4225736 -0.39235991
1.8334287 2.4234459 -0.39433709
1.8556197 2.4244056 -0.39433199
1.8729429 2.4264417 -0.3934086
1.8975219 2.4280114 -0.3933796
1.9126139 2.4299662 -0.391078
1.9080429 2.4330044 -0.39437801
1.7387143 2.4122982 -0.38562509
1.7493052 2.4112883 -0.38660973
1.7578154 2.4129548 -0.38738942
1.7670882 2.4138792 -0.38824314
1.7727841 2.4145708 -0.38675383
1.8071163 2.4153004 -0.38501698
1.8217618 2.4184196 -0.38829798
1.8373352 2.4208608 -0.38783199
1.8459166 2.422539 -0.38652757
1.8556608 2.4244893 -0.38735938
1.8654563 2.4265499 -0.3881954
1.8759015 2.4253492 -0.38823581
1.8859566 2.4302473 -0.38994598
1.9129834 2.4306846 -0.38692904
1.9374015 2.4311118 -0.38917905
1.7219367 2.4094901 -0.38408574
1.7839975 2.4142807 -0.38408971
1.794548 2.4132736 -0.38383001
1.8169901 2.4173522 -0.38405743
1.8471034 2.4159389 -0.38261834
1.8640661 2.4198432 -0.38235822
1.8236328 2.4221601 -0.38461936
1.8818669 2.4224038 -0.38219917
1.9171734 2.4244676 -0.3831706
1.956238 2.4249504 -0.38297021
1.8982688 2.4252079 -0.38297483
1.9389639 2.4285767 -0.38489431
1.9727337 2.4274559 -0.38149461
1.7690834 2.4117584 -0.37996206
1.8419774 2.4147952 -0.37722987
1.829363 2.4161966 -0.37623844
1.9126704 2.4185731 -0.3776226
1.8720332 2.4200506 -0.37960678
1.9214344 2.4242229 -0.37557688
1.9426274 2.4253879 -0.37554228
1.9532042 2.4260957 -0.3780604
1.8743479 2.416405 -0.37181509
1.8916197 2.418169 -0.37453246
1.8954382 2.4212923 -0.37212908
1.909225 2.4200459 -0.37311438
1.9316888 2.4232333 -0.37474522
1.9964597 2.4246533 -0.37317234
1.9381654 2.4197931 -0.36780721
1.934571 2.4207444 -0.36534041
1.9623604 2.4204705 -0.36842608
2.0000541 2.4238207 -0.36962321
