# .PCD v0.7 - Point Cloud Data file format
VERSION 0.7
FIELDS x y z
SIZE 4 4 4
TYPE F F F
COUNT 1 1 1
WIDTH 473
HEIGHT 1
VIEWPOINT 0 0 0 1 0 0 0
POINTS 473
DATA ascii
2.6467946 2.3816152 -1.0188587
2.6537278 2.392452 -1.0193956
2.6538513 2.4097042 -1.016408
2.6485758 2.4317861 -1.0106711
2.6465349 2.3824177 -1.0060101
2.6534681 2.3932548 -1.006547
2.6535928 2.4105027 -1.0036278
2.6393418 2.3723836 -0.99262476
2.646275 2.3832204 -0.99316162
2.6532083 2.3940573 -0.99369854
2.6533346 2.4113011 -0.99084777
2.6576788 2.3549204 -0.9889726
2.6460152 2.3840232 -0.98031312
2.6529484 2.3948603 -0.98085004
2.6334157 2.4253109 -0.98043716
2.6503797 2.344738 -0.97538918
2.6530762 2.4120996 -0.9780677
2.6365368 2.2483771 -0.97062898
2.641211 2.264194 -0.96874142
2.6458139 2.2799323 -0.96684802
2.6447721 2.3681479 -0.96980977
2.6457558 2.3848259 -0.96746463
2.652689 2.3956628 -0.96800154
2.6528177 2.4128981 -0.96528763
2.6469567 2.3025551 -0.96241581
2.6513801 2.3180964 -0.96050817
2.624258 2.4308996 -0.96268106
2.6363859 2.249378 -0.95878643
2.6410608 2.2651906 -0.95695198
2.6456642 2.2809243 -0.95511186
2.6527662 2.3394599 -0.95641845
2.6375451 2.3580661 -0.95636088
2.6524291 2.3964658 -0.95515299
2.6468086 2.3035378 -0.95078576
2.6575146 2.3538322 -0.95485997
2.6385627 2.3747916 -0.95407921
2.6581659 2.3759148 -0.95038831
2.6454959 2.3856287 -0.95461613
2.6525595 2.4136965 -0.95250756
2.6409106 2.266187 -0.94516265
2.6482983 2.3250055 -0.94680309
2.6431987 2.3529878 -0.94620949
2.6501975 2.3639271 -0.94675148
2.6170461 2.2399788 -0.94325167
2.625001 2.2487147 -0.94388866
2.632956 2.2574508 -0.94452566
2.6455147 2.2819161 -0.94337559
2.6526198 2.3404298 -0.94494027
2.6573689 2.3547986 -0.94342732
2.6512163 2.3806491 -0.94453049
2.6360841 2.2513797 -0.93510133
2.6440749 2.2601552 -0.93574119
2.6466603 2.3045208 -0.93915582
2.6545076 2.3131387 -0.93978417
2.6580215 2.3768721 -0.939062
2.6454048 2.4037158 -0.93919337
2.6523013 2.414495 -0.93972737
2.6280935 2.2426043 -0.93446147
2.6487155 2.2759194 -0.93401027
2.6359377 2.3428583 -0.9326973
2.6524737 2.3414001 -0.93346208
2.6429367 2.3537979 -0.93323928
2.6572232 2.3557649 -0.93199468
2.6499352 2.3647375 -0.93378133
2.6614072 2.371033 -0.93017405
2.6509552 2.3814557 -0.93162113
2.6498983 2.2985544 -0.92989957
2.6543593 2.3141217 -0.92815429
2.6451466 2.4045143 -0.9264133
2.6247005 2.2507074 -0.9203099
2.6359334 2.2523804 -0.92325884
2.643924 2.2611561 -0.9238987
2.6485653 2.2769158 -0.92222083
2.6422896 2.3369992 -0.92268991
2.6557851 2.3354993 -0.92436349
2.6493254 2.3479962 -0.92323476
2.6570778 2.3567309 -0.92056215
2.6647918 2.3652029 -0.92117983
2.6263678 2.4150281 -0.92293423
2.6459982 2.4209695 -0.92424017
2.6087909 2.2332354 -0.91903591
2.6167457 2.2419715 -0.91967291
2.646364 2.3064866 -0.91589582
2.6542113 2.3151045 -0.91652423
2.6437283 2.3713741 -0.91817242
2.6447167 2.3880367 -0.91607052
2.619801 2.2358303 -0.91013658
2.6357825 2.2533813 -0.91141629
2.6437731 2.262157 -0.91205615
2.6484151 2.2779121 -0.91043139
2.6586015 2.3305888 -0.91482621
2.6599262 2.3518457 -0.91112602
2.6448884 2.4053128 -0.91363323
2.645741 2.4217641 -0.9115209
2.6086407 2.2342317 -0.90724647
2.6245503 2.2517037 -0.90852046
2.6496005 2.3005292 -0.90653336
2.6349902 2.3268166 -0.90910655
2.6420259 2.3378139 -0.9096514
2.6424122 2.3554187 -0.90729898
2.649411 2.3663583 -0.90784097
2.626101 2.4156942 -0.90868181
2.5975521 2.2327116 -0.90436214
2.6436224 2.2631578 -0.9002136
2.6540632 2.3160875 -0.90489429
2.6554914 2.3374486 -0.90130091
2.6444569 2.3888397 -0.90322202
2.64463 2.4061112 -0.9008531
2.651526 2.4168904 -0.90138716
2.6084905 2.2352281 -0.89545703
2.6196501 2.2368312 -0.89829403
2.6276407 2.2456069 -0.89893389
2.6356316 2.2543821 -0.89957374
2.6482649 2.2789087 -0.89864194
2.633502 2.3106103 -0.89802998
2.6347268 2.327631 -0.89606792
2.6417625 2.3386283 -0.89661276
2.6286733 2.3983698 -0.89705414
2.634686 2.4113863 -0.89754993
2.6005354 2.2264919 -0.89482009
2.6494517 2.3015165 -0.89485025
2.6539149 2.3170705 -0.89326429
2.6421499 2.3562288 -0.89432877
2.6432066 2.372987 -0.89235371
2.6441972 2.3896422 -0.89037353
2.631815 2.4293077 -0.89492255
2.5863862 2.2322578 -0.88980031
2.6194992 2.2378321 -0.88645154
2.62749 2.2466078 -0.8870914
2.6354806 2.255383 -0.88773125
2.6401596 2.2711687 -0.88621557
2.6326675 2.29355 -0.88713235
2.6518888 2.3452804 -0.88754952
2.6443715 2.4069097 -0.88807303
2.645227 2.4233537 -0.88608223
2.589334 2.2259986 -0.88025552
2.6003852 2.2274885 -0.88303065
2.6083403 2.2362244 -0.88366765
2.6191001 2.2893314 -0.88383585
2.644767 2.2868757 -0.88469434
2.6459193 2.3094354 -0.881006
2.6332371 2.3114285 -0.88493067
2.6537666 2.3180532 -0.88163435
2.6344633 2.3284457 -0.88302934
2.641499 2.339443 -0.88357419
2.6418877 2.3570395 -0.88135868
2.6223927 2.386023 -0.8822298
2.6255674 2.4170265 -0.88017702
2.570471 2.2159305 -0.87685466
2.5814149 2.2173018 -0.87962139
2.6273391 2.2476087 -0.87524885
2.6386049 2.2493389 -0.8779881
2.6310384 2.2582774 -0.87821364
2.6317568 2.2763829 -0.8760919
2.6388993 2.2875466 -0.87664503
2.6551976 2.3393977 -0.87823832
2.6429455 2.3737936 -0.87944436
2.6439376 2.3904452 -0.87752503
2.6195867 2.404079 -0.87968379
2.5922804 2.2197485 -0.87060434
2.600235 2.2284846 -0.87124133
2.6153529 2.2344453 -0.87428904
2.6400094 2.2721653 -0.87442625
2.6446176 2.2878675 -0.87295794
2.6329722 2.3122468 -0.87183124
2.6536186 2.3190362 -0.87000436
2.6412354 2.3402576 -0.87053561
2.6317878 2.3810771 -0.87116069
2.6381063 2.4134202 -0.87283152
2.5604606 2.1848044 -0.86805642
2.570322 2.216918 -0.86517155
2.5782053 2.2255754 -0.86580282
2.6457713 2.3104184 -0.86937594
2.6341996 2.3292603 -0.86999077
2.6357186 2.3637118 -0.86599559
2.6193199 2.4047451 -0.86543137
2.562439 2.2082608 -0.86454034
2.615202 2.2354462 -0.86244655
2.6253891 2.2482483 -0.86387968
2.6329741 2.2582469 -0.86447757
2.6356742 2.2751856 -0.86274624
2.6367445 2.3804109 -0.86413956
2.6378493 2.4142148 -0.86011219
2.6164515 2.4226596 -0.86295617
2.5921302 2.2207451 -0.85881495
2.6000848 2.2294812 -0.85945189
2.6411219 2.2958217 -0.85916966
2.625639 2.3020167 -0.85818446
2.6327076 2.3130655 -0.85873181
2.642241 2.3183236 -0.85569108
2.6339359 2.3300748 -0.85695219
2.6309857 2.403487 -0.8595807
2.5494397 2.1844988 -0.85361236
2.5573587 2.1931956 -0.8542465
2.5622902 2.2092481 -0.85285723
2.5671501 2.2252216 -0.85146224
2.5780566 2.2265627 -0.85411972
2.6135988 2.2347782 -0.85038823
2.6190467 2.2408347 -0.8509239
2.6251793 2.2491643 -0.85130608
2.6327643 2.2591629 -0.85190398
2.639709 2.274158 -0.85084748
2.6343646 2.3477206 -0.8548764
2.6354575 2.3645182 -0.85308617
2.6158435 2.374346 -0.85307699
2.6364849 2.3812137 -0.85129106
2.6218562 2.3873625 -0.85357279
2.6190531 2.4054112 -0.85117894
2.59198 2.2217414 -0.84702557
2.5999346 2.2304776 -0.84766257
2.6312218 2.2780368 -0.84961939
2.6409731 2.296809 -0.84748656
2.6253743 2.3028352 -0.84508502
2.6367002 2.3985257 -0.84919864
2.6435966 2.4093051 -0.84973264
2.6161861 2.4233222 -0.84877986
2.6477485 2.4228828 -0.84617889
2.533452 2.1680975 -0.84060788
2.5413711 2.1767941 -0.84124202
2.5542583 2.2015781 -0.84054291
2.5651283 2.2028842 -0.84314436
2.5700245 2.2188928 -0.84180534
2.5809662 2.2202778 -0.84441257
2.5963418 2.2404866 -0.84487748
2.6348772 2.2593865 -0.84036106
2.6428678 2.2681623 -0.84100091
2.6266367 2.3198922 -0.84336877
2.6336725 2.3308895 -0.84391361
2.6131051 2.3431468 -0.84084004
2.6341023 2.3485308 -0.84190619
2.6191528 2.3562393 -0.84133881
2.6312799 2.411468 -0.84231257
2.546375 2.1929207 -0.83991164
2.5918298 2.2227378 -0.83523613
2.5997844 2.2314739 -0.83587313
2.6158729 2.238328 -0.83718771
2.6077394 2.2402101 -0.83651006
2.6188955 2.2418356 -0.83908135
2.6268864 2.2506113 -0.8397212
2.6166694 2.256536 -0.83527684
2.6302316 2.2607713 -0.83829963
2.629292 2.3711796 -0.83790565
2.6155753 2.3750157 -0.83874846
2.6128056 2.3931303 -0.83643335
2.6187863 2.4060774 -0.83692652
2.5698757 2.2198801 -0.83012223
2.5808167 2.2212696 -0.83267629
2.6023846 2.2342081 -0.83417064
2.6153851 2.292789 -0.83103991
2.6263733 2.3207068 -0.83033019
2.6236081 2.3943484 -0.83361071
2.6304717 2.4050763 -0.83414221
2.6159208 2.4239848 -0.83460355
2.6473639 2.4235773 -0.83048093
2.5304599 2.1765935 -0.82696605
2.538343 2.1852508 -0.82759732
2.5433116 2.2013335 -0.82631719
2.5511589 2.2099516 -0.8269456
2.5590062 2.2185695 -0.82757396
2.5630517 2.2217317 -0.82542652
2.5756297 2.2263138 -0.82815385
2.610754 2.2340612 -0.82659894
2.5826981 2.2373624 -0.82870126
2.6187449 2.2428365 -0.8272388
2.6267354 2.2516122 -0.82787865
2.6193376 2.3097095 -0.82978535
2.6093609 2.3121951 -0.82815206
2.6154406 2.3253567 -0.8286534
2.6268415 2.3384016 -0.828394
2.6128352 2.3438203 -0.82642788
2.6290324 2.3719821 -0.82505709
2.6260674 2.3973069 -0.82616699
2.6425054 2.408639 -0.82993913
2.5197697 2.1754799 -0.82443213
2.5806673 2.2222614 -0.82094014
2.5916796 2.2237344 -0.82344675
2.5996342 2.2324705 -0.82408369
2.6164017 2.2573628 -0.82204068
2.6235442 2.2685268 -0.82259375
2.6242313 2.2865572 -0.82074291
2.6092944 2.3626688 -0.82392406
2.6220992 2.3611453 -0.82452017
2.6065581 2.3808489 -0.82168776
2.6125388 2.3937964 -0.82218093
2.5815985 2.2199197 -0.8174414
2.5667055 2.2281704 -0.81657231
2.5887041 2.2310257 -0.81799161
2.5958095 2.2421322 -0.81854188
2.6029148 2.2532382 -0.81909215
2.6063418 2.2804165 -0.81556535
2.6190739 2.3105242 -0.81674671
2.6261096 2.3215213 -0.81729156
2.6515467 2.3566504 -0.81914103
2.617415 2.4009423 -0.81867844
2.6097066 2.4117692 -0.81993663
2.5196214 2.1764627 -0.81280208
2.5246267 2.1925802 -0.81157804
2.5353162 2.1936984 -0.81405884
2.5402496 2.2097373 -0.81282908
2.5480611 2.2183158 -0.81345457
2.5573053 2.2155507 -0.8138935
2.5682962 2.2160838 -0.81450701
2.5915294 2.2247305 -0.81165731
2.6026125 2.2262864 -0.81411654
2.6106031 2.2350621 -0.81475639
2.6153939 2.2509389 -0.81356823
2.5908506 2.2733872 -0.81215966
2.6030099 2.2997108 -0.81316233
2.6149063 2.3511109 -0.81113476
2.6218395 2.361948 -0.81167167
2.6324036 2.3794563 -0.81315708
2.625685 2.3979976 -0.81056035
2.6421208 2.4093335 -0.81424093
2.6469793 2.4242718 -0.81478286
2.516253 2.181838 -0.80518746
2.5371509 2.2145026 -0.80680585
2.5695779 2.2218549 -0.80675602
2.5774612 2.2305124 -0.80738723
2.5955434 2.2429547 -0.80537397
2.5549126 2.2461901 -0.80513322
2.6026487 2.254061 -0.80592424
2.5609252 2.2592065 -0.80562901
2.5762789 2.2659388 -0.80902326
2.6097541 2.2651672 -0.80647445
2.5909884 2.3242891 -0.80810809
2.5970008 2.3373055 -0.80860394
2.6030135 2.350322 -0.80909979
2.6003106 2.3685677 -0.80694211
2.6221328 2.3793628 -0.80979031
2.6034925 2.3995535 -0.80526978
2.6094413 2.4124317 -0.80576032
2.5244792 2.1935587 -0.80000126
2.524775 2.2102308 -0.80415493
2.5440078 2.2150049 -0.80156499
2.5587099 2.2205353 -0.80431402
2.5750999 2.2279506 -0.80195498
2.5884378 2.2318482 -0.80482376
2.5993338 2.2344632 -0.80050492
2.6104426 2.2831933 -0.80469197
2.6117744 2.3003416 -0.80316329
2.6123195 2.3181431 -0.80136973
2.5975437 2.3866751 -0.80477917
2.5166678 2.1849799 -0.79937571
2.5298243 2.2085278 -0.79908198
2.5554886 2.2123637 -0.79880446
2.5625243 2.223361 -0.79934931
2.580368 2.2242451 -0.79746759
2.5913792 2.2257271 -0.79986799
2.5844996 2.2609029 -0.79717004
2.5820568 2.2797048 -0.79510987
2.5881045 2.2927973 -0.79560858
2.5941525 2.3058898 -0.79610729
2.6135159 2.3350797 -0.7998305
2.6080818 2.3586028 -0.79594207
2.6149781 2.3693819 -0.79647613
2.6218743 2.3801613 -0.79701018
2.6417363 2.410028 -0.79854298
2.5245152 2.2110338 -0.79130638
2.53689 2.2153091 -0.79389656
2.547766 2.2202728 -0.79030091
2.5585618 2.2215183 -0.79268396
2.5664091 2.2301362 -0.79331231
2.5699613 2.2535198 -0.79411244
2.6023827 2.2548838 -0.79275644
2.609488 2.2659898 -0.79330671
2.610178 2.2840118 -0.7915926
2.5821016 2.3303919 -0.79121006
2.5880823 2.343339 -0.79170322
2.594063 2.3562865 -0.79219645
2.6000438 2.3692338 -0.79268962
2.5972784 2.3873377 -0.79060292
2.6089253 2.387522 -0.79137063
2.6137273 2.4022865 -0.79190624
2.4992952 2.2036295 -0.78588569
2.515295 2.208071 -0.78682339
2.5268009 2.2169538 -0.78580159
2.5374582 2.2180471 -0.78817374
2.5802186 2.2252371 -0.78573132
2.5692966 2.2351727 -0.78685552
2.5819037 2.2398176 -0.78940308
2.5462174 2.2527075 -0.78825092
2.5889721 2.2508659 -0.78995043
2.6050587 2.3080139 -0.78785759
2.6062889 2.3249981 -0.78638166
2.594449 2.4053035 -0.7885108
2.5915561 2.4231308 -0.78641349
2.4818115 2.2064347 -0.78126806
2.549068 2.2204976 -0.78352165
2.5584135 2.2225013 -0.78105408
2.5657706 2.2240026 -0.78485024
2.5757394 2.2672858 -0.78019893
2.5903082 2.2747416 -0.78318304
2.5878348 2.2934709 -0.78119636
2.6074536 2.3418796 -0.78490078
2.6078234 2.3594012 -0.78316194
2.6147199 2.3701804 -0.783696
2.4697363 2.2026274 -0.77870119
2.5181723 2.2192714 -0.77621931
2.5373113 2.2190218 -0.77664244
2.5311887 2.2226734 -0.7789948
2.5816388 2.2406361 -0.77630365
2.5887074 2.2516847 -0.776851
2.5957761 2.262733 -0.77739841
2.6028447 2.2737818 -0.77794576
2.6042118 2.2909737 -0.77654129
2.5758541 2.3181105 -0.77646446
2.5818348 2.331058 -0.77695763
2.5878155 2.3440051 -0.7774508
2.5937963 2.3569527 -0.77794403
2.5910642 2.3751221 -0.77593601
2.5150928 2.2089553 -0.77469432
2.4478934 2.211802 -0.77231812
2.5266547 2.2179236 -0.77432346
2.5482121 2.2212796 -0.77463776
2.5558047 2.2322476 -0.77109349
2.5628033 2.2431872 -0.77163547
2.6047964 2.3088243 -0.77488744
2.6060278 2.3258047 -0.77347237
2.5795236 2.3983061 -0.77141869
2.6017745 2.4065676 -0.77343482
2.6065483 2.4212456 -0.77396727
2.4360113 2.2082961 -0.76976609
2.419663 2.2109928 -0.76544034
2.4762478 2.2139847 -0.76668823
2.5239959 2.2126393 -0.76560932
2.5504181 2.2148662 -0.76879573
2.4883547 2.2178473 -0.76919687
2.5371642 2.2199965 -0.76511115
2.5309291 2.2234759 -0.76614624
2.5815172 2.2810521 -0.76628536
2.5875649 2.2941446 -0.76678407
2.6006689 2.3494205 -0.76984775
2.576632 2.4161301 -0.7693975
2.4020364 2.1966248 -0.76264757
2.4085841 2.2068591 -0.76315463
2.5110178 2.2092905 -0.76290512
2.4642067 2.2102246 -0.76418471
2.5163295 2.2168016 -0.76081955
2.5240436 2.2252731 -0.76143724
2.5758052 2.2477992 -0.76132321
2.5828409 2.2587965 -0.76186812
2.595511 2.2635515 -0.76429898
2.5905366 2.2877555 -0.76083326
2.5755873 2.3187766 -0.7622121
2.581568 2.3317242 -0.76270527
2.5789013 2.3500283 -0.76077855
2.4357624 2.2090645 -0.75746495
2.4813023 2.208009 -0.75607288
2.4476435 2.2125745 -0.75995624
2.4881001 2.2186344 -0.75659931
2.5430732 2.2286172 -0.75570798
2.5500388 2.2395053 -0.7562474
2.5625412 2.2439976 -0.75866526
2.5861347 2.3109741 -0.75759304
2.5761707 2.3681941 -0.75884652
2.5733762 2.3862216 -0.75690931
2.5763707 2.4167819 -0.75544941
2.4083388 2.207617 -0.75102073
2.4194169 2.2117543 -0.75325334
2.4639547 2.2110043 -0.75170863
2.5107594 2.210089 -0.75012505
2.5176556 2.2208683 -0.75065911
2.5306692 2.2242787 -0.75329775
2.5705178 2.4041111 -0.7549668
2.435514 2.2098331 -0.7451638
2.4473937 2.213347 -0.74759424
2.5726871 2.3378124 -0.74611163
2.5786359 2.3506908 -0.74660218
2.4878454 2.2194214 -0.74400163
2.5672288 2.3741372 -0.74239993
2.5644038 2.3920922 -0.74053609
2.5702567 2.404763 -0.74101877
2.4704347 2.2223063 -0.73975402
