# .PCD v0.7 - Point Cloud Data file format
VERSION 0.7
FIELDS x y z
SIZE 4 4 4
TYPE F F F
COUNT 1 1 1
WIDTH 144
HEIGHT 1
VIEWPOINT 0 0 0 1 0 0 0
POINTS 144
DATA ascii
1.2945712 1.0910325 -0.73707104
1.2936926 1.1017101 -0.7374388
1.3041875 1.0470337 -0.72745335
1.3033054 1.0577569 -0.72782278
1.302423 1.06848 -0.72819209
1.3015409 1.0792031 -0.7285614
1.3006587 1.0899262 -0.72893071
1.2997763 1.1006494 -0.72930014
1.3058903 1.0259529 -0.71595538
1.3050079 1.036676 -0.71632469
1.3041258 1.0473992 -0.716694
1.3032436 1.0581224 -0.71706343
1.3023612 1.0688455 -0.71743274
1.3014791 1.0795686 -0.71780205
1.30418 1.082612 -0.71989161
1.3048002 1.0920682 -0.71500409
1.3032949 1.0759969 -0.70777929
1.3075929 1.0048721 -0.7044574
1.3099998 1.0832483 -0.7004137
1.3047082 1.0924408 -0.70410806
1.3128233 1.0141765 -0.69649279
1.3119373 1.0249451 -0.69686365
1.3136473 1.0037749 -0.6853168
1.3127613 1.0145435 -0.68568778
1.3118753 1.0253122 -0.68605864
1.3145332 0.99300623 -0.68494594
1.3139685 1.0727603 -0.68467581
1.3206525 0.99150097 -0.67647183
1.3197629 1.0023153 -0.67684436
1.3188732 1.0131295 -0.67721677
1.3131113 1.0510792 -0.67717707
1.3154613 1.198284 -0.67100888
1.3131709 1.2205052 -0.6718365
1.3120258 1.2316159 -0.67225027
1.3205903 0.99186963 -0.66562116
1.3197005 1.0026839 -0.66599357
1.3188107 1.0134981 -0.6663661
1.3224335 1.0181419 -0.66732281
1.3213104 1.0291636 -0.66771477
1.3201873 1.0401852 -0.66810673
1.3190643 1.0512069 -0.66849864
1.3179413 1.0622287 -0.6688906
1.3168182 1.0732504 -0.6692825
1.3159047 1.2447478 -0.66203314
1.3256803 0.9854582 -0.65506864
1.3225424 0.99435908 -0.65511549
1.3234341 1.0075016 -0.6558525
1.322311 1.0185233 -0.6562444
1.321188 1.0295451 -0.65663636
1.3200649 1.0405668 -0.65702826
1.3209659 1.1431241 -0.65777189
1.3241253 1.0535753 -0.65212637
1.320959 1.2003266 -0.65098423
1.3198091 1.2114825 -0.65139973
1.3186593 1.2226386 -0.65181518
1.3175094 1.2337947 -0.65223068
1.3171015 1.2528969 -0.65297633
1.3284333 0.96901977 -0.64536548
1.3275399 0.9798795 -0.64573956
1.3266463 0.99073923 -0.64611351
1.3207448 1.1435173 -0.64660382
1.3293269 0.95816004 -0.6449914
1.3315367 0.98570108 -0.63511932
1.3304089 0.99676818 -0.63551283
1.3264861 1.144941 -0.63769305
1.3253362 1.1560971 -0.63810855
1.3241864 1.1672531 -0.63852406
1.3230366 1.1784091 -0.6389395
1.3292642 0.95853019 -0.63409507
1.333792 0.96356666 -0.63433218
1.3283706 0.96938998 -0.63446903
1.3326644 0.97463381 -0.63472575
1.3285397 1.066136 -0.63253921
1.3262494 1.0883572 -0.63336676
1.3233596 1.2552156 -0.63376111
1.3353927 0.95689929 -0.62529635
1.3297136 1.1118675 -0.62523293
1.3285638 1.1230236 -0.62564844
1.3325415 0.97501689 -0.62360162
1.3314137 0.9860841 -0.62399518
1.3331631 1.0783993 -0.62398648
1.3320132 1.0895554 -0.62440193
1.3308635 1.1007115 -0.62481743
1.3266386 1.2804077 -0.62394476
1.3256676 1.2914873 -0.62440032
1.3362272 0.94636571 -0.61397868
1.33533 0.95727098 -0.61435431
1.3398402 1.0118577 -0.61027974
1.3386904 1.0230137 -0.61069524
1.3375405 1.0341698 -0.61111075
1.3363907 1.0453259 -0.61152625
1.3352408 1.056482 -0.6119417
1.3340911 1.067638 -0.6123572
1.3385497 1.0912879 -0.60443819
1.3354795 1.1231337 -0.60362589
1.3396181 1.0122524 -0.59906602
1.3384683 1.0234085 -0.59948152
1.3422959 0.94506717 -0.59405363
1.3455172 0.96388948 -0.59387887
1.3441032 1.035639 -0.59108388
1.3399736 1.1350977 -0.59320021
1.3470681 0.97751367 -0.58602828
1.3484268 0.94340003 -0.5849793
1.3453933 0.96427566 -0.58266324
1.3496567 0.97999024 -0.57772958
1.3485014 0.99119937 -0.57814705
1.3473461 1.0024084 -0.57856452
1.3461908 1.0136175 -0.578982
1.3450354 1.0248265 -0.57939947
1.3438802 1.0360357 -0.57981694
1.3439975 1.1400863 -0.5756259
1.3430226 1.1512114 -0.5760833
1.3483634 0.94377488 -0.57394588
1.3508323 1.0316243 -0.57041538
1.3502821 1.0423698 -0.57077688
1.3491814 1.0638609 -0.57149994
1.3486311 1.0746064 -0.57186145
1.3465509 1.0836942 -0.57220793
1.3475305 1.0960977 -0.57258445
1.3448406 1.1056943 -0.57298857
1.3464298 1.1175888 -0.57330751
1.3458796 1.1283343 -0.57366902
1.3453292 1.1390799 -0.57403052
1.3494335 0.98038691 -0.56646258
1.3563104 0.92002863 -0.56397384
1.355402 0.93107051 -0.56435418
1.3545241 0.9420191 -0.56318402
1.354077 0.99239826 -0.55752695
1.3553383 0.93144685 -0.55327499
1.35443 0.94240129 -0.55201006
1.3542713 0.96731269 -0.55392534
1.3551013 1.0567383 -0.55177379
1.3545487 1.0675294 -0.55213684
1.353996 1.0783207 -0.55249989
1.3534434 1.0891118 -0.55286294
1.356173 0.97028744 -0.54537594
1.3604209 0.94201422 -0.54088593
1.3619784 0.97100371 -0.53588235
1.3596491 0.99360365 -0.53672403
1.3644849 0.93026853 -0.53185701
1.3582555 1.0739533 -0.53039837
1.3651335 0.9534108 -0.52035743
1.3688686 0.98487139 -0.51389933
1.3663499 1.0098332 -0.51294643
