# .PCD v0.7 - Point Cloud Data file format
VERSION 0.7
FIELDS x y z
SIZE 4 4 4
TYPE F F F
COUNT 1 1 1
WIDTH 119
HEIGHT 1
VIEWPOINT 0 0 0 1 0 0 0
POINTS 119
DATA ascii
2.7604117 2.4882355 -1.0894856
2.7326009 2.4901588 -1.0888586
2.6990874 2.4849465 -1.0814724
2.7240541 2.489419 -1.0758405
2.8532271 2.4971285 -1.076798
2.6411462 2.4817865 -1.073931
2.6902211 2.4845378 -1.0736679
2.760133 2.4889319 -1.0745864
2.7322068 2.4908705 -1.0727725
2.6649201 2.4860508 -1.0684175
2.7863109 2.4936707 -1.0686326
2.6897252 2.4901528 -1.0630081
2.8135443 2.4983053 -1.0627313
2.8489532 2.4983497 -1.0643739
2.7146583 2.4945602 -1.0572898
2.7497869 2.4944506 -1.0554752
2.8418429 2.502857 -1.0568607
2.6770413 2.4885464 -1.0529629
2.6555941 2.4913154 -1.0501918
2.775928 2.4991174 -1.0494347
2.8132589 2.4990177 -1.0474896
2.8485389 2.4990978 -1.0474583
2.8526464 2.498579 -1.0457668
2.6794569 2.4958048 -1.0443058
2.7143853 2.4952414 -1.0427179
2.7495096 2.4951429 -1.0406597
2.7883785 2.4956417 -1.0438968
2.6766565 2.4892409 -1.0372648
2.6553288 2.4919779 -1.0360155
2.7756476 2.4998176 -1.0344518
2.8129737 2.4997299 -1.032248
2.8523557 2.4993041 -1.0302511
2.6791885 2.4964745 -1.0299773
2.7141125 2.4959223 -1.0281458
2.7492321 2.4958355 -1.0258441
2.7854648 2.4957833 -1.0234327
2.6460071 2.4972317 -1.018018
2.6789203 2.4971442 -1.0156488
2.8126884 2.5004423 -1.0170064
2.704464 2.5105553 -1.0183376
2.7138398 2.4966035 -1.0135739
2.7489548 2.4965279 -1.0110286
2.8520653 2.5000293 -1.0147357
2.6457431 2.4978909 -1.0039177
2.6548424 2.4956899 -1.0024297
2.6217804 2.4943953 -0.99594486
2.713567 2.4972847 -0.99900186
2.6931751 2.5030651 -0.99522829
2.7386165 2.502027 -0.99233598
2.6737773 2.5126102 -0.99081969
2.636426 2.503134 -0.98614854
2.6692998 2.502995 -0.98339629
2.7476602 2.5073535 -0.98113239
2.7383406 2.5027156 -0.97760415
2.6799767 2.5069575 -0.97501469
2.694154 2.507287 -0.97703338
2.7644327 2.5073414 -0.97080743
2.6271114 2.5083702 -0.96853143
2.6599507 2.5081692 -0.96562439
2.6938841 2.5079608 -0.96262115
2.6795921 2.507652 -0.95931661
2.7280071 2.508203 -0.95916253
2.6732347 2.5137887 -0.9558419
2.7215896 2.514251 -0.95650268
2.6268501 2.509022 -0.95458341
2.6596854 2.5088317 -0.95144802
2.7540624 2.5127568 -0.95227921
2.6936142 2.5086343 -0.94820899
2.7277329 2.5088878 -0.94451439
2.7211978 2.5149581 -0.94051552
2.6184449 2.5137901 -0.93753874
2.6673863 2.5112865 -0.93972421
2.6759686 2.5316105 -0.93888694
2.6535447 2.5145693 -0.93369794
2.6833236 2.514179 -0.93017364
2.718318 2.5139277 -0.92664599
2.618185 2.5144386 -0.92365915
2.6670039 2.5119772 -0.92411733
2.7208064 2.5156655 -0.92452824
2.6532779 2.5151911 -0.91796434
2.718045 2.5146089 -0.91207397
2.6739466 2.5192733 -0.91262734
2.6666214 2.5126677 -0.90851068
2.6179254 2.5150876 -0.90977961
2.6498122 2.5153131 -0.90570396
2.5940726 2.5117497 -0.90272748
2.7075849 2.5194504 -0.90461552
2.6176655 2.5157361 -0.89590007
2.6736798 2.5199394 -0.89837492
2.6452806 2.5164976 -0.89301586
2.6439776 2.5340233 -0.89495474
2.6544244 2.5162857 -0.88928354
2.7071958 2.5201535 -0.88872731
2.6643071 2.525023 -0.88105702
2.6083622 2.5209441 -0.87888414
2.585448 2.5171986 -0.87245244
2.6265631 2.5182631 -0.87324107
2.6457582 2.5182636 -0.87387133
2.7068064 2.5208564 -0.87283897
2.608104 2.5215893 -0.86508071
2.6640418 2.5256855 -0.86688066
2.6000936 2.5363054 -0.86560875
2.5770836 2.5219994 -0.85604167
2.6308753 2.5262563 -0.85742974
2.6078455 2.5222344 -0.85127723
2.6637762 2.5263481 -0.85270435
2.6977735 2.5264423 -0.84782213
2.5768292 2.5226345 -0.84245133
2.6306143 2.5269082 -0.84348172
2.6635108 2.5270107 -0.83852804
2.5684681 2.5274258 -0.8262459
2.6303532 2.5275602 -0.82953364
2.5982909 2.52807 -0.82083833
2.617487 2.5277662 -0.81745625
2.6300921 2.5282121 -0.81558561
2.5993059 2.5380161 -0.81483227
2.5980339 2.5287116 -0.80711091
2.5838354 2.5391643 -0.79414517
2.5893898 2.5340757 -0.77731287
