# .PCD v0.7 - Point Cloud Data file format
VERSION 0.7
FIELDS x y z
SIZE 4 4 4
TYPE F F F
COUNT 1 1 1
WIDTH 1256
HEIGHT 1
VIEWPOINT 0 0 0 1 0 0 0
POINTS 1256
DATA ascii
1.3571887 1.5964895 -0.36319059
1.3599548 1.5624573 -0.35049176
1.3590107 1.5739317 -0.35088697
1.3627868 1.528034 -0.34930605
1.3579313 1.8436341 -0.34560546
1.3626416 1.6911635 -0.34017357
1.3619688 1.712945 -0.34094954
1.3616322 1.7238358 -0.34133756
1.3606229 1.7565081 -0.34250152
1.3602865 1.7673988 -0.34288952
1.3599499 1.7782896 -0.34327751
1.3596135 1.7891803 -0.34366548
1.3693292 1.4481039 -0.33502632
1.366497 1.4825273 -0.33621201
1.3655529 1.4940017 -0.33660722
1.3664851 1.5057484 -0.33529007
1.365845 1.5169311 -0.33568171
1.3627207 1.5284251 -0.3377929
1.3660061 1.582256 -0.33629364
1.3656697 1.5931468 -0.33668166
1.3653333 1.6040375 -0.33706963
1.3582853 1.6376997 -0.33748406
1.3650521 1.6464722 -0.33531818
1.363651 1.6584913 -0.33900958
1.3633145 1.669382 -0.33939761
1.3629781 1.6802728 -0.33978558
1.3605427 1.7568938 -0.33160579
1.3654869 1.4943929 -0.32509404
1.3635986 1.5173417 -0.32588452
1.3696458 1.5292451 -0.32722139
1.367749 1.5523003 -0.32801551
1.3668005 1.5638279 -0.32841253
1.3660573 1.5735531 -0.32690978
1.3649037 1.5868831 -0.32920665
1.3655895 1.5935324 -0.32578593
1.3569903 1.5976629 -0.32865107
1.3652531 1.6044232 -0.3261739
1.3649166 1.615314 -0.3265619
1.3645802 1.6262047 -0.32694989
1.3582053 1.6380838 -0.32663399
1.3578703 1.6489289 -0.32702035
1.3575352 1.6597741 -0.3274067
1.3632343 1.6697677 -0.32850188
1.3628979 1.6806585 -0.32888985
1.3653989 1.692322 -0.32529336
1.3622249 1.70244 -0.32966584
1.363106 1.8661592 -0.32528231
1.3627682 1.8770956 -0.32567191
1.3624303 1.888032 -0.32606155
1.3620924 1.8989685 -0.32645118
1.3739262 1.4269307 -0.32168087
1.3732853 1.4381361 -0.32207328
1.3692629 1.448495 -0.32351315
1.3683188 1.4599695 -0.32390839
1.3664308 1.4829184 -0.32469884
1.3674983 1.7239857 -0.32021725
1.3671604 1.7349222 -0.32060689
1.3607988 1.7463887 -0.32032204
1.3604623 1.7572794 -0.32071003
1.3661468 1.7677314 -0.32177573
1.365809 1.7786678 -0.32216537
1.3654711 1.7896042 -0.32255498
1.3651332 1.8005407 -0.32294458
1.3647953 1.8114771 -0.32333422
1.3644575 1.8224134 -0.32372385
1.3641196 1.8333499 -0.32411346
1.3637818 1.8442863 -0.32450306
1.3634439 1.8552227 -0.3248927
1.3695793 1.5296381 -0.31565493
1.3686309 1.5411656 -0.31605196
1.3731167 1.5565464 -0.31579328
1.365984 1.5739424 -0.31567866
1.3578682 1.5865796 -0.31674269
1.3581948 1.5965707 -0.31568819
1.3651727 1.6048088 -0.31527814
1.3668714 1.6133595 -0.31743643
1.3644998 1.6265904 -0.31605414
1.3641633 1.6374811 -0.31644213
1.3638269 1.6483718 -0.3168301
1.3634905 1.6592627 -0.31721812
1.3631539 1.6701534 -0.31760609
1.3628175 1.6810441 -0.31799409
1.362481 1.6919349 -0.31838208
1.368174 1.7021129 -0.31943804
1.3678361 1.7130493 -0.31982765
1.3710849 1.4259373 -0.31120956
1.3732119 1.4385252 -0.31084597
1.3762183 1.448945 -0.31287554
1.3759449 1.4505752 -0.31047678
1.3754385 1.4609921 -0.31206951
1.3673086 1.471835 -0.31279045
1.3752692 1.4724481 -0.31125605
1.3663647 1.4833095 -0.31318566
1.3749313 1.4833845 -0.31164566
1.373509 1.494688 -0.31324953
1.3644767 1.5062584 -0.31397611
1.3742555 1.5052574 -0.3124249
1.3635325 1.5177329 -0.31437135
1.373242 1.5380666 -0.31359375
1.3729041 1.549003 -0.31398338
1.3658456 1.5830274 -0.31450218
1.3664039 1.7571822 -0.31044471
1.3660661 1.7681187 -0.31083435
1.3657283 1.7790551 -0.31122392
1.3653904 1.7899915 -0.31161356
1.3650525 1.800928 -0.3120032
1.3647146 1.8118644 -0.3123928
1.3643768 1.8228008 -0.31278241
1.3640389 1.8337373 -0.31317204
1.3637011 1.8446736 -0.31356168
1.3633631 1.85561 -0.31395125
1.3630253 1.8665465 -0.31434089
1.3626875 1.8774829 -0.31473053
1.37831 1.3740203 -0.30774945
1.3779721 1.3849567 -0.30813909
1.3773346 1.4274926 -0.30510625
1.3657193 1.5761412 -0.30567664
1.374451 1.5948375 -0.30705965
1.3638225 1.5991964 -0.30647075
1.3745791 1.6053263 -0.30743015
1.3688397 1.6114136 -0.30759454
1.3707962 1.6150088 -0.30537966
1.3678877 1.6229867 -0.30799317
1.3704584 1.6259453 -0.30576926
1.3640829 1.6378667 -0.3055464
1.3637465 1.6487576 -0.30593437
1.37293 1.6470966 -0.30964378
1.3694447 1.6587546 -0.30693814
1.3691069 1.669691 -0.30732775
1.368769 1.6806273 -0.30771738
1.3684312 1.6915637 -0.30810699
1.3680933 1.7025002 -0.30849659
1.3677554 1.7134366 -0.30888623
1.3674176 1.724373 -0.30927587
1.3670797 1.7353095 -0.30966547
1.3607185 1.7467744 -0.30942631
1.3679345 1.8998555 -0.3051742
1.3675952 1.9108375 -0.30556545
1.3672559 1.9218196 -0.30595669
1.3669167 1.9328017 -0.30634794
1.3665774 1.9437838 -0.30673918
1.3789971 1.4147553 -0.30011791
1.3771002 1.4378104 -0.30091199
1.3691306 1.4492773 -0.3004868
1.3681865 1.4607518 -0.30088204
1.3747218 1.4726143 -0.30120888
1.3764372 1.4951954 -0.30235112
1.3727924 1.5063102 -0.30238891
1.3756819 1.5149826 -0.30449846
1.3634663 1.518124 -0.30285817
1.3734992 1.5275176 -0.30226272
1.369513 1.530031 -0.30408841
1.3731613 1.5384539 -0.30265233
1.3685646 1.5415586 -0.3044855
1.3728234 1.5493903 -0.30304193
1.3676162 1.5530862 -0.30488253
1.3725669 1.562724 -0.30471581
1.3721477 1.5712632 -0.30382121
1.365268 1.585541 -0.30484009
1.3656477 1.7794424 -0.30028254
1.3653098 1.7903788 -0.30067214
1.3649719 1.8013153 -0.30106175
1.364634 1.8122517 -0.30145139
1.3642962 1.8231881 -0.30184102
1.3639584 1.8341246 -0.30223063
1.3636205 1.8450609 -0.30262023
1.3632826 1.8559973 -0.30300987
1.3629447 1.8669338 -0.30339947
1.368613 1.8778913 -0.30439168
1.3682737 1.8888733 -0.30478296
1.3738508 1.3919051 -0.2985107
1.3799455 1.4032277 -0.29972082
1.3758641 1.4509625 -0.29953539
1.3753316 1.4615787 -0.29503232
1.3738713 1.6027238 -0.29521257
1.372577 1.6252866 -0.29600263
1.3719298 1.6365678 -0.29639769
1.369702 1.6482054 -0.29560709
1.3693641 1.6591418 -0.29599673
1.3690263 1.6700783 -0.29638636
1.3686885 1.6810147 -0.29677594
1.3683506 1.691951 -0.29716557
1.3680127 1.7028875 -0.29755521
1.3676748 1.7138239 -0.29794481
1.367337 1.7247603 -0.29833442
1.3669991 1.7356968 -0.29872406
1.3666613 1.7466332 -0.29911369
1.3663234 1.7575696 -0.2995033
1.3659855 1.7685061 -0.2998929
1.3668357 1.9331906 -0.29536086
1.3664964 1.9441727 -0.29575211
1.380199 1.4729308 -0.29119894
1.3792467 1.4845039 -0.29159755
1.380827 1.4825363 -0.29030687
1.3804877 1.4935184 -0.29069811
1.3782947 1.4960769 -0.29199618
1.3727188 1.5067004 -0.29113498
1.3750733 1.5180957 -0.29186255
1.3794699 1.5264646 -0.29187185
1.3742595 1.5348188 -0.29245147
1.3736143 1.5460734 -0.29284561
1.3735337 1.5539424 -0.2939893
1.3724933 1.5631149 -0.29343903
1.3718483 1.5743697 -0.29383314
1.3712034 1.5856243 -0.29422727
1.3713914 1.5935233 -0.29365903
1.3707156 1.6153961 -0.29443824
1.3648912 1.8017026 -0.29012033
1.3582027 1.823781 -0.29035079
1.3638777 1.8345119 -0.29128921
1.3635398 1.8454483 -0.29167882
1.3632019 1.8563846 -0.29206842
1.362864 1.8673211 -0.29245806
1.3625262 1.8782575 -0.29284766
1.3621883 1.8891939 -0.29323727
1.3678535 1.9002444 -0.29418713
1.3675143 1.9112264 -0.29457837
1.367175 1.9222085 -0.29496962
1.3827243 1.369038 -0.28696322
1.3842196 1.3727155 -0.28639442
1.3747287 1.3808217 -0.28660232
1.3821843 1.3933864 -0.28746712
1.3845569 1.4045768 -0.28818768
1.3779821 1.4266758 -0.28894851
1.3770337 1.4382033 -0.28934556
1.382184 1.4386079 -0.28874189
1.3690646 1.4496684 -0.28897366
1.3757836 1.4513499 -0.28859395
1.3754457 1.4622862 -0.28898358
1.3751079 1.4732227 -0.28937322
1.3797424 1.6488566 -0.28705961
1.3692834 1.6595291 -0.28505528
1.3787813 1.6605361 -0.28746188
1.3689456 1.6704656 -0.28544492
1.3778205 1.6722153 -0.28786415
1.3686078 1.681402 -0.28583455
1.3682699 1.6923383 -0.28622413
1.367932 1.7032748 -0.28661376
1.3749378 1.7072535 -0.28907099
1.3675941 1.7142112 -0.2870034
1.3672563 1.7251476 -0.287393
1.3669184 1.7360841 -0.28778261
1.3665806 1.7470205 -0.28817225
1.3662426 1.7579569 -0.28856188
1.359885 1.7693273 -0.28841084
1.3595484 1.780218 -0.28879881
1.3652291 1.7907661 -0.28973073
1.3585391 1.8128903 -0.2899628
1.3724126 1.9448599 -0.28528601
1.3720719 1.9558877 -0.28567886
1.378026 1.5177445 -0.28083739
1.3793889 1.5268536 -0.28088474
1.3741858 1.5352097 -0.28117469
1.3744195 1.5427638 -0.28197852
1.3730646 1.552251 -0.28176811
1.3724196 1.5635058 -0.28216225
1.3717747 1.5747604 -0.28255635
1.3711296 1.5860152 -0.28295049
1.3713107 1.5939106 -0.28271759
1.3737974 1.6031157 -0.28390914
1.3706349 1.6157835 -0.2834968
1.3702971 1.6267198 -0.28388643
1.3699592 1.6376563 -0.28427607
1.3696213 1.6485927 -0.28466567
1.3812172 1.6679044 -0.28180566
1.3769681 1.7675488 -0.2800754
1.3766764 1.7756704 -0.28256443
1.3750377 1.7910137 -0.28088361
1.3765955 1.8023505 -0.28349161
1.3731072 1.8144786 -0.28169185
1.3637971 1.8348992 -0.28034776
1.3634592 1.8458356 -0.2807374
1.3631213 1.8567719 -0.28112701
1.3627834 1.8677084 -0.28151661
1.3624456 1.8786448 -0.28190625
1.3621078 1.8895812 -0.28229588
1.3617698 1.9005177 -0.28268549
1.3674332 1.9116154 -0.28359124
1.3670939 1.9225974 -0.28398249
1.3667547 1.9335796 -0.28437373
1.3872356 1.3543673 -0.27511269
1.3835678 1.3657765 -0.27520639
1.3841387 1.3731043 -0.27540731
1.3827543 1.3825223 -0.27579618
1.3851287 1.3936911 -0.27649313
1.3798127 1.4040135 -0.2765879
1.3831209 1.4060506 -0.27658105
1.3788643 1.4155412 -0.27698496
1.3779159 1.4270687 -0.27738202
1.3824424 1.4280148 -0.27736354
1.3769674 1.4385962 -0.27777907
1.3821031 1.4389968 -0.27775478
1.3817638 1.4499791 -0.27814603
1.376019 1.4501239 -0.27817613
1.3750706 1.4616514 -0.27857316
1.3814245 1.4609611 -0.27853727
1.3741221 1.473179 -0.27897024
1.3810853 1.4719431 -0.27892852
1.3731737 1.4847065 -0.27936727
1.3804067 1.4939072 -0.27971101
1.3722253 1.4962342 -0.27976435
1.3642783 1.5074317 -0.27943659
1.3740135 1.5064193 -0.27960062
1.385326 1.5254461 -0.27782187
1.3843963 1.552112 -0.27855474
1.3819246 1.5950986 -0.27965847
1.3796751 1.6492548 -0.27534083
1.3787141 1.6609341 -0.2757431
1.3777533 1.6726135 -0.2761454
1.3767924 1.6842928 -0.27654767
1.3681893 1.6927257 -0.27528274
1.3758314 1.6959722 -0.27694994
1.3678514 1.7036622 -0.27567235
1.3826323 1.7086571 -0.27560419
1.3675135 1.7145985 -0.27606195
1.3671757 1.7255349 -0.27645159
1.3798137 1.7314422 -0.27621388
1.3668379 1.7364714 -0.27684122
1.3788989 1.7440839 -0.27926719
1.3665 1.7474078 -0.27723083
1.3661621 1.7583442 -0.27762043
1.3779335 1.7558163 -0.27967128
1.3658242 1.7692807 -0.27801007
1.3654864 1.7802171 -0.27839968
1.3651485 1.7911534 -0.27878928
1.3784063 1.7923462 -0.27536535
1.3648106 1.8020899 -0.27917892
1.3789958 1.8023113 -0.27571404
1.3644727 1.8130263 -0.27956855
1.3641349 1.8239627 -0.27995816
1.3883483 1.3002654 -0.27301443
1.3873999 1.311793 -0.27341145
1.372991 1.5526419 -0.27049133
1.3723459 1.5638967 -0.27088547
1.371701 1.5751514 -0.27127957
1.371056 1.5864062 -0.27167368
1.3712301 1.5942979 -0.27177617
1.3695917 1.6010239 -0.27235949
1.3708922 1.6052344 -0.27216578
1.3730764 1.6147888 -0.27300072
1.3829931 1.6156174 -0.2702682
1.3702165 1.6271071 -0.27294502
1.3825932 1.6257963 -0.2725786
1.3698786 1.6380436 -0.27333462
1.3824109 1.6366755 -0.27295607
1.3695407 1.64898 -0.27372426
1.3847821 1.6458546 -0.2713263
1.3692029 1.6599164 -0.27411389
1.3804995 1.6582227 -0.2713967
1.3810935 1.6682637 -0.27174807
1.368865 1.6708529 -0.2745035
1.3685272 1.6817893 -0.27489311
1.3822817 1.6883459 -0.27245083
1.3828758 1.6983869 -0.2728022
1.3815389 1.7605422 -0.27461481
1.3797548 1.8144349 -0.27332416
1.3771071 1.8261507 -0.27354968
1.3630407 1.8571593 -0.27018559
1.3627028 1.8680958 -0.27057523
1.362365 1.8790321 -0.27096483
1.3620272 1.8899685 -0.27135444
1.3616892 1.900905 -0.27174407
1.3673522 1.9120042 -0.27260414
1.367013 1.9229864 -0.27299538
1.3666737 1.9339684 -0.27338663
1.3723313 1.9452504 -0.27425319
1.3719906 1.9562782 -0.27464607
1.3850548 1.3940828 -0.26519349
1.3797462 1.4044065 -0.26502144
1.3830398 1.4064395 -0.26559395
1.3827006 1.4174216 -0.26598519
1.3778493 1.4274616 -0.26581556
1.3823613 1.4284037 -0.26637644
1.3769009 1.4389892 -0.26621261
1.382022 1.4393858 -0.26676768
1.3759525 1.4505168 -0.26660967
1.3816828 1.4503679 -0.26715893
1.3679881 1.461925 -0.26634255
1.3752844 1.4630609 -0.26710075
1.3670442 1.4733995 -0.26673776
1.3749466 1.4739974 -0.26749036
1.3661001 1.484874 -0.267133
1.3806649 1.4833142 -0.26833266
1.3803257 1.4942962 -0.26872391
1.3651562 1.4963484 -0.26752824
1.364212 1.5078229 -0.26792344
1.373933 1.5068066 -0.2686592
1.3867246 1.5091846 -0.26726857
1.3719285 1.5187125 -0.26902041
1.3873254 1.5193397 -0.26762393
1.3732573 1.5286794 -0.26943845
1.3693135 1.5312098 -0.26938903
1.3729194 1.5396159 -0.26982808
1.3858007 1.5359448 -0.26802379
1.368365 1.5427374 -0.26978609
1.3842715 1.552474 -0.26842099
1.3848701 1.562591 -0.26877505
1.3854687 1.5727081 -0.26912907
1.3812041 1.5853801 -0.2692101
1.3818004 1.5954592 -0.26956281
1.386536 1.6010063 -0.26762849
1.367433 1.7149858 -0.26512054
1.382648 1.7249441 -0.26524279
1.3670951 1.7259222 -0.26551017
1.3797965 1.7327513 -0.26709098
1.3667573 1.7368587 -0.26589978
1.3788311 1.7444837 -0.2674951
1.3664194 1.7477951 -0.26628941
1.3660815 1.7587315 -0.26667902
1.3778658 1.7562163 -0.26789922
1.3657436 1.769668 -0.26706862
1.3769007 1.7679486 -0.26830333
1.3759353 1.7796812 -0.26870742
1.3654058 1.7806044 -0.26745826
1.3825992 1.7809062 -0.26529539
1.3590515 1.7918801 -0.26739532
1.3766267 1.7920582 -0.26724774
1.3587151 1.8027709 -0.26778334
1.3764389 1.802907 -0.26762414
1.3643922 1.8134136 -0.26862711
1.3794625 1.8126329 -0.26608133
1.3640543 1.82435 -0.26901674
1.3800521 1.822598 -0.26643002
1.3806417 1.832563 -0.26677874
1.3637165 1.8352865 -0.26940635
1.3633786 1.8462229 -0.26979595
1.3774869 1.8639857 -0.26755404
1.3780743 1.8739127 -0.26790142
1.3786616 1.8838397 -0.2682488
1.379249 1.8937668 -0.26859617
1.3798362 1.9036938 -0.26894358
1.386385 1.3237135 -0.26224208
1.3906745 1.3478886 -0.26383036
1.3835397 1.3582962 -0.26343322
1.3834941 1.3661675 -0.26392961
1.3840576 1.3734933 -0.26442021
1.3826807 1.3829134 -0.26451939
1.3717644 1.4160273 -0.26476166
1.390649 1.4915342 -0.26305965
1.3718252 1.5728123 -0.26005548
1.3714874 1.5837488 -0.26044512
1.3742971 1.592618 -0.2609072
1.3695252 1.6014184 -0.26074731
1.3708116 1.6056216 -0.26122436
1.3840923 1.6144801 -0.26411346
1.3730028 1.6151806 -0.26169726
1.3849332 1.6249748 -0.2617915
1.3701359 1.6274945 -0.2620036
1.3697981 1.638431 -0.26239321
1.3857901 1.6375139 -0.26236802
1.3694601 1.6493673 -0.26278284
1.3796077 1.6496528 -0.26362208
1.3846579 1.6462152 -0.26123065
1.3803757 1.658582 -0.26133913
1.3691223 1.6603037 -0.26317245
1.3786469 1.6613322 -0.26402435
1.3809698 1.668623 -0.2616905
1.3687844 1.6712402 -0.26356208
1.3855348 1.6752708 -0.26367959
1.3684466 1.6821766 -0.26395169
1.3829076 1.6872633 -0.2639339
1.3681087 1.693113 -0.26434129
1.3827221 1.69815 -0.26431161
1.3677708 1.7040495 -0.26473093
1.3825365 1.7090368 -0.26468939
1.3839401 1.7188283 -0.26344734
1.3851283 1.7389104 -0.26415008
1.3814156 1.7609001 -0.2645953
1.3820075 1.7709031 -0.26494533
1.3830116 1.8424586 -0.26365781
1.3828194 1.8533604 -0.26403606
1.3686284 1.8684648 -0.26005203
1.3828442 1.8660665 -0.26100373
1.3682891 1.879447 -0.26044327
1.38187 1.8779052 -0.26141149
1.3808961 1.889744 -0.26181924
1.3679498 1.890429 -0.26083452
1.3616085 1.9012923 -0.26080266
1.3612707 1.9122287 -0.26119226
1.366932 1.9233752 -0.26200825
1.3665928 1.9343574 -0.26239949
1.3820633 1.9437573 -0.26038972
1.37225 1.945641 -0.26322043
1.3779041 1.9570159 -0.26404455
1.3794626 1.9845356 -0.26153052
1.3886842 1.4159186 -0.25539532
1.3822803 1.4287927 -0.25538933
1.3819411 1.4397748 -0.25578058
1.3755417 1.4525118 -0.2557697
1.3749375 1.4624373 -0.25544024
1.3812625 1.4617388 -0.25656307
1.3669779 1.4737906 -0.25522459
1.374866 1.4743845 -0.25654894
1.3737845 1.4854068 -0.25658643
1.3731414 1.4966388 -0.25697976
1.3724983 1.5078707 -0.25737312
1.3735145 1.5181303 -0.25810742
1.3716862 1.5245709 -0.25796127
1.3878011 1.5298581 -0.25780749
1.3692472 1.5316027 -0.25782257
1.3788877 1.5386134 -0.25930178
1.3682988 1.5431303 -0.2582196
1.3884019 1.5400132 -0.25816286
1.3785483 1.5495956 -0.25969303
1.3841468 1.5528359 -0.25828728
1.3733337 1.555126 -0.25915283
1.3722724 1.5642874 -0.25960869
1.3847454 1.562953 -0.2586413
1.3714294 1.5782721 -0.25995007
1.3846636 1.576565 -0.25675035
1.3810799 1.5857408 -0.25911444
1.3816762 1.59582 -0.25946715
1.3822726 1.6058989 -0.25981987
1.3797288 1.7331512 -0.25531894
1.3787637 1.7448837 -0.25572306
1.3663387 1.7481824 -0.25534797
1.3660008 1.7591188 -0.2557376
1.3777983 1.7566161 -0.25612715
1.376833 1.7683486 -0.25653127
1.3656629 1.7700553 -0.25612724
1.3593076 1.7813751 -0.25611159
1.3758678 1.780081 -0.25693536
1.382476 1.7812642 -0.25527585
1.3589712 1.7922659 -0.25649959
1.3824316 1.7923455 -0.25678709
1.3586348 1.8031566 -0.25688758
1.3822427 1.8032398 -0.25716507
1.3582983 1.8140473 -0.25727558
1.3795979 1.8149923 -0.25743002
1.3639736 1.8247373 -0.25807533
1.3848433 1.8212764 -0.25667602
1.3756026 1.8345597 -0.25656852
1.3636358 1.8356738 -0.25846493
1.3761899 1.8444867 -0.2569159
1.3632979 1.8466102 -0.25885457
1.3767773 1.8544139 -0.25726327
1.36296 1.8575466 -0.25924417
1.3822876 1.8628148 -0.25784343
1.377952 1.8742679 -0.25795805
1.3785393 1.884195 -0.25830543
1.3791267 1.894122 -0.25865281
1.3797139 1.904049 -0.25900018
1.383015 1.9149722 -0.25533873
1.3828194 1.9258816 -0.25571722
1.3995378 1.2589989 -0.25026959
1.3973788 1.2872709 -0.25444397
1.3973432 1.2956536 -0.25315863
1.3962255 1.301905 -0.25111535
1.3953757 1.3124539 -0.25276944
1.3918933 1.3256803 -0.25171638
1.3939987 1.3364992 -0.25368688
1.3844218 1.3471615 -0.2514697
1.3907282 1.3497522 -0.25303811
1.3834734 1.3586891 -0.25186676
1.3903877 1.3607798 -0.25343096
1.3832508 1.3720496 -0.25284845
1.382607 1.3833044 -0.25324261
1.384981 1.3944744 -0.25389385
1.3796797 1.4047995 -0.25345498
1.3829589 1.4068284 -0.25460684
1.3716981 1.4164184 -0.25324845
1.3707542 1.4278928 -0.25364369
1.3768344 1.4393822 -0.25464612
1.3688662 1.4508418 -0.25443414
1.3929464 1.4681008 -0.25022712
1.3917314 1.4800239 -0.25065112
1.3905165 1.4919469 -0.25107509
1.3879504 1.5067091 -0.25429791
1.3876435 1.5177481 -0.25468761
1.3925046 1.5415399 -0.25346127
1.3912842 1.553516 -0.25388715
1.3900639 1.5654922 -0.25431302
1.3707309 1.6060089 -0.25028294
1.3834502 1.6149162 -0.25226328
1.370393 1.6169454 -0.25067258
1.3700552 1.6278818 -0.25106218
1.3824015 1.626555 -0.25076419
1.3697174 1.6388183 -0.25145179
1.3822193 1.6374342 -0.25114167
1.3693794 1.6497546 -0.25184143
1.3845335 1.6465759 -0.25113499
1.3795404 1.650051 -0.25190333
1.3851298 1.656655 -0.2514877
1.3690416 1.660691 -0.25223103
1.3785794 1.6617303 -0.2523056
1.3808459 1.6689823 -0.2516329
1.3687037 1.6716275 -0.25262064
1.3829975 1.676756 -0.25264132
1.3683659 1.6825639 -0.25301027
1.3766577 1.685089 -0.25311017
1.3820341 1.6890644 -0.25233567
1.368028 1.6935003 -0.25339991
1.3826264 1.6985295 -0.25339681
1.3676901 1.7044368 -0.25378951
1.3824408 1.7094164 -0.25377455
1.3673522 1.7153732 -0.25417912
1.3838162 1.7191875 -0.25338978
1.3670144 1.7263095 -0.25456876
1.3825523 1.7253237 -0.25432798
1.3666766 1.737246 -0.25495836
1.3828536 1.7452812 -0.25415981
1.3812923 1.761258 -0.25457579
1.3818842 1.7712611 -0.25492582
1.3671904 1.9127822 -0.25062993
1.3668511 1.9237642 -0.25102118
1.3725091 1.9350038 -0.25179476
1.3850318 1.9363394 -0.25122604
1.3721685 1.9460316 -0.25218761
1.3778224 1.9574081 -0.25296608
1.3842901 1.9838207 -0.25183585
1.399461 1.2452888 -0.24913254
1.3980899 1.2542251 -0.24878864
1.3983968 1.264922 -0.24545643
1.3973186 1.2766171 -0.24586585
1.3891637 1.2895237 -0.24948442
1.3965911 1.4323313 -0.24895516
1.3815209 1.4511458 -0.24518472
1.3811816 1.4621278 -0.24557596
1.3737109 1.4857969 -0.24533251
1.3730679 1.4970288 -0.24572584
1.3724246 1.5082608 -0.24611919
1.3864743 1.5099113 -0.246925
1.3734338 1.5185176 -0.24716599
1.3716125 1.524961 -0.24670734
1.3822265 1.5228467 -0.24709147
1.3691807 1.5319957 -0.2462561
1.382825 1.5329638 -0.24744551
1.3734887 1.5421689 -0.24754363
1.3882767 1.5403765 -0.24799107
1.3728435 1.5534236 -0.24793775
1.3888775 1.5505316 -0.24834643
1.3720824 1.5622633 -0.24872446
1.3872758 1.5646108 -0.24539138
1.3663356 1.5665784 -0.24744727
1.3715537 1.5759332 -0.248726
1.386965 1.5756575 -0.24578133
1.3714067 1.5841361 -0.2495037
1.3866541 1.586704 -0.2461713
1.3742232 1.5930097 -0.24960376
1.3815519 1.5961804 -0.2493715
1.3764212 1.6025732 -0.24971466
1.3821483 1.6062596 -0.24972419
1.390385 1.6404223 -0.24557558
1.3827138 1.7709367 -0.24510866
1.3592273 1.7817608 -0.24521586
1.3825248 1.781831 -0.24548668
1.3588909 1.7926515 -0.24560386
1.3823359 1.7927253 -0.24586466
1.3585545 1.8035423 -0.24599186
1.385591 1.8044523 -0.24652131
1.358218 1.8144331 -0.24637984
1.3792168 1.813346 -0.24611843
1.386672 1.8191152 -0.24749395
1.38472 1.8216343 -0.24665651
1.363893 1.8251246 -0.24713388
1.3830471 1.8321149 -0.24735878
1.3635552 1.836061 -0.2475235
1.3760675 1.844842 -0.24697252
1.3847239 1.8427926 -0.24830949
1.369226 1.8468896 -0.24828246
1.3815751 1.8532063 -0.24751326
1.3628794 1.8579339 -0.24830274
1.3685474 1.8688538 -0.24906495
1.3859035 1.8657861 -0.24877675
1.3778296 1.8746231 -0.24801466
1.3622037 1.8798068 -0.24908197
1.3784169 1.8845501 -0.24836203
1.3678689 1.890818 -0.24984744
1.3790042 1.8944771 -0.24870943
1.3615279 1.9016796 -0.24986121
1.3795915 1.9044042 -0.2490568
1.3826439 1.9140029 -0.24502359
1.3827658 1.9245259 -0.24539535
1.402064 1.2404115 -0.24088517
1.4008598 1.2522286 -0.24130538
1.3972476 1.2876799 -0.24256602
1.3972366 1.2960541 -0.24168041
1.3980877 1.3036847 -0.2407691
1.3962926 1.3130361 -0.24228501
1.3974036 1.3258315 -0.2415581
1.3909876 1.3391149 -0.24161243
1.3906469 1.3501427 -0.24200532
1.3834069 1.3590821 -0.2403003
1.3903064 1.3611703 -0.24239817
1.3754082 1.3709117 -0.24015443
1.3838958 1.3742712 -0.24244599
1.3855674 1.3826816 -0.24213916
1.3879406 1.3938751 -0.24276838
1.3796134 1.4051924 -0.24188851
1.3828779 1.4072173 -0.24361973
1.3716321 1.4168096 -0.24173532
1.3886029 1.4163091 -0.24436253
1.3777165 1.4282475 -0.24268261
1.3882622 1.4273369 -0.24475542
1.3697441 1.4397584 -0.24252577
1.3818601 1.4401636 -0.24479346
1.3687999 1.4512329 -0.24292099
1.3678558 1.4627073 -0.24331622
1.3743541 1.4745649 -0.24493918
1.3935919 1.5299782 -0.24099755
1.3923717 1.5419544 -0.24142343
1.3911513 1.5539305 -0.2418493
1.3940644 1.6043122 -0.24429151
1.392838 1.6163487 -0.24471954
1.3699746 1.6282691 -0.24012075
1.383523 1.6262829 -0.24236923
1.3696368 1.6392055 -0.24051037
1.383813 1.6368574 -0.24068666
1.3844093 1.6469364 -0.24103935
1.3692988 1.650142 -0.24089998
1.3794732 1.650449 -0.24018455
1.3850056 1.6570156 -0.24139205
1.3629284 1.6619624 -0.24094795
1.3785121 1.6621284 -0.24058685
1.385602 1.6670946 -0.24174476
1.3686231 1.6720148 -0.24167922
1.3775513 1.6738079 -0.24098912
1.3861983 1.6771737 -0.24209745
1.3682853 1.6829512 -0.24206884
1.3765905 1.6854872 -0.24139139
1.3819103 1.6894237 -0.24227807
1.3679475 1.6938876 -0.24245846
1.3756294 1.6971664 -0.24179369
1.3825045 1.6994647 -0.24262944
1.3676095 1.704824 -0.24284808
1.3830985 1.7095058 -0.24298081
1.3850273 1.7149734 -0.24495931
1.3672717 1.7157605 -0.2432377
1.3669338 1.7266968 -0.24362731
1.3824565 1.7257032 -0.24341315
1.3796613 1.7335511 -0.24354687
1.366596 1.7376333 -0.24401695
1.3793406 1.7434467 -0.24390359
1.3662581 1.7485697 -0.24440655
1.3659202 1.7595061 -0.24479617
1.3777306 1.7570161 -0.2443551
1.383323 1.755662 -0.24447194
1.3595638 1.77087 -0.24482787
1.3784249 1.9356534 -0.2410986
1.3840785 1.9470316 -0.24183138
1.3974787 1.2163088 -0.23940542
1.4004824 1.2261708 -0.23800761
1.4035852 1.2338891 -0.23765115
1.3993869 1.2456821 -0.23778723
1.3987396 1.2570053 -0.2381838
1.3970711 1.2661928 -0.2375751
1.3978511 1.274834 -0.23594241
1.3970183 1.286322 -0.23634684
1.3942146 1.3009121 -0.23877096
1.394816 1.325141 -0.23502392
1.3853037 1.3360269 -0.23950619
1.3843553 1.3475544 -0.23990324
1.4013183 1.3850514 -0.23527464
1.4001034 1.3969744 -0.23569864
1.3988885 1.4088976 -0.23612264
1.3976736 1.4208207 -0.23654661
1.3804221 1.4844809 -0.23537135
1.3915991 1.4804366 -0.23866656
1.3861367 1.4938939 -0.23607986
1.3903842 1.4923596 -0.23909053
1.3891692 1.5042828 -0.23951453
1.3783764 1.5080338 -0.23524393
1.3871517 1.5132403 -0.23834585
1.3794043 1.5174272 -0.23654509
1.3745638 1.5246351 -0.23561445
1.3869499 1.5204297 -0.23710856
1.3875507 1.5305848 -0.23746392
1.3734151 1.5425597 -0.23626685
1.3881515 1.5407399 -0.23781928
1.3723396 1.5517142 -0.23739341
1.3887523 1.550895 -0.23817465
1.3672173 1.5554438 -0.23548374
1.3720018 1.5626506 -0.23778304
1.3893533 1.5610502 -0.23853001
1.3662691 1.5669713 -0.23588078
1.3899541 1.5712051 -0.23888536
1.37148 1.576324 -0.2374492
1.3713261 1.5845234 -0.23856227
1.3856932 1.5839112 -0.23908193
1.3741496 1.5934016 -0.23830032
1.3843925 1.5934074 -0.23518246
1.3735023 1.6046829 -0.23869535
1.3840805 1.604435 -0.23557174
1.3703125 1.6173327 -0.23973113
1.3824881 1.6160551 -0.23947948
1.3820615 1.6379938 -0.23518664
1.3933589 1.6794366 -0.23536527
1.3927222 1.7547808 -0.23856044
1.3865392 1.7701114 -0.23503146
1.3648261 1.7927027 -0.2350236
1.3881395 1.7930174 -0.23526697
1.3705021 1.8033502 -0.23573036
1.3883214 1.8002347 -0.23608556
1.3641503 1.8145756 -0.23580284
1.3889155 1.8102758 -0.23643693
1.3638124 1.8255119 -0.23619246
1.3913064 1.8317444 -0.2368352
1.3634746 1.8364483 -0.23658207
1.3911141 1.8427107 -0.2372157
1.3751534 1.8471724 -0.23761898
1.390922 1.8536773 -0.23759618
1.3748127 1.8582001 -0.23801185
1.3684665 1.8692428 -0.23807785
1.3681272 1.8802248 -0.23846909
1.3797933 1.8913598 -0.23952061
1.3794512 1.9024332 -0.2399151
1.4028674 1.3007476 -0.23170754
1.3954632 1.3138177 -0.23462737
1.4016579 1.3126178 -0.23212963
1.4004484 1.3244879 -0.23255172
1.3969798 1.3372972 -0.23087412
1.3905655 1.3505332 -0.23097251
1.3902249 1.3615608 -0.23136538
1.3898842 1.3725886 -0.23175827
1.3895435 1.3836164 -0.23215112
1.3892028 1.3946441 -0.232544
1.3795469 1.4055853 -0.23032203
1.3888621 1.405672 -0.23293687
1.3785985 1.4171128 -0.23071909
1.3824577 1.4185884 -0.23302388
1.3706219 1.4286751 -0.23061737
1.3821185 1.4295704 -0.23341513
1.3696778 1.4401495 -0.23101258
1.3817792 1.4405525 -0.23380637
1.3687339 1.4516239 -0.23140782
1.3814399 1.4515347 -0.23419762
1.3748047 1.4632231 -0.23230729
1.3871588 1.4608107 -0.23490123
1.3668456 1.4745729 -0.23219827
1.3807614 1.4734988 -0.23498011
1.3729079 1.4862783 -0.2331014
1.3719594 1.4978058 -0.23349845
1.3691142 1.5323886 -0.23468962
1.4000633 1.5445448 -0.23005259
1.3976103 1.5686184 -0.23090863
1.3963838 1.5806551 -0.23133668
1.3927044 1.6167655 -0.23262075
1.3822436 1.6271148 -0.23480915
1.3914778 1.6288023 -0.2330488
1.3842851 1.6472971 -0.23094371
1.3848814 1.6573763 -0.23129641
1.3958228 1.655257 -0.23450544
1.3688804 1.6614656 -0.23034818
1.3854778 1.6674552 -0.2316491
1.3945909 1.6673467 -0.23493537
1.3685426 1.6724021 -0.23073781
1.3860741 1.6775343 -0.23200181
1.3682047 1.6833385 -0.23112741
1.3826206 1.6884019 -0.23118943
1.3678669 1.6942749 -0.23151705
1.3824351 1.6992887 -0.23156717
1.3675289 1.7052114 -0.23190665
1.387863 1.7077715 -0.23305991
1.3671911 1.7161478 -0.23229627
1.3849187 1.715366 -0.23363207
1.3668532 1.7270842 -0.23268589
1.3823608 1.7260828 -0.23249832
1.3795936 1.733951 -0.23177481
1.3665154 1.7380207 -0.23307551
1.3847569 1.7399883 -0.23397735
1.3661776 1.748957 -0.23346514
1.3786283 1.7456834 -0.23217893
1.3849597 1.75445 -0.23370422
1.3658396 1.7598934 -0.23385474
1.3859451 1.7600703 -0.23468009
1.3655018 1.7708299 -0.23424438
1.3651639 1.7817663 -0.23463398
1.3883295 1.7820776 -0.23488739
1.3903369 1.9365669 -0.23060206
1.4078625 1.1794217 -0.22562285
1.4079533 1.181735 -0.22690612
1.4080337 1.1933814 -0.22579288
1.4071989 1.2049023 -0.22619851
1.4063641 1.216423 -0.2266041
1.4017688 1.2277832 -0.22775806
1.4035109 1.2342834 -0.2262792
1.4019327 1.2408205 -0.22900721
1.3993126 1.2460754 -0.22644192
1.4030933 1.2549465 -0.22891158
1.3979566 1.2550142 -0.22556433
1.3982644 1.265521 -0.22790529
1.3990324 1.2708566 -0.22850713
1.403137 1.2774351 -0.22683655
1.3986903 1.2819301 -0.22890162
1.4021804 1.2890613 -0.227237
1.3983482 1.2930034 -0.22929612
1.3980061 1.3040769 -0.22969063
1.4012239 1.3006876 -0.22763745
1.3931956 1.3128797 -0.22755744
1.3861856 1.3248923 -0.22754264
1.3852372 1.3364198 -0.2279397
1.3842888 1.3479474 -0.22833675
1.3833404 1.359475 -0.22873381
1.3854529 1.3832686 -0.22532313
1.3817754 1.3955355 -0.22558963
1.4032214 1.4345833 -0.22555274
1.402001 1.4465595 -0.22597861
1.3938965 1.4570029 -0.22583404
1.3926816 1.4689261 -0.22625801
1.3914666 1.4808493 -0.22668201
1.3902518 1.4927723 -0.227106
1.3958995 1.5064404 -0.22810796
1.3862239 1.510638 -0.22658142
1.3946792 1.5184165 -0.22853383
1.3868247 1.5207931 -0.22693677
1.3874255 1.5309482 -0.22729214
1.3934588 1.5303926 -0.22895971
1.372597 1.5411651 -0.22606237
1.3831742 1.5438049 -0.22753209
1.372259 1.5521014 -0.22645199
1.3837727 1.5539219 -0.22788613
1.3950561 1.5582628 -0.22849989
1.3720512 1.5654602 -0.22577828
1.3898289 1.5715685 -0.22871359
1.3714063 1.576715 -0.2261724
1.3712455 1.5849108 -0.22762084
1.3855685 1.5842731 -0.22894822
1.3740757 1.5937934 -0.22699688
1.386167 1.5943902 -0.22930226
1.3850074 1.6043185 -0.22825646
1.3705697 1.6067835 -0.22840008
1.3702319 1.61772 -0.2287897
1.3858712 1.6168431 -0.22880965
1.369894 1.6286564 -0.22917932
1.3813276 1.6274885 -0.22766122
1.3695562 1.6395929 -0.22956894
1.3873158 1.6400912 -0.22854191
1.3692182 1.6505293 -0.22995856
1.3863504 1.6518238 -0.22894603
1.3853853 1.6635562 -0.22935013
1.3844199 1.6752887 -0.22975424
1.3925095 1.7887648 -0.22578587
1.3824486 1.8031646 -0.22528614
1.3821064 1.8142381 -0.22568065
1.3817643 1.8253114 -0.22607514
1.3814223 1.8363849 -0.22646964
1.3810802 1.8474582 -0.22686413
1.3867446 1.8584727 -0.22753823
1.3864011 1.8695918 -0.22793435
1.3917165 1.891908 -0.22901106
1.3913716 1.9030727 -0.2294088
1.4003166 1.3248987 -0.22062045
1.4060456 1.3377714 -0.22159415
1.4048306 1.3496946 -0.22201815
1.3901436 1.3619515 -0.22033259
1.4036157 1.3616177 -0.22244215
1.3860974 1.3719909 -0.22492817
1.4011859 1.385464 -0.22329012
1.399971 1.3973871 -0.22371411
1.3887808 1.4060625 -0.22190408
1.398756 1.4093103 -0.22413808
1.3823768 1.4189773 -0.22203678
1.3759756 1.4318008 -0.22216618
1.3816983 1.4409415 -0.22281927
1.3756866 1.4520885 -0.22034377
1.387418 1.4501734 -0.22347558
1.3747382 1.463616 -0.22074082
1.3870775 1.4612012 -0.22386844
1.3667796 1.474964 -0.22068509
1.3746241 1.4755466 -0.22372466
1.3803412 1.4848698 -0.22438425
1.3658357 1.4864384 -0.2210803
1.3778944 1.4984438 -0.22232322
1.3800019 1.4958519 -0.22477549
1.3736105 1.5083559 -0.22489351
1.3781328 1.5139165 -0.22413991
1.3774872 1.525194 -0.22453484
1.3750379 1.5331632 -0.22351909
1.3680995 1.544309 -0.2235202
1.367151 1.5558367 -0.22391726
1.4018478 1.5952264 -0.22020382
1.4006159 1.6073163 -0.22063375
1.399384 1.619406 -0.22106364
1.3927078 1.6227074 -0.22031859
1.3957304 1.6321791 -0.22108376
1.3954148 1.6433016 -0.22147639
1.3950994 1.654424 -0.22186904
1.3923445 1.6666684 -0.22221501
1.390831 1.6756889 -0.22200076
1.3741531 1.6829362 -0.22043955
1.3914295 1.685806 -0.2223548
1.3738139 1.6939183 -0.2208308
1.3978436 1.69414 -0.22350112
1.379501 1.7042022 -0.22147885
1.3926266 1.7060401 -0.22306286
1.3791603 1.71523 -0.22187173
1.3932252 1.7161572 -0.22341689
1.3788196 1.7262577 -0.2222646
1.3784789 1.7372854 -0.22265747
1.3895278 1.7383695 -0.22402236
1.3721175 1.7488288 -0.22278702
1.3901241 1.7484485 -0.22437505
1.3777976 1.7593409 -0.22344321
1.3907205 1.7585275 -0.22472776
1.3834748 1.7699444 -0.22410265
1.3831327 1.7810178 -0.22449714
1.3827907 1.7920913 -0.22489163
1.407822 1.182144 -0.2150282
1.4062706 1.2168227 -0.21504824
1.4016623 1.2281837 -0.21627985
1.3999771 1.2380286 -0.21624516
1.4018015 1.2412295 -0.21712926
1.3992383 1.2464688 -0.21509659
1.4027902 1.2538128 -0.21595985
1.399343 1.2625196 -0.21750194
1.3985699 1.2739649 -0.21790929
1.40307 1.2778313 -0.2151711
1.3977969 1.28541 -0.21831664
1.4021134 1.2894576 -0.21557155
1.3982666 1.2933955 -0.21821764
1.3960028 1.3030851 -0.2170794
1.4027356 1.3011585 -0.21977627
1.3950962 1.3136495 -0.21820082
1.3861194 1.3252852 -0.21597618
1.3911656 1.3288683 -0.21915397
1.3851709 1.3368127 -0.21637323
1.3908249 1.339896 -0.21954685
1.3842225 1.3483404 -0.21677029
1.3904842 1.3509238 -0.21993972
1.3832741 1.3598679 -0.21716735
1.3823256 1.3713955 -0.2175644
1.3794804 1.4059782 -0.21875556
1.3714998 1.4175917 -0.21870896
1.3705559 1.4290662 -0.2191042
1.3696117 1.4405407 -0.21949941
1.3969867 1.4948788 -0.21564424
1.3919129 1.5076244 -0.21649763
1.4036089 1.5088512 -0.21666977
1.3925164 1.517825 -0.21685459
1.3937235 1.5382264 -0.2175685
1.3785638 1.5401691 -0.21535337
1.3943269 1.5484271 -0.21792546
1.3782244 1.5511513 -0.21574461
1.3949305 1.5586278 -0.21828242
1.3778851 1.5621333 -0.21613586
1.395534 1.5688286 -0.21863937
1.3835893 1.5718691 -0.21676439
1.3772066 1.5840974 -0.21691835
1.3935227 1.5856584 -0.21912521
1.3768673 1.5950795 -0.21730959
1.3973446 1.5994306 -0.21971025
1.3825672 1.6049525 -0.21794301
1.3901439 1.6052938 -0.21555752
1.3761888 1.6170437 -0.21809208
1.3941216 1.6151986 -0.21817315
1.3758495 1.6280258 -0.21848333
1.3951666 1.6296307 -0.21678901
1.3755102 1.6390079 -0.21887457
1.3751709 1.64999 -0.21926582
1.3748317 1.6609721 -0.21965706
1.3991976 1.666019 -0.21843559
1.3684618 1.6727893 -0.21979639
1.3982236 1.6778576 -0.21884337
1.3930138 1.8476444 -0.2162502
1.392669 1.8588092 -0.21664795
1.4138424 1.1230587 -0.2129271
1.4135934 1.1365962 -0.2118565
1.412513 1.1483178 -0.21226683
1.4102302 1.15851 -0.21418777
1.4126353 1.1615691 -0.21116658
1.4116788 1.1731954 -0.21156701
1.4084033 1.1750712 -0.21455333
1.4107223 1.1848216 -0.21196747
1.4079403 1.1937813 -0.21423705
1.4050754 1.2062201 -0.21456623
1.4068961 1.2313265 -0.21356928
1.4040265 1.2662052 -0.21477064
1.4046981 1.3501072 -0.2100336
1.4091898 1.3751169 -0.21138552
1.3853791 1.3836603 -0.2140235
1.4010534 1.3858767 -0.21130556
1.3847345 1.394938 -0.21441847
1.4067492 1.3990693 -0.21223725
1.3886995 1.406453 -0.21087131
1.4055289 1.4110456 -0.21266313
1.3883588 1.4174807 -0.21126416
1.3848169 1.4349422 -0.21174541
1.4030883 1.4349978 -0.21351486
1.401868 1.446974 -0.21394074
1.3873367 1.4505639 -0.21244279
1.4006476 1.4589503 -0.21436661
1.3869962 1.4615917 -0.21283567
1.3805994 1.4742767 -0.2130059
1.3994274 1.4709263 -0.21479249
1.3787799 1.4872652 -0.21031246
1.3802601 1.4852588 -0.21339715
1.3799208 1.4962409 -0.21378839
1.3848288 1.499126 -0.21111423
1.3795816 1.5072229 -0.21417964
1.3845825 1.5137413 -0.21315736
1.3839338 1.5250683 -0.21355401
1.3846297 1.5326581 -0.21471795
1.3810027 1.5456309 -0.21271603
1.3870256 1.5578105 -0.21352877
1.3860648 1.5694898 -0.21393105
1.3851037 1.5811691 -0.21433333
1.3841429 1.5928485 -0.21473561
1.4032952 1.6178021 -0.21025659
1.403901 1.6280408 -0.21061487
1.3857878 1.6928227 -0.21026267
1.3914717 1.7031995 -0.21086828
1.3911282 1.7143185 -0.2112644
1.3907847 1.7254376 -0.21166053
1.3904412 1.7365568 -0.21205667
1.3900976 1.7476758 -0.2124528
1.3897542 1.7587949 -0.21284892
1.3894106 1.7699139 -0.21324503
1.3950833 1.780656 -0.21386367
1.3943936 1.8029855 -0.21465918
1.396302 1.8715533 -0.21430218
1.3998955 1.2384207 -0.20516668
1.3995534 1.2494941 -0.20556119
1.3992113 1.2605675 -0.20595568
1.3988692 1.271641 -0.20635018
1.4040129 1.2780285 -0.20525323
1.3985271 1.2827144 -0.20674469
1.4029298 1.2897766 -0.2056645
1.398185 1.2937877 -0.20713918
1.4018469 1.3015248 -0.20607579
1.3917657 1.3072033 -0.20733544
1.3952816 1.3148016 -0.20613065
1.4013942 1.3134395 -0.20826712
1.3971587 1.327008 -0.20832267
1.407128 1.3262609 -0.20918563
1.3968166 1.3380814 -0.20871718
1.4059131 1.3381841 -0.20960961
1.384156 1.3487333 -0.20520382
1.3904029 1.3513143 -0.20890695
1.3892536 1.359961 -0.20592761
1.3900623 1.362342 -0.2092998
1.3890116 1.372452 -0.20800945
1.3813107 1.3833159 -0.20639497
1.3863971 1.3946804 -0.20712347
1.3854451 1.4062535 -0.20752209
1.3844929 1.4178265 -0.20792073
1.3835409 1.4293997 -0.20831934
1.3825886 1.4409728 -0.20871797
1.3886549 1.4526211 -0.20951241
1.3806844 1.464119 -0.20951521
1.3737235 1.4755366 -0.20957141
1.4026924 1.522917 -0.20706995
1.3898931 1.5599418 -0.20552868
1.3996606 1.55637 -0.20810688
1.3955938 1.5697706 -0.20611477
1.4002664 1.5666087 -0.20846516
1.4038968 1.57428 -0.2060591
1.4014779 1.587086 -0.20918173
1.3949068 1.5920087 -0.20690703
1.4035286 1.5963573 -0.20682517
1.3945633 1.6031278 -0.20730315
1.4026895 1.6075635 -0.20989829
1.3942198 1.6142468 -0.20769927
1.3938763 1.625366 -0.2080954
1.3935328 1.6364851 -0.20849153
1.3931892 1.6476041 -0.20888765
1.3928457 1.6587232 -0.20928378
1.3925022 1.6698422 -0.2096799
1.38613 1.6817493 -0.20986818
1.411303 1.1471018 -0.20188959
1.4100989 1.1589189 -0.20230982
1.4159083 1.170998 -0.2032019
1.4076986 1.1802092 -0.20337453
1.4126769 1.1840429 -0.20196301
1.4078468 1.1941808 -0.20268118
1.407012 1.2057017 -0.20308678
1.4005797 1.2162739 -0.20437768
1.4110702 1.2184784 -0.20489031
1.4036325 1.2257551 -0.20370221
1.4068291 1.2317228 -0.20190382
1.4037714 1.2424939 -0.20377779
1.406179 1.2545321 -0.20443067
1.4050958 1.2662802 -0.20484194
1.3860528 1.3256781 -0.2044097
1.3851044 1.3372056 -0.20480676
1.3943403 1.4159874 -0.2004002
1.4000595 1.4252226 -0.20096514
1.3936561 1.4381343 -0.20118919
1.393314 1.4492077 -0.20158368
1.3929719 1.4602811 -0.20197819
1.3926297 1.4713545 -0.20237269
1.3922877 1.482428 -0.20276719
1.3919456 1.4935013 -0.20316169
1.3941176 1.5048757 -0.2049358
1.3931004 1.5141848 -0.20360844
1.3938763 1.5251439 -0.20265093
1.3949648 1.5363288 -0.20449694
1.3947309 1.5473437 -0.20488255
1.4009166 1.5593189 -0.202528
1.3971138 1.5818899 -0.20492539
1.3910462 1.7147124 -0.20014027
1.4144812 1.138713 -0.1987002
1.4125681 1.1619654 -0.19950111
1.4126602 1.1756759 -0.19614328
1.404525 1.2806747 -0.1958155
1.4041815 1.2917938 -0.19621162
1.4106402 1.2909042 -0.19592911
1.403838 1.3029128 -0.19660775
1.415776 1.3021619 -0.19503549
1.4053159 1.3134871 -0.19518298
1.4046637 1.3248863 -0.19558218
1.4040115 1.3362856 -0.1959814
1.3963928 1.3495469 -0.1980332
1.3960508 1.3606205 -0.19842771
1.3957087 1.3716938 -0.1988222
1.4023328 1.371339 -0.19537351
1.3953665 1.3827672 -0.19921669
1.401372 1.3830184 -0.19577578
1.3950245 1.3938406 -0.19961119
1.4004109 1.3946977 -0.19617806
1.3886182 1.4068437 -0.1998385
1.3994501 1.4063771 -0.19658035
1.3984892 1.4180564 -0.19698262
1.3975282 1.4297358 -0.19738491
1.3965673 1.4414151 -0.1977872
1.3956065 1.4530945 -0.19818947
1.3946455 1.4647738 -0.19859175
1.3936846 1.4764532 -0.19899404
1.3927238 1.4881325 -0.19939631
1.391763 1.4998119 -0.1997986
1.4058654 1.6237304 -0.19727933
1.399485 1.6359098 -0.19752306
1.4133641 1.1889249 -0.19278277
1.4160819 1.2037659 -0.19307087
1.4126742 1.2112544 -0.19357829
1.4123293 1.2224191 -0.19397604
1.405899 1.2361984 -0.194231
1.412271 1.2438073 -0.19285998
1.4125071 1.2551979 -0.19372571
1.4116669 1.2667869 -0.19413371
1.4109375 1.2784426 -0.19383019
1.4161386 1.2889168 -0.19287445
1.4042547 1.3479803 -0.19456893
1.4032936 1.3596597 -0.19497122
1.3996339 1.4367355 -0.1902371
1.4053487 1.4461093 -0.19076125
1.4110603 1.4555745 -0.19128865
1.4046588 1.4684387 -0.19155675
1.4043139 1.4796035 -0.19195451
1.4039689 1.4907683 -0.19235227
1.409675 1.500416 -0.19288616
1.4093287 1.5116265 -0.19328554
1.4089824 1.5228369 -0.19368492
1.4086361 1.5340472 -0.1940843
1.4055228 1.5475154 -0.19247079
1.4018995 1.5577567 -0.19473878
1.4152163 1.3210497 -0.18649608
1.41487 1.3322601 -0.18689546
1.4084529 1.3456266 -0.18718147
1.4045565 1.374571 -0.18811753
1.4072285 1.3925974 -0.18675594
1.4006644 1.4033782 -0.18904874
1.4063834 1.4126151 -0.189568
1.4060385 1.4237797 -0.18996575
1.4146454 1.4774065 -0.18815392
1.4172943 1.2537873 -0.18409981
1.4083488 1.3831766 -0.18433526
