# .PCD v0.7 - Point Cloud Data file format
VERSION 0.7
FIELDS x y z
SIZE 4 4 4
TYPE F F F
COUNT 1 1 1
WIDTH 461
HEIGHT 1
VIEWPOINT 0 0 0 1 0 0 0
POINTS 461
DATA ascii
4.1137795 2.5412245 -0.82721627
4.1136761 2.5426788 -0.8111757
4.1367846 2.5441885 -0.81425905
4.3413644 2.5519807 -0.81456989
4.0679235 2.540029 -0.80503929
4.0907226 2.5412924 -0.80810249
4.1135731 2.5441332 -0.79513514
4.1366806 2.5456514 -0.7981199
4.3090305 2.5531397 -0.79751575
4.5809722 2.563765 -0.79641652
4.09062 2.5427377 -0.79216051
4.2869358 2.5534651 -0.7948525
4.3411102 2.5536675 -0.79461217
4.531652 2.563508 -0.79096377
4.0678215 2.5414653 -0.78919601
4.2935648 2.5491638 -0.78553796
4.3187132 2.5510285 -0.78855717
4.424922 2.5561259 -0.78536832
4.1365767 2.5471148 -0.78198075
4.2677445 2.5480595 -0.78237677
4.6066818 2.5648472 -0.78286403
4.090517 2.544183 -0.77621859
4.1134691 2.5455873 -0.77909458
4.2868857 2.5548062 -0.77965069
4.1830578 2.552774 -0.77357638
4.2075481 2.553288 -0.77441704
4.3089647 2.5503473 -0.77079511
4.3408561 2.5553541 -0.77465439
4.3761334 2.5554998 -0.77442241
4.5049505 2.56319 -0.77085799
4.5267816 2.5626478 -0.77304077
4.6941342 2.5729141 -0.77271676
4.1364727 2.5485778 -0.76584148
4.2676363 2.5495782 -0.76562297
4.2934561 2.550693 -0.76867032
4.4609652 2.5652537 -0.76636469
4.6066275 2.566298 -0.7664175
4.6323881 2.5673432 -0.76743031
4.9802589 2.5827465 -0.76539993
4.090414 2.5456281 -0.76027668
4.1133661 2.5470414 -0.76305401
4.2428284 2.5479741 -0.76273221
4.1089339 2.5524554 -0.76370615
4.2293987 2.5500154 -0.7606374
4.3913236 2.5527411 -0.7610662
4.2656541 2.5558367 -0.76212513
4.2868357 2.5561471 -0.76444888
4.4246616 2.5578518 -0.76494741
4.5628967 2.57019 -0.76064324
4.9265919 2.5839818 -0.76065385
4.9528818 2.5836391 -0.76295811
4.0676174 2.544338 -0.75750947
4.1945329 2.5445213 -0.75712764
4.2074423 2.5547788 -0.75797427
4.2229686 2.5562124 -0.75735164
4.3535271 2.556879 -0.75644165
4.3760824 2.5568728 -0.75885618
4.4935789 2.5577035 -0.7554425
4.4230556 2.565547 -0.75536561
4.6940947 2.5741816 -0.75695056
4.7179823 2.5736451 -0.75915253
4.8584495 2.5782745 -0.7552014
4.1702189 2.5433097 -0.75426924
4.2933474 2.5522223 -0.75180268
4.3087125 2.5520215 -0.7509892
4.18221 2.5553088 -0.75362456
4.3406019 2.5570409 -0.75469673
4.3829899 2.5552542 -0.75080228
4.4454279 2.5581579 -0.75044632
4.46942 2.5578775 -0.75293994
4.460928 2.5664558 -0.75141108
4.632349 2.5685954 -0.75185394
4.6558318 2.567832 -0.75403875
4.669539 2.5755024 -0.75462127
4.8327775 2.5789628 -0.75292337
4.1132627 2.5484958 -0.74701345
4.108696 2.5540338 -0.74503136
4.1369395 2.554352 -0.74910808
4.2665663 2.5541337 -0.74793798
4.1408062 2.5566101 -0.74819314
4.2867851 2.557488 -0.74924701
4.4119697 2.5668037 -0.74632406
4.4395428 2.5672405 -0.74933076
4.5617275 2.5696619 -0.74769133
4.5628586 2.5714202 -0.74534035
4.5858631 2.5703895 -0.74750471
4.7428379 2.5737967 -0.74554014
4.7679052 2.5727699 -0.74779248
4.0675149 2.5457745 -0.7416662
4.0903115 2.5470734 -0.74433482
4.1944265 2.5460119 -0.74068487
4.2189064 2.5473657 -0.7434479
4.353476 2.5582442 -0.74096656
4.3760309 2.5582461 -0.74329007
4.3949022 2.5563998 -0.74321336
4.4244018 2.5595775 -0.74452674
4.5059795 2.5667038 -0.74035966
4.5400143 2.5725405 -0.74318266
4.899539 2.5864015 -0.74177027
4.9265504 2.5853133 -0.7440902
4.0456586 2.5439284 -0.73914963
4.1701136 2.5447907 -0.7379328
4.469367 2.5592842 -0.73699439
4.493526 2.559119 -0.73939818
4.2118449 2.5611472 -0.73878968
4.4608908 2.5676579 -0.73645747
4.4904404 2.5684662 -0.73954099
4.6323104 2.5698476 -0.73627758
4.6557927 2.5690918 -0.73837125
4.6694999 2.576762 -0.73895371
4.8584089 2.5795889 -0.73885036
4.100565 2.5399432 -0.73014688
4.1131592 2.5499499 -0.73097289
4.1362643 2.5515041 -0.73356318
4.2932386 2.5537515 -0.73493505
4.2664871 2.5555599 -0.7320019
4.2867351 2.5588291 -0.73404521
4.3086443 2.5561156 -0.73376369
4.3403473 2.5587277 -0.73473895
4.4223528 2.5592465 -0.73234212
4.4453754 2.559556 -0.73459935
4.4784021 2.5564542 -0.73027968
4.2309189 2.5623999 -0.73219228
4.4225793 2.5670199 -0.73178971
4.4395056 2.5684357 -0.73446071
4.5628209 2.5726504 -0.73003733
4.5858245 2.5716271 -0.73211062
4.7678652 2.5740604 -0.73173761
4.7931051 2.5731382 -0.73389858
4.8072376 2.5810466 -0.73449916
4.0674129 2.5472107 -0.72582293
4.2187996 2.5488658 -0.72689903
4.3826895 2.5542011 -0.72765368
4.2021179 2.5587983 -0.72533023
4.2593751 2.5582635 -0.72529829
4.353425 2.5596094 -0.72549152
4.3759794 2.5596192 -0.72772396
4.3947477 2.5579467 -0.725254
4.5177979 2.5604842 -0.72566795
4.5908909 2.561518 -0.72664726
4.5048375 2.5668383 -0.72547317
4.5266676 2.5663161 -0.72740525
4.5399761 2.5737634 -0.72797084
4.9120178 2.5785356 -0.72691071
4.9265089 2.5866446 -0.72752655
4.1700082 2.5462718 -0.72159636
4.1943207 2.5475025 -0.72424221
4.1610379 2.5589678 -0.72108483
4.1815076 2.5588379 -0.72320378
4.3087778 2.5598848 -0.72105122
4.4934731 2.5605342 -0.72335392
4.3217001 2.5681453 -0.72173727
4.4608536 2.5688601 -0.72150385
4.4823852 2.5681703 -0.72342324
4.680223 2.5689979 -0.72483188
4.6322718 2.5710998 -0.72070122
4.6557536 2.5703511 -0.72270375
4.8850999 2.5796676 -0.72470111
4.8583679 2.5809033 -0.72249937
3.9800801 2.5411592 -0.71604389
4.1361604 2.5529673 -0.71742392
4.1407099 2.5591879 -0.7189734
4.2655039 2.5598373 -0.71677017
4.2931299 2.5552807 -0.71806747
4.2115998 2.5627716 -0.71956831
4.286685 2.5601702 -0.71884334
4.2921247 2.5648887 -0.71687329
4.4223003 2.5606365 -0.71658629
4.5185056 2.5604305 -0.71882284
4.5925674 2.5617666 -0.71634024
4.4394684 2.5696311 -0.71959066
4.3971367 2.571419 -0.71578276
4.4182296 2.5704842 -0.71768361
4.5857863 2.5728645 -0.71671653
4.6089492 2.5719376 -0.71870548
4.7930651 2.5744367 -0.71774501
4.7678251 2.575351 -0.71568286
4.8071976 2.582345 -0.71834558
4.0775895 2.540019 -0.71163011
4.100462 2.5413976 -0.71410632
4.1130557 2.551404 -0.71493232
4.2186933 2.5503664 -0.71035004
4.242506 2.5525017 -0.71278948
4.2546721 2.5549242 -0.71281409
4.3082075 2.5553691 -0.71137744
4.2020688 2.5601091 -0.7104699
4.2228203 2.5601673 -0.7125203
4.3400931 2.5604143 -0.71478128
4.3533735 2.5609746 -0.71001649
4.3759279 2.5609922 -0.71215785
4.3986359 2.5611086 -0.71430731
4.5047998 2.5680544 -0.71034485
4.5266299 2.5675392 -0.71219337
4.5493941 2.5663891 -0.71416545
4.7287989 2.5685503 -0.71303475
4.5627828 2.5738807 -0.71473438
4.0229645 2.5457087 -0.70519388
4.1699028 2.5477529 -0.70525986
4.1942148 2.5489931 -0.70779955
4.0124784 2.5516999 -0.7063477
4.1082201 2.5571904 -0.70768183
4.2591262 2.5599122 -0.70578849
4.478138 2.5582075 -0.7095325
4.1609893 2.5602641 -0.70639151
4.181459 2.5601416 -0.70842695
4.3087273 2.5612338 -0.70575833
4.3309736 2.5610547 -0.7078833
4.4692621 2.5620973 -0.70510316
4.4934201 2.5619497 -0.7073096
4.4221029 2.5684929 -0.70821381
4.4608164 2.5700619 -0.70655018
4.6322327 2.5723519 -0.70512486
4.655715 2.5716105 -0.7070362
4.8440223 2.574213 -0.70554042
4.8850594 2.5809903 -0.70824373
4.0014009 2.5440784 -0.70287848
4.123385 2.5443621 -0.70045364
4.2797775 2.5462871 -0.70033121
4.3048391 2.5481334 -0.70281386
4.1360564 2.5544305 -0.70128477
4.2286587 2.5549254 -0.70254064
4.2737894 2.5532994 -0.70295966
4.4089351 2.5535157 -0.70012361
4.43188 2.5537918 -0.70219463
4.2866344 2.561511 -0.70364153
4.5903921 2.5630598 -0.70196903
4.6186056 2.5647264 -0.70454574
4.3556862 2.5673971 -0.70103645
4.5722799 2.5665655 -0.70075011
4.3971 2.5726008 -0.70107985
4.4181929 2.5716727 -0.70289707
4.4394317 2.5708265 -0.7047205
4.8184371 2.5749259 -0.70356226
4.1003585 2.5428517 -0.69806576
4.2293282 2.5436254 -0.69528472
4.2540507 2.545202 -0.69774508
4.3583584 2.5524828 -0.69700551
4.3627234 2.5539575 -0.69589341
4.385354 2.5540323 -0.6979478
4.182085 2.5592258 -0.69723761
4.2020197 2.56142 -0.69560957
4.2227707 2.5614853 -0.69757652
4.2436628 2.561641 -0.69955093
4.5156498 2.5616293 -0.69550836
4.5359678 2.5601273 -0.69829357
4.3433576 2.5668325 -0.69703794
4.5493565 2.5676191 -0.69886249
4.7287593 2.569833 -0.69707859
4.7537394 2.5687819 -0.69903111
4.3560815 2.5739527 -0.69757861
4.3761535 2.5736108 -0.69926876
4.0115023 2.5524273 -0.69433165
4.0672088 2.5500832 -0.69413644
4.1941085 2.5504837 -0.69135684
4.3402462 2.5539806 -0.69384724
4.3079553 2.5570431 -0.69157153
4.1609411 2.5615602 -0.69169813
4.1814098 2.561445 -0.69365013
4.3086767 2.562583 -0.69046539
4.2916646 2.5663104 -0.6941185
4.6419687 2.5651999 -0.69078624
4.4607792 2.571264 -0.69159663
4.4738622 2.5785847 -0.69215256
4.0013003 2.5454893 -0.68731594
4.0228634 2.547128 -0.68954027
4.146462 2.5474679 -0.68661386
4.1697979 2.5492337 -0.68892336
4.3047299 2.5496724 -0.68584007
4.2750077 2.5534253 -0.68804681
4.4432797 2.5549054 -0.68541318
4.4557352 2.5548906 -0.68844229
4.1079822 2.5587687 -0.68900704
4.4318275 2.5551896 -0.68634772
4.2865844 2.5628519 -0.68843961
4.2300143 2.5651946 -0.68745822
4.417377 2.5738349 -0.68650591
4.4393945 2.572022 -0.68985045
4.123281 2.5458255 -0.68431449
4.2539425 2.546721 -0.68099129
4.2796688 2.5478163 -0.68346363
4.0899 2.5528545 -0.68056715
4.1981406 2.5517774 -0.68008709
4.2284122 2.5565624 -0.68317509
4.3626719 2.5553305 -0.6803273
4.3815732 2.5596333 -0.6807133
4.2019706 2.562731 -0.6807493
4.2227216 2.5628037 -0.68263268
4.2436132 2.5629663 -0.6845237
4.3758249 2.5637386 -0.68102551
4.3985324 2.5638709 -0.68299288
4.5132456 2.5625377 -0.6812042
4.5359302 2.5613575 -0.68299055
4.3227339 2.5692058 -0.68078208
4.3433213 2.5680017 -0.6824944
4.363327 2.5676289 -0.68410575
4.5493183 2.5688493 -0.68355948
4.3761168 2.5747862 -0.68464929
3.9840918 2.5485919 -0.6755138
4.0452523 2.5496407 -0.67614073
4.2292209 2.5451348 -0.67863709
4.0103416 2.5534425 -0.67829633
4.0671062 2.5515196 -0.67829317
4.3581023 2.5541825 -0.67689598
4.1527576 2.5558596 -0.67519492
4.3401952 2.5553455 -0.6783722
4.5039973 2.5560365 -0.67651498
4.1608925 2.5628562 -0.67700487
4.1813612 2.5627484 -0.6788733
4.3086262 2.5639319 -0.67517251
4.4914889 2.5630803 -0.67952579
4.6419296 2.5664594 -0.67511874
4.2826991 2.571095 -0.67748213
4.460742 2.5724661 -0.67664295
4.0012002 2.5469003 -0.67175341
4.0227623 2.548547 -0.67388672
4.1463571 2.5489402 -0.67037606
4.3261185 2.5489988 -0.67378753
4.1088104 2.5547481 -0.67274731
4.1238585 2.5510828 -0.6722517
4.169692 2.5507147 -0.67258692
4.1940026 2.5519745 -0.67491412
4.2525792 2.5556717 -0.67073691
4.2736888 2.5559816 -0.67255592
4.2957039 2.5556712 -0.67448652
4.3164773 2.5586958 -0.67408502
4.4317751 2.5565877 -0.67050076
4.4797564 2.5561137 -0.67450142
4.6185279 2.5672307 -0.67339301
4.4393578 2.5732174 -0.6749804
3.9797809 2.5453668 -0.66962945
4.1001515 2.5457602 -0.66598469
4.1231766 2.5472884 -0.66817528
4.2760262 2.5538712 -0.66868186
4.0800114 2.5553536 -0.66751742
4.2537603 2.5577428 -0.66769981
4.3852506 2.5567946 -0.66663337
4.2019215 2.5640419 -0.66588897
4.222672 2.5641217 -0.66768897
4.5132079 2.5637603 -0.66599238
4.535892 2.5625877 -0.66768754
4.3432851 2.569171 -0.66795087
4.3632903 2.568804 -0.66948628
4.5492802 2.5700793 -0.66825652
4.077281 2.5443547 -0.66380429
4.0451508 2.5510688 -0.66038853
4.197896 2.5534017 -0.66086572
4.408947 2.5530663 -0.66347629
4.2281651 2.5581989 -0.66380954
4.3178215 2.5568161 -0.66104126
4.3401442 2.5567107 -0.66289711
4.3626204 2.5567036 -0.66476119
4.1608438 2.5641525 -0.66231149
4.1813126 2.5640521 -0.66409647
4.4914513 2.5642965 -0.66439748
4.2507582 2.5659523 -0.66114056
4.4476223 2.5663476 -0.66113341
4.4511919 2.5681777 -0.66227359
4.46908 2.5656438 -0.66271555
4.1567607 2.5420046 -0.65540922
4.1809869 2.5432076 -0.65762472
4.20538 2.5445433 -0.65985113
4.0010996 2.548311 -0.65619087
4.0226617 2.5499663 -0.65823317
3.9838619 2.5501161 -0.65747672
4.1258955 2.5545621 -0.65665948
4.1087623 2.55603 -0.65821338
4.1353645 2.5556374 -0.65565079
4.1525164 2.5574608 -0.6562469
4.2525291 2.5570054 -0.65561855
4.2736387 2.5573225 -0.65735406
4.2956533 2.5570202 -0.65919363
4.3578458 2.555882 -0.65678644
4.4797034 2.557529 -0.6584571
4.1335039 2.5402822 -0.65330201
4.3719683 2.5497184 -0.6502738
4.3258638 2.5506856 -0.65382981
4.3422537 2.5507588 -0.65375328
4.0499301 2.556777 -0.65305841
4.1893158 2.5573258 -0.65036207
4.2099953 2.557368 -0.65207481
4.2308164 2.5575004 -0.65379506
4.4998617 2.5575361 -0.65021503
4.5224657 2.5563259 -0.65181565
4.3305254 2.56322 -0.6528666
4.5358539 2.5638177 -0.65238464
4.0544634 2.5445085 -0.64579076
4.077178 2.5458 -0.64786237
4.1000481 2.5472143 -0.64994419
4.2784662 2.5499616 -0.64765805
4.3270168 2.5497169 -0.64672792
4.3494158 2.5496683 -0.64849675
4.052218 2.5521083 -0.6462999
4.2452164 2.5504022 -0.64620483
4.0797749 2.556921 -0.64897168
4.1281233 2.55774 -0.6452688
4.168777 2.5573735 -0.64865685
4.4781785 2.5581064 -0.64870673
4.0102706 2.5416198 -0.64177346
4.0326819 2.54267 -0.64382517
4.180881 2.5446982 -0.64118201
3.9450407 2.5496571 -0.64431572
4.2052736 2.5460434 -0.64330214
4.2148514 2.5454855 -0.64339757
4.2607427 2.5504522 -0.64147037
4.2826805 2.5501084 -0.6432147
4.1087141 2.557312 -0.64367938
4.2956028 2.5583692 -0.64390069
4.133399 2.5417545 -0.63706422
4.1566553 2.5434856 -0.63907278
3.9583063 2.5467358 -0.63675416
3.9795814 2.548172 -0.63868654
4.1684785 2.5499227 -0.63895231
4.3761034 2.5480015 -0.63840336
3.9836321 2.5516405 -0.63943964
4.2397046 2.5501728 -0.63982201
4.4079514 2.5530272 -0.63650095
4.5451908 2.5564427 -0.6380291
4.064559 2.5373001 -0.63109958
3.8960814 2.5424097 -0.63110656
3.9161847 2.544204 -0.6329174
3.9371738 2.545413 -0.63483107
4.0770755 2.5472453 -0.63192052
4.0973063 2.5491667 -0.63293862
4.2938347 2.5473883 -0.63108379
4.3269653 2.5510819 -0.63125288
4.3493643 2.5510416 -0.63293064
4.3719168 2.5510998 -0.63461661
4.0101695 2.5430391 -0.62611991
4.0325804 2.5440979 -0.62807298
4.0670252 2.5447459 -0.62942398
4.2441559 2.5422039 -0.62772691
4.2622643 2.5426292 -0.62831181
4.0246019 2.5490322 -0.62535441
4.28263 2.5514576 -0.62792182
4.3047209 2.5512204 -0.62958324
3.9461312 2.5385351 -0.62058175
3.9673343 2.539923 -0.62241834
3.9886804 2.5414243 -0.62426448
4.1565499 2.5449667 -0.62273622
4.1844363 2.5424075 -0.6213845
4.2146049 2.5471222 -0.62403202
4.064456 2.5387454 -0.61515766
3.8959839 2.5437799 -0.61599177
4.0872474 2.5401158 -0.61703706
4.1103201 2.5417614 -0.61686385
4.313838 2.5440879 -0.61508363
4.0418196 2.5374975 -0.61328846
4.0818286 2.5374055 -0.61228997
3.8752751 2.5427852 -0.61418748
4.2696567 2.5445461 -0.61194295
4.2916708 2.5442677 -0.61350924
3.9763615 2.5331266 -0.60790056
4.1436186 2.5362563 -0.60555851
4.1677589 2.5374217 -0.60744989
4.0974178 2.5330045 -0.60195637
4.1204405 2.5345688 -0.60375237
3.8840194 2.5357208 -0.60009855
3.9040561 2.5374784 -0.60173821
3.9249725 2.5386472 -0.60346508
3.8920255 2.5293751 -0.58575726
3.8720548 2.527662 -0.58420545
