# .PCD v0.7 - Point Cloud Data file format
VERSION 0.7
FIELDS x y z
SIZE 4 4 4
TYPE F F F
COUNT 1 1 1
WIDTH 1486
HEIGHT 1
VIEWPOINT 0 0 0 1 0 0 0
POINTS 1486
DATA ascii
3.2747951 -0.40291482 0.97602487
3.3203192 -0.40112525 0.9792521
3.0800955 -0.39321455 0.97599262
2.8677237 -0.38599023 0.97767574
2.946573 -0.37638539 0.97836089
3.2722368 -0.37809581 0.97510052
2.758359 -0.3731401 0.97661334
3.0559204 -0.37308204 0.97673792
2.8673942 -0.36379325 0.97661471
2.9476397 -0.35606337 0.97657496
2.9239721 -0.35010535 0.97899646
3.055172 -0.34969985 0.97579032
2.867065 -0.34159625 0.97555375
3.1197493 -0.34275824 0.97581303
3.0252788 -0.33766556 0.97928041
3.1618733 -0.33980364 0.97949266
2.8231845 -0.33441299 0.97785515
2.9439626 -0.33394155 0.97704875
2.9232554 -0.32772002 0.97808927
2.9428587 -0.32865629 0.97704458
3.0758045 -0.32024759 0.97580492
2.849869 -0.31563905 0.97514027
2.8212941 -0.31283766 0.97696811
2.942399 -0.31140959 0.97620666
2.9225388 -0.3053346 0.97718203
2.9425209 -0.30588099 0.9759559
2.6821535 -0.29664555 0.97556055
2.7340653 -0.29634455 0.97714067
2.8194034 -0.29126221 0.97608107
3.0212302 -0.29146624 0.97738093
2.8017254 -0.28610918 0.97943199
2.9399464 -0.28919369 0.97692943
2.9772809 -0.28748912 0.97533977
2.7479448 -0.28338611 0.97674465
2.8168793 -0.26529837 0.97673881
2.9224353 -0.26358384 0.97753078
3.0183797 -0.26469475 0.97789299
2.5993457 -0.25624138 0.9785592
2.6382174 -0.2501573 0.97875774
2.7034848 -0.2524237 0.97661692
2.921469 -0.24432212 0.97886407
2.5975986 -0.23630399 0.97773951
2.8151379 -0.23927426 0.97755563
2.7016687 -0.23169762 0.97576481
2.6886573 -0.22707641 0.979684
2.7996631 -0.22169217 0.97682148
2.5958514 -0.21636683 0.97691983
2.6570926 -0.21696311 0.97983068
2.7016783 -0.21505733 0.97902709
2.8140297 -0.21763867 0.97682774
2.7661037 -0.21146739 0.97789961
2.63761 -0.20921806 0.97680086
2.6879969 -0.2064487 0.97884804
2.8841119 -0.20544666 0.97573155
2.7958543 -0.19646341 0.97849727
2.8129218 -0.19600308 0.97609985
2.7013674 -0.19410069 0.97802538
2.6873364 -0.18582094 0.97801208
2.4954691 -0.18274689 0.97694284
2.5359621 -0.18000324 0.97867185
2.5526369 -0.18272084 0.97993332
2.5923572 -0.17649204 0.97528034
2.6250916 -0.17792997 0.97533149
2.6535172 -0.17616326 0.97815329
2.9145792 -0.17747647 0.97637451
2.6994882 -0.17258829 0.97756886
2.8118136 -0.17436737 0.97537196
3.1718917 -0.17385244 0.97632962
2.5265222 -0.16521111 0.97731066
2.686676 -0.1651932 0.97717613
2.8325713 -0.16869444 0.97951335
2.5356698 -0.16030218 0.97773015
2.5509164 -0.16308707 0.97912604
2.9901969 -0.16054469 0.97942865
3.1291804 -0.16252548 0.97816861
2.7687836 -0.15682633 0.97858793
3.1951103 -0.15803647 0.97994483
2.5841062 -0.15272835 0.97934175
2.6984239 -0.15180439 0.9768697
2.7007456 -0.15218745 0.97602201
3.1794727 -0.15103877 0.97869629
3.731056 -0.15480494 0.97577035
3.4246445 -0.14880788 0.97873443
3.7531419 -0.14839774 0.9774375
3.8075502 -0.14777362 0.97642118
2.7640471 -0.14367825 0.97948861
3.0976851 -0.14205503 0.97903651
3.2863653 -0.14139175 0.97892141
3.3363087 -0.14118749 0.97630149
3.7811852 -0.14373946 0.97556269
3.4238687 -0.13182759 0.97633517
3.1227939 -0.12800503 0.97796959
3.1607797 -0.12567052 0.97836173
3.2441192 -0.12670779 0.9773432
3.6223555 -0.12863451 0.97780091
3.3091285 -0.12330484 0.97742856
3.3867111 -0.12134989 0.9792105
3.1479027 -0.11395454 0.97690254
3.2686234 -0.11104321 0.97604239
3.3156445 -0.11442443 0.97508448
3.684813 -0.10698087 0.97714281
3.4841478 -0.070553303 0.97771847
3.5094419 -0.053697109 0.97573316
3.0815084 -0.48845541 0.98054504
3.0374241 -0.47626352 0.98497874
3.1680777 -0.46094781 0.98356831
3.1426978 -0.45969352 0.98289728
3.1764271 -0.4576242 0.98185521
3.0353999 -0.45316398 0.984029
3.1679971 -0.45409805 0.98093015
2.9555266 -0.44606543 0.98027533
3.2662361 -0.44064844 0.98483008
3.1419289 -0.43567213 0.98192382
3.1668367 -0.43671906 0.98275328
3.0333757 -0.43006432 0.98307925
3.3216205 -0.4265328 0.98010683
3.2640584 -0.41579688 0.98380834
3.1411598 -0.41165087 0.98095036
3.165596 -0.41249013 0.98193812
3.0028679 -0.40937445 0.98404741
3.0313513 -0.40696454 0.98212951
2.8288565 -0.39913893 0.98051625
3.1130731 -0.38934875 0.98495275
3.164355 -0.38826132 0.98112297
3.2552857 -0.3856504 0.98460567
3.0293272 -0.383865 0.98117989
2.8193376 -0.37869656 0.98345441
3.027303 -0.36076534 0.98023015
3.1631143 -0.36403245 0.98030782
3.0222983 -0.3536796 0.98247194
2.874485 -0.34133211 0.98436236
3.0633931 -0.34311157 0.98111486
2.8957427 -0.33817482 0.9811886
3.0211122 -0.33051538 0.98169267
2.703233 -0.31984049 0.98403561
2.8938043 -0.31605363 0.98027903
2.6391284 -0.31156614 0.98169303
2.802413 -0.30758145 0.98030221
3.0199258 -0.30735117 0.98091328
2.664243 -0.29856271 0.98318559
2.6388247 -0.29109654 0.98071456
2.6906385 -0.28895968 0.98219192
2.6624553 -0.27816266 0.98234683
2.7562933 -0.27872783 0.98461723
2.7705879 -0.271393 0.98378539
2.5971997 -0.26563251 0.98499334
2.5595191 -0.26125675 0.98316222
2.6606677 -0.25776285 0.9815082
2.7556169 -0.25759786 0.98376095
2.5969007 -0.24547486 0.98402977
2.6600323 -0.24530172 0.9847337
2.6893177 -0.24770418 0.98052001
2.6588802 -0.23736304 0.98066944
2.4434791 -0.22891712 0.9843092
2.5966015 -0.22531722 0.98306632
2.556078 -0.22198886 0.98154777
2.6462758 -0.22082835 0.98449707
2.6589847 -0.22484487 0.98404551
2.7697394 -0.22124855 0.98166722
2.8700876 -0.22462207 0.98319352
2.5365467 -0.21940534 0.98055524
2.5860128 -0.21228328 0.98175526
2.5972338 -0.2108314 0.98075628
2.5963025 -0.20515962 0.98210275
2.5556495 -0.20166652 0.98425978
2.6456256 -0.20052016 0.98367405
2.657937 -0.20438802 0.98335719
2.7508309 -0.19939584 0.98348618
2.5853772 -0.19243163 0.98095071
2.6580567 -0.19018017 0.98341739
2.5960033 -0.18500201 0.98113924
2.5555761 -0.18175012 0.98421812
2.6568894 -0.18393117 0.982669
2.4976752 -0.1765238 0.98375034
2.7176876 -0.17584956 0.98120147
2.7486632 -0.1783635 0.98270297
3.240839 -0.17756557 0.98190737
2.5847418 -0.17257997 0.98014629
2.5132322 -0.16968197 0.98398143
2.6132593 -0.16438586 0.98496884
2.9381971 -0.16409272 0.9845444
3.2621071 -0.1618017 0.98028606
2.4973872 -0.1571119 0.98282248
2.6443253 -0.15990382 0.98202801
2.8633127 -0.15888995 0.98074543
3.1208241 -0.15927309 0.98452312
3.2636023 -0.15947866 0.98041439
2.7158575 -0.15496433 0.98034269
3.272696 -0.1502105 0.98272091
3.8571355 -0.15078509 0.98136115
2.7078817 -0.1467475 0.98443067
2.903801 -0.14588195 0.98191661
3.7240658 -0.14773691 0.98256046
2.654794 -0.14301741 0.98129249
2.9135489 -0.14416273 0.98251253
2.8336542 -0.13527757 0.9824996
2.9579177 -0.13559473 0.98051178
3.4385307 -0.13991642 0.98032123
3.5467603 -0.13848591 0.98448557
2.7184091 -0.13482872 0.98400605
3.1326246 -0.13359676 0.9809711
3.9376037 -0.13213885 0.98102218
3.0374928 -0.12635112 0.98370457
3.1807694 -0.12632319 0.98172069
3.7425931 -0.12676907 0.98212785
3.6202648 -0.11423206 0.98251379
3.6754348 -0.11428905 0.98414129
3.5203304 -0.104229 0.9811188
3.5408301 -0.065986872 0.98372817
3.5608428 -0.044008732 0.98212564
3.2727692 -0.51520276 0.98789531
3.2705915 -0.49035132 0.98687357
3.260391 -0.48533392 0.98795927
3.1213906 -0.48426497 0.98885518
3.0250707 -0.4787057 0.98641825
3.086864 -0.47199503 0.98965049
3.3256307 -0.47383571 0.98566204
3.2684138 -0.46549988 0.98585182
3.2591145 -0.46041298 0.98712087
2.8934751 -0.45641416 0.98923987
3.0247238 -0.45532176 0.98530048
3.2314687 -0.45243701 0.98548591
3.0861087 -0.44839975 0.98869419
3.2578382 -0.43549222 0.98628247
2.8931429 -0.43402696 0.98816979
2.9699664 -0.42335737 0.9898988
3.0853531 -0.42480454 0.98773801
3.1088314 -0.42161256 0.98821163
2.8928108 -0.41163969 0.98709965
3.256562 -0.41057128 0.98544407
2.9696255 -0.40038425 0.9888007
3.0845978 -0.40120938 0.98678184
2.9503374 -0.39928809 0.98932087
3.1076128 -0.39781719 0.98741102
2.7722883 -0.39304119 0.98987871
2.8516371 -0.38626802 0.98845869
2.9707401 -0.38596702 0.98893511
2.9496145 -0.37671247 0.98840594
3.1513598 -0.37771708 0.98618317
2.7719696 -0.3715671 0.98885226
3.1063941 -0.37402183 0.98661053
2.734159 -0.36381674 0.98892957
2.8497307 -0.36451077 0.98756415
2.8751898 -0.36334464 0.98525441
2.9695745 -0.36320591 0.98816931
2.771651 -0.35009304 0.98782587
2.8448279 -0.35345888 0.98983991
3.1051755 -0.35022634 0.98580992
2.7035439 -0.34079713 0.98503733
2.7323289 -0.34293151 0.98807079
2.7583227 -0.34211755 0.98718619
2.7738583 -0.33525038 0.98593378
2.8260157 -0.33274895 0.98933744
2.8437107 -0.33164072 0.98910582
2.7304988 -0.32204628 0.98721212
2.7576463 -0.3209877 0.98632979
3.0066936 -0.32059973 0.98538971
2.772768 -0.31396455 0.98521757
2.5977979 -0.30594778 0.98692036
2.8425932 -0.30982262 0.98837185
2.6233833 -0.30334604 0.98816544
2.6488764 -0.30206102 0.98778915
2.7278292 -0.30176914 0.98799813
2.9520936 -0.29891986 0.98956573
2.5974987 -0.28579015 0.98595679
2.6621277 -0.28621548 0.98611021
2.8414757 -0.28800446 0.98763776
2.6216228 -0.28325701 0.98733956
2.6482263 -0.28175288 0.98696613
2.7263777 -0.28085476 0.98721659
2.4991152 -0.27358326 0.98838967
2.659281 -0.27269784 0.98736161
2.7118764 -0.27151832 0.98948705
2.6610801 -0.26575869 0.9854219
2.7248445 -0.26049006 0.98823369
2.5200133 -0.24706513 0.98716301
2.5479076 -0.24558714 0.98791337
2.5571973 -0.24126746 0.98570561
2.6469259 -0.24113649 0.98532009
2.7237718 -0.23954654 0.98752904
2.4985392 -0.23475948 0.98653394
2.5183179 -0.22771937 0.98636764
2.5472815 -0.22603226 0.98712099
2.8219814 -0.22688109 0.98795557
2.4982512 -0.21534759 0.98560607
2.7226994 -0.21860301 0.98682451
2.454684 -0.21199733 0.98875964
2.5189507 -0.2119028 0.98985791
2.5166228 -0.20837361 0.98557216
2.4782071 -0.19511878 0.98943859
2.6162803 -0.19506359 0.98787117
2.7216268 -0.19765937 0.98611987
2.4540803 -0.19314247 0.98799551
2.517957 -0.19250292 0.98920524
3.4510529 -0.19431639 0.98807365
2.5460296 -0.18692249 0.98553598
2.5076928 -0.18155763 0.9899267
2.8175397 -0.18378669 0.98635054
2.4765365 -0.17605352 0.98865467
2.4534767 -0.17428762 0.98723137
2.4603982 -0.17313838 0.98864305
2.5169635 -0.17310309 0.98855257
2.6152487 -0.17491853 0.98719335
2.507076 -0.16229188 0.98914587
2.673193 -0.1620872 0.98546737
3.5041804 -0.16458702 0.98581594
2.452873 -0.1554327 0.98646736
2.4748659 -0.15698838 0.98787087
2.51597 -0.15370333 0.9878999
2.6791775 -0.15008642 0.98938572
2.8551605 -0.1536395 0.9873659
3.4828405 -0.15127331 0.98504806
2.5696423 -0.14961553 0.98639399
3.2929125 -0.14917815 0.98991996
3.6446199 -0.14786386 0.98857814
2.6645429 -0.14167219 0.98908758
3.0631196 -0.14392561 0.98947114
3.4637089 -0.140764 0.98602915
3.458374 -0.13531601 0.98874921
2.7734239 -0.13283953 0.98653936
2.9675167 -0.13059509 0.98709607
3.0752754 -0.13017881 0.98726875
3.5047331 -0.13419104 0.98539627
3.3879199 -0.12528753 0.98658186
3.8708439 -0.12474942 0.98671085
3.3882329 -0.1140976 0.98890555
3.4138792 -0.11076117 0.98547882
3.3487329 -0.10963464 0.98831081
3.2515244 -0.10296202 0.98875695
3.547091 -0.10412902 0.98686922
3.575829 -0.10307574 0.98831481
3.4112523 -0.095807076 0.98739564
3.373513 -0.093794107 0.98699534
3.2769125 -0.088755131 0.98767811
3.5208173 -0.087965012 0.9853307
3.398293 -0.0779531 0.98567998
3.3023002 -0.074548721 0.98659927
3.327688 -0.060342312 0.98552042
2.8941393 -0.50118864 0.99138004
2.986259 -0.50110316 0.99131912
3.3278525 -0.49574485 0.99053788
2.9709888 -0.49227685 0.99319303
3.4266448 -0.4889802 0.99326241
2.8515322 -0.48436755 0.9942441
2.9842701 -0.47840536 0.99038595
2.9525056 -0.467015 0.99206555
2.9706481 -0.46930373 0.99209499
3.0312841 -0.46050099 0.99491131
2.9311724 -0.4582355 0.99475878
3.3551512 -0.45976079 0.99077463
3.0542486 -0.45352423 0.99471176
2.844075 -0.44786268 0.99481332
2.9703071 -0.44633055 0.9909969
2.9517829 -0.44443938 0.99115062
2.9292173 -0.43592453 0.99384147
3.0305421 -0.43732432 0.99397206
2.8437483 -0.42584842 0.99376106
2.8554504 -0.42978275 0.99024779
2.9510601 -0.42186376 0.99023569
2.9272623 -0.41361356 0.99292415
3.0518548 -0.40678519 0.99313927
2.8434217 -0.40383404 0.9927088
2.9199889 -0.39482659 0.99449062
2.925307 -0.39130259 0.99200684
2.8998234 -0.38958541 0.99449861
3.050658 -0.38341564 0.99235308
2.918843 -0.37245333 0.99373794
2.8027632 -0.36838782 0.99264508
2.923352 -0.36899149 0.99108952
2.7266085 -0.36473024 0.99424928
2.9176972 -0.35008001 0.99298525
2.8008878 -0.34698689 0.9917652
2.6601992 -0.33458611 0.99031979
2.7138736 -0.33390376 0.99201536
2.7990124 -0.32558596 0.99088532
2.9165516 -0.32770681 0.99223256
2.5577743 -0.3203252 0.99285203
2.7280624 -0.32332075 0.9903475
2.6091042 -0.31488267 0.99349284
2.6842945 -0.31191254 0.99484217
2.7132077 -0.31310865 0.99117255
2.5826261 -0.30645809 0.99453223
2.5574796 -0.30047196 0.99190307
2.7947993 -0.29807955 0.99294937
2.6084638 -0.29487887 0.9926821
2.4621012 -0.28792042 0.99412954
2.5812511 -0.28664488 0.99379182
2.5571852 -0.28061867 0.99095416
2.8995905 -0.27806967 0.99368834
2.5219312 -0.27010214 0.99181592
2.6078234 -0.27487502 0.99187148
2.4618175 -0.26879013 0.99321508
2.5797074 -0.26533395 0.99482775
2.5568907 -0.26076543 0.99000514
2.6684747 -0.26447996 0.99406457
2.5138764 -0.25732261 0.99392211
2.8973136 -0.25597733 0.99286556
2.3234181 -0.25176978 0.99306333
2.4832191 -0.25231421 0.99179012
2.607183 -0.25487122 0.99106073
2.4615335 -0.24965975 0.99230069
2.5786912 -0.24549305 0.99416018
2.5199442 -0.2313025 0.99051058
2.6065426 -0.23486742 0.99025011
2.5776751 -0.22565216 0.99349272
2.7758961 -0.22924012 0.99272895
2.5089264 -0.22008914 0.99148822
2.4609659 -0.21139908 0.99047184
2.4798779 -0.21418381 0.99022239
2.5655463 -0.20892298 0.99377298
2.3726497 -0.20244433 0.99280274
2.5083096 -0.2008234 0.9907074
2.3226135 -0.19752908 0.99047071
2.5167224 -0.19735521 0.99199021
2.8402271 -0.1711325 0.9945668
2.4241295 -0.16984591 0.99337256
2.5746267 -0.16612947 0.99149013
2.8074954 -0.16096932 0.9924112
3.3916154 -0.16125047 0.99494749
2.4778764 -0.15507241 0.99477953
2.5309699 -0.15632904 0.9910081
2.6342719 -0.15869451 0.99429286
3.4128101 -0.15560037 0.99089575
3.5950434 -0.15780967 0.99025333
2.9628112 -0.15067846 0.99305964
3.0084808 -0.15196806 0.99486488
3.2487204 -0.15384632 0.99172878
2.5636542 -0.14982462 0.99137795
2.5736105 -0.14628869 0.99082267
2.6358955 -0.14684331 0.99432236
2.6938617 -0.14798594 0.99315625
2.4916017 -0.14359522 0.99463433
3.144995 -0.1417594 0.99425364
3.7103691 -0.13610882 0.99438334
3.8992608 -0.13879538 0.99262834
2.9312928 -0.13051891 0.99420249
3.018949 -0.12684134 0.99302161
3.2315922 -0.12976694 0.99489808
3.1312273 -0.12244397 0.99329269
3.2541053 -0.11187887 0.99342155
3.2830675 -0.11114087 0.99072826
3.3870296 -0.10682154 0.9915036
3.8968217 -0.1091454 0.99160707
3.881249 -0.1012997 0.99270332
3.3961062 -0.058516502 0.99397373
3.264008 -0.50781393 0.99711573
2.9033763 -0.5005613 0.99899602
2.7366431 -0.4908694 0.99598444
2.8447282 -0.49189144 0.99691784
2.9185736 -0.48282456 0.9987002
2.9331276 -0.48054647 0.9956761
3.0320261 -0.48367777 0.99585056
3.2632098 -0.48287955 0.99610519
3.0554454 -0.47689366 0.99549794
3.1394863 -0.47666419 0.99905992
2.8444016 -0.46987712 0.99586558
2.8820763 -0.46079063 0.9999941
3.1382568 -0.45265603 0.99825227
2.7956941 -0.43949911 0.99999201
2.999264 -0.43840456 0.99944925
3.1439021 -0.422629 0.99535066
2.795373 -0.41784999 0.99895716
2.9980881 -0.41544569 0.9986769
2.7822878 -0.40970483 0.9977597
2.7596538 -0.39337909 0.99861413
2.6724064 -0.38728771 0.99904144
2.781606 -0.3884075 0.99689662
2.8513255 -0.38026467 0.99962687
2.8701041 -0.38146591 0.99922478
2.6874619 -0.37376225 0.99692309
2.6184716 -0.36914673 0.99726164
2.671751 -0.36681968 0.99821198
2.7809241 -0.3671101 0.99603343
2.7980967 -0.36246169 0.9951154
2.6843348 -0.35560018 0.99777794
2.8506267 -0.35843468 0.99874222
2.5190437 -0.35380703 0.99946845
2.7522786 -0.3501842 0.9996928
2.6181703 -0.34883693 0.9962908
2.6710958 -0.34635174 0.99738252
2.5187535 -0.33425051 0.99853367
2.6457005 -0.33081675 0.99696428
2.5693302 -0.32711977 0.99856305
2.6178689 -0.32852709 0.99532002
2.6704404 -0.32588384 0.99655294
2.5827556 -0.32485658 0.99683022
2.6425877 -0.32107186 0.99975574
2.5184634 -0.31469405 0.99759889
2.4623852 -0.30705076 0.99504393
2.5686996 -0.30742025 0.99776471
2.6415482 -0.30077469 0.99907291
2.5147834 -0.29614484 0.99563766
2.5429251 -0.29275811 0.99661726
2.568069 -0.28772086 0.99696636
2.4258082 -0.28298432 0.99878049
2.6405087 -0.28047752 0.99838996
2.4744005 -0.27141583 0.99840081
2.5412171 -0.27326834 0.99581593
2.5674381 -0.2680214 0.99616802
2.4255285 -0.26412794 0.99787915
2.6394691 -0.26018029 0.99770713
2.3734713 -0.25782645 0.99544996
2.5400271 -0.25528485 0.99887002
2.8491855 -0.25804824 0.99780381
2.4737926 -0.252424 0.99763119
2.4252486 -0.2452715 0.99697781
2.3389335 -0.23522721 0.99886084
2.5047789 -0.23947926 0.99542534
2.6384299 -0.23988318 0.9970243
2.4731846 -0.23343217 0.99686146
2.424969 -0.2264151 0.99607652
2.3386633 -0.21702515 0.99799079
2.4246891 -0.20755871 0.99517524
2.4784482 -0.19360702 0.99662143
2.3891449 -0.1852354 0.99885052
2.3381233 -0.18062122 0.99625075
2.7932262 -0.17433411 0.99918461
3.2320228 -0.17348611 0.99567932
2.388869 -0.16664532 0.99796194
2.3378532 -0.16241924 0.9953807
3.81479 -0.16113377 0.99916661
3.0437396 -0.1560958 0.99757481
3.187716 -0.15787476 0.99710333
3.3457899 -0.15984017 0.99659908
2.6511962 -0.15496832 0.9977873
2.9118392 -0.15440625 0.99794173
2.5253315 -0.14503229 0.99593663
3.5666089 -0.14579499 0.99659252
3.8937004 -0.14653993 0.99954146
3.2394533 -0.14146227 0.99750954
3.3236682 -0.13606942 0.99953669
3.5488648 -0.13963532 0.9988333
2.8090563 -0.13039532 0.99557424
3.4022326 -0.13090074 0.99595326
3.6822548 -0.13328338 0.99915892
2.7509387 -0.12998167 0.9997555
3.7197158 -0.12695217 0.99815148
3.1500993 -0.12095913 0.99641037
3.3053699 -0.1208187 0.99528337
3.5888534 -0.12477446 0.9973582
3.3520167 -0.11898039 0.99546313
3.7001874 -0.11719036 0.99919397
3.4038754 -0.10988861 0.99899876
3.4837215 -0.10085128 0.99765921
3.5026648 -0.042403936 0.99932873
2.8859212 -0.50466943 1.0017983
2.7284896 -0.49152011 1.0003097
2.85482 -0.48941442 1.0040504
2.7963364 -0.48279724 1.0020616
2.8839986 -0.48272991 1.0008962
3.0016155 -0.48432225 1.0009941
2.8746111 -0.46946859 1.0021855
2.7960153 -0.46114823 1.0010267
3.0004396 -0.46136338 1.0002217
2.9474704 -0.44640648 1.0048299
2.6834974 -0.44124198 1.0033027
2.8320737 -0.44144881 1.003943
3.0812528 -0.43739575 1.0033789
2.6831887 -0.42044514 1.0023086
2.9463148 -0.42384309 1.0040709
2.830183 -0.41987348 1.0030559
2.9254661 -0.41637525 1.0041062
2.7490051 -0.41017541 1.0041387
2.5787272 -0.40276143 1.0042653
2.7368052 -0.40028945 1.0023441
2.8520246 -0.40209469 1.0005116
2.6828802 -0.39964837 1.0013145
2.8223526 -0.39002264 1.0043089
2.7486892 -0.38887638 1.0031207
2.5784304 -0.38275596 1.003309
2.6825716 -0.3788515 1.0003204
2.7361343 -0.37933454 1.0014949
2.75336 -0.37130266 1.0004033
2.4810209 -0.36701286 1.00491
2.5781336 -0.36275059 1.0023528
2.6446667 -0.3616662 1.0011214
2.5321672 -0.35854581 1.0045896
2.7120237 -0.35524583 1.0016776
2.7354634 -0.35837963 1.0006458
2.5450318 -0.35300642 1.0021577
2.4807351 -0.34774554 1.0039891
2.577837 -0.34274513 1.0013965
2.5315459 -0.3391355 1.0038029
2.6058125 -0.3352136 1.0018468
2.7074833 -0.33818603 1.0039681
2.5440309 -0.33346212 1.0015001
2.7102075 -0.33451974 1.0008255
2.4804492 -0.32847825 1.0030681
2.4263678 -0.3206971 1.0005831
2.5309243 -0.31972519 1.0030164
2.5043247 -0.30326194 1.0046751
2.3907998 -0.29677576 1.004182
2.5420291 -0.29437351 1.0001851
2.3397436 -0.28983313 1.0014709
2.5296814 -0.2809045 1.001443
2.3905239 -0.27818573 1.0032934
2.5033801 -0.27800703 1.0001606
2.3394735 -0.27163118 1.0006008
2.3899722 -0.2410056 1.0015162
2.3896966 -0.22241551 1.0006276
2.7504125 -0.19865161 1.0046272
2.4421704 -0.19003418 1.0014747
3.1716237 -0.17301714 1.0005883
3.4975858 -0.17241549 1.0015553
3.1287045 -0.16167945 1.0022024
3.541218 -0.16262436 1.0004824
2.8628767 -0.15811461 1.0027694
3.5232253 -0.15602517 1.0001943
3.7308924 -0.15383804 1.0042336
2.9032176 -0.1450125 1.0043075
3.424355 -0.14790595 1.0049267
2.5530665 -0.14173472 1.0026025
2.6542819 -0.14235467 1.0017706
3.33564 -0.14019066 1.0019726
3.4453466 -0.14352989 1.001219
3.6313558 -0.1411137 1.0004898
2.6430798 -0.13879159 1.0015156
2.8386388 -0.13862301 1.0020822
3.0339711 -0.13581043 1.0033195
3.4462183 -0.13993973 1.0008473
2.7178848 -0.13415021 1.0049714
3.6048646 -0.13382673 1.0048687
2.9410024 -0.1274868 1.0009203
3.4225974 -0.12559807 1.0048342
3.4716048 -0.12883615 1.0001032
3.4455986 -0.12216377 1.0018085
3.6173105 -0.12047696 1.0025668
3.8264012 -0.11503363 1.0045215
3.4304967 -0.10716844 1.0004915
3.4432874 -0.10761237 1.0040833
3.3317049 -0.10258961 1.0049282
3.17294 -0.097596645 1.0045354
3.7016127 -0.096898884 1.0020335
3.9159031 -0.09521082 1.0007125
3.2930319 -0.092820883 1.0037411
3.3574815 -0.091782093 1.0008993
3.4630799 -0.085876226 1.0024985
3.1980488 -0.083546162 1.0034685
3.3544681 -0.084502697 1.0034354
3.3175364 -0.077156305 1.0024403
3.2231576 -0.069495678 1.0024014
3.3772314 -0.06641531 1.0019424
3.6497369 -0.069793463 1.0000558
3.3420405 -0.061492205 1.0011395
3.4828725 -0.064140081 1.0009135
3.4775229 -0.057467937 1.0044159
3.5028172 -0.040611744 1.0024306
2.8278928 -0.49820065 1.0079484
2.9497817 -0.4915334 1.0063481
2.9276159 -0.4835315 1.0068277
2.6407549 -0.47435716 1.0099771
2.749953 -0.47407264 1.0071929
2.948626 -0.46896994 1.005589
2.9268992 -0.46114609 1.0059205
2.6404512 -0.45388758 1.0089986
2.7496371 -0.45277348 1.0061748
2.8256767 -0.45492953 1.0064926
2.7128055 -0.44210547 1.0074643
2.7860096 -0.44413185 1.0088018
2.805908 -0.43556538 1.0069983
2.9261825 -0.43876067 1.0050133
2.6401474 -0.43341798 1.0080203
2.749321 -0.43147454 1.0051568
2.8965352 -0.4320212 1.0093684
2.8766584 -0.42851087 1.0099459
2.711741 -0.42132151 1.0067651
2.7841494 -0.42290521 1.0079292
2.5386968 -0.41548631 1.0096608
2.6069725 -0.41011345 1.0074964
2.6398437 -0.41294831 1.0070418
2.693996 -0.41190943 1.0078379
2.8234606 -0.41165829 1.0050368
2.8953991 -0.40983802 1.0086221
2.5384045 -0.39578527 1.0087191
2.672648 -0.39976716 1.0078521
2.7765961 -0.39841813 1.00939
2.5911505 -0.39016202 1.0088499
2.6059484 -0.39012051 1.0068237
2.63954 -0.39247876 1.0060635
2.5082693 -0.38028318 1.0072664
2.5381122 -0.37608421 1.0077775
2.5905151 -0.3703104 1.0080454
2.6049247 -0.37012756 1.0061511
2.4953685 -0.3699137 1.0096258
2.507283 -0.3610279 1.0066186
2.6690726 -0.35896742 1.0061746
2.4947562 -0.3507849 1.0088506
2.5898795 -0.35045877 1.0072409
2.4444249 -0.34198114 1.0087377
2.5062969 -0.34177256 1.0059708
2.6466043 -0.34162116 1.0050921
2.5658877 -0.33902752 1.0060954
2.4941437 -0.3316561 1.0080754
2.5053108 -0.32251722 1.0053229
2.3910756 -0.31536585 1.0050706
2.5631542 -0.31916368 1.0069261
2.356791 -0.31018633 1.0094435
2.4935312 -0.3125273 1.0073001
2.4438612 -0.30399439 1.006922
2.5245931 -0.30434853 1.0089642
2.492919 -0.2933985 1.0065249
3.2618315 -0.16094255 1.0052375
3.1950145 -0.15547872 1.0089444
2.7834499 -0.15354443 1.0053239
2.8545868 -0.15278453 1.0093839
2.5691249 -0.14884448 1.0062505
2.6292078 -0.14786226 1.0097878
3.5553346 -0.14583308 1.0062613
3.8072288 -0.14677191 1.0055146
2.5058944 -0.14226332 1.0076332
2.6143601 -0.14478037 1.0068799
2.9126632 -0.14309739 1.0050757
2.9354341 -0.1408264 1.0062947
3.3772085 -0.14433414 1.0062058
3.7804399 -0.14239335 1.0059847
2.7903481 -0.13539027 1.0071402
3.2195189 -0.13981462 1.0076436
3.2861784 -0.13876343 1.0079142
2.6027539 -0.13405636 1.0062029
3.1181002 -0.13439858 1.0075659
3.0369079 -0.12559402 1.0070984
3.1227226 -0.12569761 1.0066695
3.2440233 -0.12415004 1.0063428
3.3089416 -0.12067652 1.0064212
3.1026821 -0.11931271 1.0081111
3.2505047 -0.10787659 1.0058852
3.2685275 -0.10848546 1.005042
3.683697 -0.10563868 1.0055693
3.4269345 -0.091180325 1.0083867
3.4522288 -0.074324131 1.0064012
2.5141859 -0.4958151 1.0111532
2.5712166 -0.49613285 1.0145255
2.6410587 -0.49482682 1.0109556
2.8606014 -0.49420702 1.0147666
2.7048981 -0.48650461 1.0129927
2.7624388 -0.48919055 1.0143129
2.7809565 -0.48356128 1.0122545
2.8586948 -0.47244978 1.013872
2.878068 -0.47253594 1.0117301
2.5993993 -0.4662576 1.0147734
2.7045872 -0.46554798 1.011991
2.7798662 -0.46227562 1.0115384
2.8773632 -0.45052341 1.0108379
2.8976712 -0.45420438 1.0101147
2.5991004 -0.44609997 1.0138098
2.7787762 -0.44098979 1.0108222
2.8487513 -0.44002455 1.0146167
2.5681915 -0.43706661 1.0125384
2.5988011 -0.42594239 1.0128462
2.6689494 -0.42875081 1.0114058
2.7391033 -0.4256587 1.0124656
2.7604094 -0.42580077 1.011744
2.5529687 -0.42080685 1.014603
2.6521821 -0.42310604 1.0130378
2.5671833 -0.41737771 1.011876
2.7776861 -0.41970396 1.0101061
2.6679015 -0.40829402 1.0107176
2.734551 -0.40559503 1.0128691
2.5523427 -0.40125212 1.0138105
2.6515319 -0.40279791 1.0122148
2.5661747 -0.39768898 1.0112137
2.5000818 -0.38913867 1.0133566
2.6668539 -0.38783711 1.0100294
2.5517166 -0.38169715 1.013018
2.6508818 -0.38248971 1.0113918
2.7354431 -0.38388824 1.0107483
2.4449885 -0.37996787 1.0105534
2.5651665 -0.37800014 1.0105512
2.6281393 -0.36283004 1.0108041
2.6502316 -0.36218157 1.0105687
2.6240299 -0.35557151 1.0134591
2.4081357 -0.33624259 1.0129387
2.7711046 -0.18609244 1.0124582
3.1705103 -0.17114329 1.0102452
3.2004571 -0.16075897 1.0100622
2.4771204 -0.15416324 1.0140346
3.8818674 -0.15404445 1.0122719
2.6933198 -0.14717823 1.0139564
3.015331 -0.14607149 1.0112648
3.156219 -0.14722794 1.0112772
3.3122416 -0.14896661 1.0117862
3.8569667 -0.14978552 1.0107836
3.5460496 -0.13742703 1.0117549
2.7440612 -0.13228264 1.0121894
2.7274697 -0.12704572 1.0122617
2.915493 -0.12447875 1.0147007
3.2726786 -0.11535451 1.0105236
3.3183322 -0.11666832 1.0114976
3.5280833 -0.11276579 1.0138389
3.6198781 -0.11166692 1.0128641
3.6748719 -0.11288357 1.014214
3.3691685 -0.1043601 1.0146232
3.5464089 -0.1032463 1.0141455
3.640357 -0.089176893 1.0112243
3.6925344 -0.086964607 1.0145943
3.540452 -0.063480139 1.0133877
3.3276157 -0.058009624 1.014539
3.5604649 -0.041501999 1.0117851
2.8625078 -0.51596439 1.0156611
2.7371914 -0.51113456 1.0176543
2.8134558 -0.49595952 1.0194019
2.7361188 -0.49019092 1.0169498
2.5323744 -0.48287153 1.0184153
2.6541326 -0.48403057 1.0155069
2.8302326 -0.48342326 1.0171285
2.850986 -0.4836607 1.0160848
2.8115804 -0.47455859 1.0185221
2.7350461 -0.4692474 1.0162451
2.8295395 -0.46177587 1.0162511
2.5590572 -0.45836103 1.0193355
2.6291883 -0.45629692 1.0168478
2.7172585 -0.45785126 1.0178695
2.5303874 -0.44407195 1.01711
2.5587628 -0.43850785 1.0183866
2.6281567 -0.43615186 1.01617
2.7165928 -0.43705609 1.0170268
2.5151463 -0.43124953 1.0193447
2.4633377 -0.42093012 1.0196486
2.5145295 -0.41198382 1.018564
2.4630537 -0.40179977 1.0187342
2.5139127 -0.39271811 1.0177832
2.6504922 -0.39074981 1.0197738
2.5899305 -0.38627195 1.0160122
2.6924727 -0.38743663 1.0153981
2.3743904 -0.36771956 1.0191934
2.5492468 -0.36995816 1.0193821
2.5881968 -0.36648631 1.0151987
2.462486 -0.3635391 1.0169054
2.547539 -0.35046828 1.0185809
2.3741164 -0.34925887 1.018311
2.3738427 -0.33079818 1.0174286
2.545831 -0.33097821 1.0177796
2.72823 -0.20973879 1.0173572
2.7260802 -0.18888086 1.0165805
2.8397946 -0.17036372 1.016408
3.5041051 -0.16214609 1.0161788
3.0078766 -0.15106791 1.0180473
3.0992658 -0.15149635 1.0163934
3.2482266 -0.15296811 1.0166759
3.4809961 -0.15017939 1.0169272
2.7594135 -0.14613354 1.0178864
3.2926342 -0.14831054 1.0151151
2.5938232 -0.14278439 1.019502
3.7710724 -0.14259923 1.0156083
3.4636097 -0.13811803 1.016023
3.6612718 -0.13588637 1.017082
3.3887 -0.13455701 1.0199636
3.5045395 -0.13147259 1.0153831
2.8085146 -0.12969443 1.0172322
2.930728 -0.12978795 1.0167893
3.0180316 -0.12573792 1.0163909
3.5592003 -0.12627316 1.0192599
3.3878462 -0.12290239 1.0162539
3.4138052 -0.10837603 1.0151508
3.2514522 -0.10062933 1.0177755
3.5752287 -0.10122013 1.0180187
3.3734159 -0.091207266 1.0163212
3.4110632 -0.093149185 1.0167149
3.4062324 -0.082875729 1.018943
3.434083 -0.074858665 1.0152051
3.2627993 -0.060942411 1.0175663
2.6757379 -0.50928503 1.0244889
2.4106352 -0.50471741 1.0209916
2.5596464 -0.49806762 1.0212336
2.6932809 -0.49679375 1.0217227
2.6168821 -0.4920862 1.0220892
2.5903881 -0.48294091 1.0220319
2.4641891 -0.47832119 1.0223918
2.692225 -0.4761771 1.021029
2.7664847 -0.47679722 1.0232127
2.7837088 -0.47275355 1.0216489
2.6744273 -0.46834913 1.0228299
2.5731673 -0.46423599 1.0238533
2.5893719 -0.46310002 1.0213645
2.4639053 -0.45919082 1.0214775
2.6911693 -0.45556062 1.0203354
2.7646394 -0.45573735 1.0223467
2.519727 -0.45066667 1.0236865
2.7830272 -0.45145622 1.0207858
2.6737721 -0.44788119 1.0220004
2.4636214 -0.44006047 1.020563
2.5725367 -0.44453654 1.023055
2.5194368 -0.43111014 1.0227517
2.5485463 -0.4305504 1.0243524
2.4270267 -0.41408935 1.0239342
2.5191467 -0.41155362 1.021817
2.5475454 -0.41100609 1.0236949
2.6522658 -0.4109906 1.020606
2.4267471 -0.39523292 1.0230329
2.3746643 -0.38618031 1.0200759
2.4264672 -0.37637654 1.0221316
2.4261875 -0.35752013 1.0212302
2.7478261 -0.17687505 1.0249847
2.7928009 -0.17357785 1.0206681
2.8624406 -0.15733927 1.0247933
2.9113958 -0.1536178 1.0203387
2.65377 -0.14169192 1.0222486
3.2388036 -0.14049381 1.0224499
2.953248 -0.13617057 1.021946
3.1416242 -0.13840365 1.0239989
3.3233871 -0.13519347 1.0249753
3.7098057 -0.1351071 1.0228401
3.8990896 -0.13778472 1.0223783
3.9250741 -0.13616043 1.0237782
3.3426485 -0.13339013 1.0213257
3.7633686 -0.1319412 1.0221635
3.2314074 -0.12716722 1.0235723
3.4015505 -0.12988412 1.0221342
3.149493 -0.1201742 1.0206645
3.565115 -0.11980951 1.0205806
3.5822866 -0.11836344 1.0220671
3.1900942 -0.10741878 1.0214258
3.2189505 -0.10470209 1.0208758
3.3866601 -0.10437012 1.0205102
3.6429527 -0.10323765 1.0229627
3.8803773 -0.1001227 1.0224349
3.4829383 -0.099793874 1.0243696
3.3895576 -0.045581341 1.0203639
2.839072 -0.52690959 1.0291437
2.8548789 -0.51038003 1.0267676
2.5205975 -0.50933605 1.0264908
2.5359483 -0.49364963 1.0295086
2.5791297 -0.48183924 1.0280831
2.6503956 -0.4827916 1.0255369
2.7388742 -0.48327956 1.0266986
2.633589 -0.47867385 1.0279009
2.535327 -0.47423926 1.0287219
2.5505483 -0.46963906 1.0256675
2.6329439 -0.45851782 1.0270841
2.5347054 -0.45482895 1.0279353
2.3922768 -0.44461906 1.029869
2.7187467 -0.43734217 1.0258863
2.3920009 -0.42602903 1.0289804
2.6316533 -0.41820577 1.0254505
2.3917251 -0.40743899 1.0280918
2.5705359 -0.39716423 1.0282212
2.8144612 -0.16071469 1.0288652
2.5686073 -0.14807343 1.026107
3.8933718 -0.14551556 1.0292896
2.9026339 -0.1441431 1.0266982
2.9349868 -0.14003128 1.028882
3.5663605 -0.1439501 1.025401
3.6308043 -0.1401332 1.0283452
3.83705 -0.14149719 1.0296276
3.1257641 -0.13692325 1.0253456
3.334971 -0.13919383 1.0276436
3.4456944 -0.13900846 1.0273019
3.5487647 -0.13695884 1.0291762
2.6021674 -0.13326433 1.0262091
2.7173605 -0.13347173 1.0259367
2.7215016 -0.13028784 1.0253752
3.0333617 -0.1349023 1.0267073
3.6819437 -0.13231385 1.0273156
3.50772 -0.12820357 1.0276024
3.7191465 -0.12553024 1.028574
2.7059968 -0.12430566 1.0251831
2.8899949 -0.12148576 1.0281005
3.5744042 -0.12056851 1.0278151
3.5886579 -0.12202406 1.0276941
3.6994462 -0.11608565 1.027643
3.2856569 -0.11441258 1.0273368
3.2399991 -0.10990608 1.0252765
3.6124756 -0.10309935 1.026132
3.565587 -0.099899262 1.0292608
3.7319126 -0.097893476 1.0275211
3.3830817 -0.07505703 1.0291533
2.5943818 -0.50848585 1.033531
2.6726279 -0.50991565 1.0346369
2.7910347 -0.506984 1.0327225
2.3931043 -0.50038928 1.0325347
2.4459341 -0.49303183 1.034982
2.539093 -0.49336094 1.0331161
2.5937464 -0.48863426 1.0327264
2.3928285 -0.48179919 1.0316461
2.4456522 -0.47403845 1.0340741
2.5388007 -0.47365981 1.0321745
2.3925526 -0.46320909 1.0307575
2.4453704 -0.45504507 1.0331663
2.6522369 -0.44261017 1.0341715
2.4450886 -0.4360517 1.0322584
2.6756897 -0.43977201 1.0300024
3.4974856 -0.16973901 1.0318984
3.2615559 -0.16008341 1.0301888
3.2001865 -0.1599158 1.0345491
2.854013 -0.15192956 1.0314016
3.5231252 -0.15334868 1.0305372
3.7307291 -0.15287101 1.0326966
2.6286786 -0.14707345 1.0301009
2.6927779 -0.14637059 1.0347567
3.0148718 -0.14525527 1.0344535
3.2157102 -0.14221364 1.0309795
3.445272 -0.1411171 1.0312326
3.5547945 -0.14487284 1.0335382
2.6322162 -0.13708216 1.0342466
3.47153 -0.12642336 1.0301168
3.9432294 -0.12592173 1.0345359
2.9051192 -0.12489763 1.0302513
2.9904232 -0.12358645 1.0306506
3.0363228 -0.12483695 1.0304922
3.4053428 -0.12056947 1.0314738
3.4214103 -0.12094569 1.0301926
3.7283952 -0.12450349 1.0317196
3.3074079 -0.11810184 1.0339203
3.616703 -0.11859989 1.0326128
3.825635 -0.11389172 1.0339292
3.4429138 -0.1051333 1.0334164
3.3315179 -0.099960804 1.0339211
3.700901 -0.095977962 1.0304897
3.2929361 -0.090262651 1.0327408
3.6329165 -0.093257904 1.0313573
3.9151506 -0.094237179 1.0307978
3.3558447 -0.085648537 1.0313363
3.1979773 -0.081239223 1.0321681
3.4627061 -0.08339715 1.0318316
3.8965063 -0.082726374 1.0314777
3.3174405 -0.074598074 1.03144
3.2230861 -0.06718874 1.031101
3.6491294 -0.067916393 1.0301018
3.3770444 -0.063786745 1.0309353
3.4456041 -0.061238289 1.0330985
3.4824986 -0.061661005 1.0302466
2.7422175 -0.4666152 1.0351429
2.7278149 -0.20900077 1.038323
2.7256651 -0.18814284 1.0375463
3.2026689 -0.1842773 1.0354154
3.1704144 -0.16858506 1.0392448
3.2632284 -0.15422153 1.0384001
2.7588584 -0.14530635 1.0391889
3.311738 -0.14807123 1.0372207
2.5930324 -0.14183322 1.039647
3.7796946 -0.14104748 1.0364069
3.2194231 -0.13725638 1.0366431
2.6483417 -0.13297856 1.0378944
3.2831895 -0.1343286 1.0352123
3.5291474 -0.13301706 1.0369886
2.6957986 -0.1290006 1.0385869
2.8079731 -0.12899351 1.0388904
3.1226511 -0.12339067 1.0353692
3.2439275 -0.12159181 1.0353425
3.0456297 -0.11310082 1.0364693
3.1198413 -0.1149841 1.0350107
3.542958 -0.10919619 1.0379069
3.6310768 -0.082568936 1.0397577
3.4203098 -0.078094482 1.035084
2.6535103 -0.43044233 1.0417514
2.7923756 -0.17282158 1.0421517
2.9109523 -0.15282935 1.0427357
3.0987942 -0.15065771 1.0402139
3.2923558 -0.14744306 1.04031
3.8567975 -0.14878607 1.0402062
2.8289578 -0.14439356 1.0441245
3.1470075 -0.14070189 1.0416849
2.9526544 -0.13528603 1.0447248
3.0404143 -0.13117486 1.0434965
3.3017433 -0.13067889 1.0426857
2.8655014 -0.11859179 1.0414872
3.0086958 -0.11978659 1.0442436
3.4888551 -0.11927056 1.0446715
3.2530012 -0.11217985 1.0426893
3.5278897 -0.11004734 1.043826
3.674309 -0.11147785 1.0442863
3.959825 -0.11139333 1.0404352
3.4137316 -0.10599041 1.0448227
3.6194913 -0.10910201 1.0432144
3.36852 -0.10352096 1.040552
3.5141995 -0.10306907 1.0433261
3.5457268 -0.10236356 1.0414217
3.4396906 -0.091464043 1.0437195
3.6399703 -0.086611986 1.0415746
3.6919203 -0.085065365 1.0449898
3.5200615 -0.082951546 1.0446497
3.4338937 -0.072200775 1.0445243
3.3021557 -0.069883347 1.0446365
3.5400743 -0.060973406 1.0430472
3.3275435 -0.055676937 1.0435576
3.3529313 -0.041470528 1.0424788
3.560087 -0.038995266 1.0414447
2.7474077 -0.17613083 1.0461257
3.1710877 -0.17134643 1.049105
2.8620045 -0.15656406 1.0468173
3.5040295 -0.15970516 1.0465419
3.4381661 -0.15167403 1.0473623
3.4808025 -0.14746094 1.0469142
2.9020505 -0.14327365 1.0490891
3.5305934 -0.14484072 1.045413
3.1252882 -0.13607711 1.0493795
3.2381537 -0.13952541 1.0473903
3.4635105 -0.13547206 1.0460169
2.6015811 -0.13247234 1.0462154
3.3421402 -0.13248616 1.0470039
3.3884137 -0.13366401 1.0458972
3.8485 -0.13065851 1.0463082
2.7206724 -0.1292907 1.0464935
3.4008682 -0.12886745 1.0483152
3.5043464 -0.12875414 1.0453701
3.7922459 -0.12897283 1.0463285
2.7053871 -0.12348234 1.0459808
3.5585999 -0.1244173 1.0489633
3.5648136 -0.11887014 1.0478618
3.2182262 -0.10372422 1.0455773
3.3485391 -0.10446095 1.0469626
3.3862906 -0.1019187 1.0495168
3.25138 -0.098296642 1.0467942
3.5746284 -0.099364281 1.0477221
3.4108744 -0.090491295 1.046034
3.6601443 -0.090138704 1.0471479
3.7512839 -0.090492584 1.045777
3.3733191 -0.088620424 1.0456471
3.276768 -0.084089756 1.0457153
3.4058628 -0.080424309 1.0479496
3.2384696 -0.073904753 1.0475339
3.1456695 -0.062365055 1.0462828
3.2627046 -0.058412313 1.0462474
3.1705058 -0.048467159 1.0452273
2.8140323 -0.15995222 1.0505238
2.6281493 -0.1462847 1.0504138
2.9345396 -0.13923615 1.0514692
3.1415293 -0.13587356 1.0526799
3.4451706 -0.1380772 1.0537566
3.8989189 -0.13677406 1.0521283
3.9244785 -0.13510138 1.0538642
3.0327523 -0.1339941 1.0500952
3.2587509 -0.13440073 1.0542574
3.7092423 -0.13410527 1.0512968
3.7630508 -0.13095033 1.0509369
3.5070167 -0.1271556 1.0545901
2.784395 -0.12430811 1.0516222
2.9045591 -0.12417284 1.0526477
2.9895136 -0.12249273 1.0538146
3.1657643 -0.12038112 1.0513934
3.2312226 -0.12456799 1.0522465
2.8410189 -0.11571232 1.0545084
3.2393751 -0.10909873 1.0502234
3.1899993 -0.10488868 1.0501069
3.4821553 -0.098736472 1.0510801
2.7273998 -0.20826274 1.0592889
2.72525 -0.18740481 1.0585121
3.1999161 -0.15907264 1.059036
3.2612803 -0.15922415 1.0551401
2.8366904 -0.14709693 1.0592811
2.5922413 -0.14088205 1.0597919
3.0144129 -0.14443892 1.0576421
3.2152209 -0.14134365 1.0556908
2.8039119 -0.13687164 1.0564818
3.5646448 -0.13819933 1.0595921
3.6302528 -0.13915259 1.0562005
2.6478081 -0.13218361 1.0583674
3.5486643 -0.13428187 1.0595192
3.6816328 -0.1313442 1.0554725
2.6952784 -0.12832731 1.0593922
2.6829362 -0.12067088 1.058025
3.2685282 -0.12218279 1.0572408
3.4211209 -0.12004387 1.056385
3.7185769 -0.12410831 1.0589962
3.5743039 -0.11789155 1.058158
3.5884624 -0.11927414 1.05803
2.9810786 -0.11474934 1.0575837
3.044944 -0.11217505 1.0598544
3.1192405 -0.11420634 1.0590438
3.434154 -0.11048251 1.0585797
3.698705 -0.114981 1.0560919
3.6122799 -0.10034943 1.0564679
3.3348334 -0.098154783 1.0557257
3.468492 -0.098293781 1.0595727
3.5080025 -0.096668214 1.057212
3.731343 -0.096471548 1.0579436
3.3830087 -0.072698116 1.0584989
3.4804125 -0.069903135 1.0571359
3.2230148 -0.064881325 1.0598009
3.4086823 -0.058331013 1.0574079
3.4389791 -0.048152447 1.0597957
3.2732322 -0.036780834 1.0576668
2.7919502 -0.1720652 1.063635
3.7305655 -0.15190411 1.0611597
3.3112345 -0.14717585 1.0626552
3.3564107 -0.146258 1.0614094
2.7583032 -0.14447916 1.0604912
3.5542545 -0.14391261 1.060815
3.5288491 -0.13208735 1.0639882
3.1225796 -0.12108326 1.0640688
3.2895231 -0.12150931 1.0646135
3.4714553 -0.12401056 1.0601304
3.7282317 -0.12353659 1.0601827
3.9430568 -0.12489939 1.0646288
2.7608259 -0.11963415 1.0640041
3.3085678 -0.11541939 1.0644072
3.4052448 -0.11795402 1.0611261
3.616096 -0.11672258 1.0626585
3.8248687 -0.11274981 1.0633372
3.1876869 -0.10064778 1.0601964
3.4425402 -0.10265422 1.0627494
3.3313308 -0.097332478 1.0629143
3.632309 -0.091380596 1.061403
3.9143984 -0.093263537 1.0608832
3.2928402 -0.08770442 1.0617404
3.3883905 -0.081864834 1.0637666
3.4623325 -0.080918074 1.0611645
3.5340495 -0.081504107 1.0628541
3.8953264 -0.081307337 1.0615315
3.1979058 -0.078931808 1.0608678
3.354094 -0.079245567 1.0614213
3.4136848 -0.06500864 1.0617813
2.746989 -0.17538661 1.0672665
2.9105089 -0.1520409 1.0651325
3.2630415 -0.15159321 1.0673931
3.8566287 -0.1477865 1.0696286
3.1463757 -0.13976032 1.0659326
3.7789493 -0.13970137 1.0668288
2.9520609 -0.1344015 1.0675038
3.2193272 -0.13469815 1.0656427
3.2858045 -0.1335063 1.0659001
2.7198434 -0.12829357 1.0676118
2.9619296 -0.12037036 1.0674583
3.7202373 -0.11648107 1.0669377
3.8542163 -0.11846304 1.0686185
3.2520132 -0.11099169 1.0678535
3.5422473 -0.10813731 1.0651762
3.4465728 -0.095465355 1.0668374
3.6021299 -0.09957765 1.0678567
3.6302605 -0.081466638 1.0676022
3.1708198 -0.17051113 1.0733635
2.8136036 -0.15918976 1.0721822
2.9014671 -0.1424042 1.0714799
2.7353055 -0.13738024 1.0727642
2.9340925 -0.13844103 1.0740567
3.1248126 -0.13523108 1.0734131
3.2375038 -0.13855696 1.0723308
3.0321429 -0.13308597 1.0734829
3.3881271 -0.13277102 1.0718307
3.4001861 -0.12785089 1.0744959
3.9366066 -0.12903047 1.0712945
3.8776398 -0.12236005 1.0706565
3.6408725 -0.11726868 1.0711724
3.6737461 -0.11007237 1.0743587
3.9590325 -0.11021179 1.0708629
3.5276966 -0.10732889 1.0738128
3.5141003 -0.10042357 1.0733198
3.1571605 -0.097589351 1.0743588
3.3732221 -0.086033583 1.0749731
3.4396169 -0.089078903 1.0733912
3.5196836 -0.080444813 1.0743091
3.6395836 -0.084046841 1.0719249
3.3980024 -0.070192575 1.0736576
3.4655762 -0.074552536 1.072288
3.3020835 -0.067550659 1.0736554
3.4337049 -0.069542885 1.0738435
3.1455989 -0.060082912 1.074671
3.6600623 -0.061557055 1.0702851
3.2626097 -0.055882692 1.074928
3.5396962 -0.058466673 1.0727066
3.3274713 -0.05334425 1.0725765
3.4567242 -0.051252127 1.0723337
3.1704352 -0.046185017 1.0736156
3.352859 -0.03913784 1.0714977
3.1952715 -0.032287121 1.0725603
2.7676542 -0.16264337 1.0755937
3.438067 -0.14902854 1.077356
3.5305178 -0.14240026 1.0757759
2.8033478 -0.13603085 1.0781343
3.2777059 -0.13633662 1.0768681
3.1162219 -0.13159966 1.0796472
3.2584751 -0.13354158 1.0792086
3.4634116 -0.13282657 1.0760106
3.708679 -0.13310355 1.0797536
2.6963229 -0.12628646 1.0797374
3.5041528 -0.12603569 1.075357
3.7916701 -0.12794882 1.0754173
3.8481753 -0.12964547 1.075729
2.9039991 -0.12344801 1.0750443
2.6823316 -0.11985417 1.0786552
3.3236618 -0.11771464 1.0776041
3.4911635 -0.11853325 1.0789211
3.5645123 -0.11793065 1.0751431
2.840379 -0.11484803 1.076341
2.8543806 -0.11460724 1.0784367
3.2387514 -0.10829139 1.0751703
3.3876657 -0.10612392 1.0768629
3.6749039 -0.10880303 1.0766554
3.2535508 -0.1040802 1.0794442
3.3484421 -0.10187411 1.0762886
3.499671 -0.10242271 1.0759116
3.251308 -0.095963955 1.0758131
3.385921 -0.099467039 1.0785235
3.574028 -0.09750843 1.077426
3.2141397 -0.086867094 1.0775011
3.2760637 -0.086192131 1.0779676
3.4106851 -0.087833405 1.0753533
3.6594403 -0.089227647 1.0752996
3.4054933 -0.077972651 1.0769563
3.2383747 -0.071374655 1.0762146
3.0989809 -0.18120289 1.0822861
3.1996455 -0.15822935 1.0835228
3.2610044 -0.15836501 1.0800914
2.8362579 -0.14632803 1.0811224
3.0139537 -0.14362258 1.0808309
3.2147317 -0.14047378 1.0804021
3.3756685 -0.14159578 1.0839939
3.4446471 -0.13714594 1.0802112
3.6297014 -0.13817197 1.0840559
2.8754039 -0.13477218 1.0840056
3.1414347 -0.13334394 1.0813606
2.9249804 -0.12667352 1.0802292
3.2678721 -0.12120485 1.0824249
2.9353495 -0.11830507 1.0810516
3.1656697 -0.1178515 1.0800741
3.4208314 -0.11914194 1.0825775
3.0442586 -0.11124931 1.0832393
3.1186395 -0.11342853 1.0830771
3.6979635 -0.11387628 1.0845407
3.2193856 -0.1087934 1.0824758
3.8963091 -0.10611343 1.0808569
3.3341913 -0.097323775 1.0814034
3.5073276 -0.095794588 1.0842066
3.5634248 -0.097298905 1.084334
2.9100657 -0.15125245 1.0875295
3.730402 -0.1509372 1.0896229
3.5537145 -0.14295238 1.0880919
3.5644491 -0.13544893 1.089928
3.2053101 -0.13009751 1.0862569
3.548564 -0.13160539 1.0898622
3.811903 -0.12917149 1.0854532
3.2892449 -0.12064171 1.0898086
3.7180073 -0.12268639 1.0894186
2.7602932 -0.11894456 1.085312
3.5742035 -0.11521506 1.0885011
3.5882668 -0.11652374 1.0883659
2.8159122 -0.11199019 1.0888144
3.8896987 -0.1138711 1.0877335
3.1581128 -0.1057131 1.0868378
3.4976389 -0.10690451 1.0890281
3.4302027 -0.099321127 1.0894485
3.6120844 -0.09759903 1.0868038
3.4552584 -0.083304167 1.0881183
3.5787623 -0.080980778 1.0881402
3.6359019 -0.078674316 1.0852417
3.3829358 -0.070338726 1.0878439
3.3172488 -0.069481611 1.0894392
3.4803145 -0.067287207 1.0867883
3.2229433 -0.062574387 1.0885005
3.481751 -0.056702852 1.0889128
3.5990057 -0.058749676 1.0865194
3.341753 -0.053817511 1.0881383
3.4078348 -0.053947687 1.0876157
3.2480519 -0.04852438 1.0874336
3.2090752 -0.040169001 1.0891377
3.3662577 -0.038152933 1.0868375
3.4323545 -0.035067081 1.0864931
3.2731607 -0.034473896 1.0863667
3.5015435 -0.034966707 1.0873278
3.2982695 -0.020423412 1.0852995
2.8131747 -0.1584273 1.0938407
2.7347548 -0.13655961 1.093899
2.779336 -0.12880772 1.0903538
3.408051 -0.12585944 1.0946782
2.674789 -0.12438294 1.0923102
3.0075362 -0.11828572 1.0906199
3.1225083 -0.11877632 1.0927687
3.3083808 -0.11279106 1.0933999
3.6154885 -0.11484551 1.0927043
3.8241022 -0.11160785 1.0927449
2.8298061 -0.10992539 1.0909694
3.4421663 -0.10017514 1.0920825
3.3311439 -0.094704151 1.0919069
3.4457974 -0.094418488 1.0932817
3.2927444 -0.085146189 1.09074
3.6317015 -0.089503527 1.0914488
3.3539071 -0.076617241 1.090414
3.4619586 -0.078438997 1.0904976
3.5334558 -0.079668522 1.0922308
3.3817656 -0.068779469 1.090464
3.6479144 -0.064162016 1.0901933
3.1851032 -0.055493593 1.0904102
3.1705518 -0.16967583 1.097622
3.2400913 -0.16705179 1.0978788
2.9336452 -0.1376459 1.0966439
3.0315332 -0.13217783 1.0968707
3.1243367 -0.13438505 1.0974469
3.3411233 -0.13067836 1.0983601
3.3878405 -0.13187802 1.0977643
2.8503695 -0.12742525 1.0965532
3.5900338 -0.12650365 1.0994964
3.4690294 -0.11714774 1.0966303
3.6405647 -0.11630929 1.0990322
3.8540475 -0.11746347 1.0980412
3.0167565 -0.10826191 1.09672
3.0900109 -0.10841829 1.0969048
3.1564498 -0.096629553 1.0986038
3.4706247 -0.090256155 1.0994775
3.6294444 -0.080364354 1.0954465
3.3781748 -0.022598743 1.0994375
2.8358254 -0.14555913 1.1029637
3.0134947 -0.14280635 1.1040196
3.2772071 -0.13544983 1.1020588
3.7705765 -0.13966656 1.1019344
3.1155958 -0.13066667 1.1036742
3.5150645 -0.13131529 1.1029881
3.3995037 -0.12683421 1.1006769
3.7910941 -0.12692481 1.1045059
2.6522818 -0.12245134 1.1041577
2.7553329 -0.12159824 1.1022233
3.1741467 -0.12189782 1.1000742
3.8770509 -0.12131292 1.1003999
2.9344556 -0.11723039 1.1038125
3.011117 -0.11973673 1.1031604
3.5642109 -0.11699128 1.1024243
3.5801322 -0.11515307 1.1047424
2.9799292 -0.11326179 1.103549
2.7924488 -0.1092296 1.10132
3.2381277 -0.10748404 1.100117
3.673183 -0.1086669 1.1044309
2.963449 -0.10331332 1.1000541
3.1275084 -0.10363288 1.1009554
3.6566141 -0.10456353 1.1003623
3.176456 -0.097904652 1.1033099
3.5140014 -0.097777605 1.1033137
3.5247421 -0.095047437 1.1002333
3.4104962 -0.085175037 1.1046723
3.439543 -0.086693764 1.1030631
3.6587365 -0.08831659 1.1034513
3.6391969 -0.081481695 1.1022751
3.2382801 -0.068844557 1.1048956
3.3979053 -0.067605734 1.1029838
3.4335155 -0.066884518 1.1031625
3.5745904 -0.067195415 1.1007112
3.1455281 -0.05780077 1.1030595
3.5393186 -0.05595994 1.1023662
3.6596756 -0.058991909 1.1006353
3.3273993 -0.051011562 1.1015952
3.4226854 -0.051765203 1.1016684
3.1703644 -0.043902874 1.1020041
3.352787 -0.036805153 1.1005163
3.2607288 -0.15750587 1.1050427
2.9096222 -0.150464 1.1099266
3.2142425 -0.13960391 1.1051134
3.7081156 -0.13210183 1.1082104
3.7624149 -0.12896883 1.108484
3.8478501 -0.12863243 1.1051497
3.2672157 -0.12022698 1.1076088
3.5039597 -0.12331676 1.1053437
3.1655748 -0.1153214 1.1087551
3.4205422 -0.11824 1.1087699
3.4908681 -0.11761296 1.1056465
3.3874769 -0.10346556 1.106182
3.3335493 -0.096492797 1.1070808
3.5734272 -0.09565258 1.1071296
3.4102383 -0.091179006 1.1082399
3.3811872 -0.088997155 1.1087605
3.2758789 -0.083592415 1.1066418
3.4051237 -0.075521231 1.1059629
3.5809889 -0.077994525 1.1071335
3.0989087 -0.1788702 1.1113048
2.9508736 -0.13263249 1.1130617
3.5503774 -0.11485559 1.1143579
2.8292599 -0.10921857 1.1128104
3.896138 -0.10510278 1.1106069
3.9202023 -0.10305172 1.1129212
3.4349365 -0.084864736 1.1145337
3.2981982 -0.018116474 1.1139991
3.2306576 -0.16923082 1.1192558
3.7302384 -0.14997029 1.118086
3.2915206 -0.14484036 1.1158949
2.933198 -0.13685066 1.1192312
2.8497958 -0.12657028 1.118571
3.1827822 -0.12920851 1.1186106
3.2436929 -0.12463623 1.1155407
3.717438 -0.12126446 1.1198411
2.8983452 -0.11835432 1.1153439
2.9078989 -0.11519316 1.1168127
3.364264 -0.1181075 1.1150579
3.4774554 -0.11998647 1.1176633
3.5741034 -0.11253858 1.118844
2.9533339 -0.10840937 1.1164546
3.8322866 -0.10912567 1.1167858
3.91079 -0.099079907 1.1179258
3.4681096 -0.092918873 1.1188637
3.4870713 -0.092847906 1.1158686
3.6118889 -0.09484911 1.1171397
3.7302039 -0.093627691 1.1187885
3.2926486 -0.082588434 1.1197397
3.4551604 -0.080688715 1.1177707
3.461585 -0.075959921 1.1198307
3.5783801 -0.078445196 1.1181412
3.6357064 -0.075924397 1.1155776
3.197763 -0.074317932 1.1182671
3.3537202 -0.073988914 1.1194069
3.491385 -0.07442522 1.1173371
