# .PCD v0.7 - Point Cloud Data file format
VERSION 0.7
FIELDS x y z
SIZE 4 4 4
TYPE F F F
COUNT 1 1 1
WIDTH 1062
HEIGHT 1
VIEWPOINT 0 0 0 1 0 0 0
POINTS 1062
DATA ascii
1.7975634 2.4399118 -0.86487705
1.8171779 2.4493804 -0.8506363
1.787582 2.4448924 -0.8473317
1.8046585 2.4472008 -0.84107482
1.8170047 2.4497566 -0.83946681
1.8228502 2.4494209 -0.83070171
1.7872686 2.4458025 -0.8218565
1.8260995 2.449574 -0.81522822
1.7871119 2.4462574 -0.80911893
1.8203983 2.4503369 -0.80820793
1.8503622 2.4587345 -0.80722976
1.8353647 2.4490216 -0.80196881
1.8202385 2.4508009 -0.79521912
1.8342049 2.4531391 -0.79846466
1.8572129 2.458348 -0.79841024
1.8412051 2.4486969 -0.7928763
1.8182528 2.4500794 -0.79240525
1.8453393 2.4589865 -0.79266119
1.8339658 2.4535706 -0.7887094
1.857035 2.4587343 -0.78694379
1.8217108 2.4487295 -0.78436124
1.8497393 2.4572742 -0.7848078
1.8260906 2.4469385 -0.77664983
1.8350136 2.4497838 -0.77934057
1.8337269 2.4540024 -0.77895427
1.8554974 2.4573429 -0.776178
1.8408527 2.4494622 -0.77015668
1.853968 2.4656372 -0.77474535
1.8538947 2.4560032 -0.76697874
1.8627013 2.4588504 -0.76609701
1.8431586 2.4623809 -0.76558805
1.8610055 2.4659629 -0.76808274
1.8194437 2.4518392 -0.76225799
1.8253235 2.4573011 -0.76375628
1.8360687 2.4555593 -0.76448363
1.8406765 2.4498448 -0.75879687
1.8281858 2.4545641 -0.75669754
1.8536522 2.4564412 -0.75707901
1.8546517 2.4669175 -0.755602
1.8615826 2.4663956 -0.75606251
1.8778713 2.4683552 -0.75725287
1.8192827 2.4522414 -0.7536518
1.8376827 2.4548659 -0.75148153
1.8625227 2.4592383 -0.75458497
1.8444378 2.4614511 -0.75326324
1.8844162 2.4689422 -0.75007778
1.8191216 2.4526439 -0.74504548
1.8280238 2.4549689 -0.74803799
1.8421896 2.4538746 -0.74512416
1.8534098 2.4568791 -0.74717927
1.8779325 2.4678943 -0.74509382
1.8308843 2.4522359 -0.740888
1.8623441 2.4596262 -0.74307287
1.8547509 2.4631433 -0.74380124
1.8632092 2.4645174 -0.74415129
1.8912674 2.4686272 -0.7406888
1.8672887 2.4716027 -0.74410963
2.5990229 2.4999292 -0.74181402
1.8427651 2.4535134 -0.73581743
1.8531673 2.4573171 -0.73727953
1.8727043 2.4692974 -0.73627859
1.8823447 2.4662747 -0.73678654
1.8766475 2.4736571 -0.73598284
2.5770123 2.4999857 -0.73682284
1.8691884 2.4592538 -0.73383451
1.8560333 2.4622355 -0.73130572
1.8640475 2.465106 -0.73213619
2.5988894 2.500814 -0.73134553
2.6552091 2.5031843 -0.73286229
1.8443323 2.4537196 -0.72670084
1.8756219 2.4667196 -0.7287761
1.8820975 2.4667211 -0.72669649
1.8910856 2.469022 -0.72897112
2.5768805 2.5008602 -0.72647583
1.8525426 2.4561889 -0.72477269
1.869009 2.4596434 -0.72226912
1.8558679 2.4626484 -0.72247124
1.8661653 2.4644842 -0.72356844
1.8825052 2.4733703 -0.72236723
1.8971442 2.47493 -0.72441906
2.6088669 2.5037258 -0.72280633
2.6550717 2.5040946 -0.72209013
1.8546557 2.4555469 -0.71625751
1.8587615 2.4600124 -0.71502757
1.8753704 2.4673476 -0.71534169
1.8835443 2.4684658 -0.71525359
1.8979343 2.4687126 -0.71942234
1.9048367 2.4779458 -0.71634692
2.5767486 2.5017345 -0.71612877
2.6214695 2.5019693 -0.71528155
1.840902 2.4538238 -0.7139793
1.8740826 2.4596629 -0.71459103
1.8671913 2.4625387 -0.71371496
1.897451 2.4714117 -0.71451426
1.9208906 2.4787579 -0.71436214
2.6549344 2.5050051 -0.71131802
1.8544513 2.4559731 -0.70687139
1.8585955 2.4604268 -0.70616257
1.8684574 2.4624405 -0.70919222
1.8816032 2.4676139 -0.70651662
1.9047813 2.4684067 -0.70976686
1.8838022 2.4725492 -0.70731664
1.9138832 2.4770651 -0.70519078
2.0521622 2.4839563 -0.70568407
2.5766168 2.502609 -0.70578176
2.5860863 2.5054481 -0.70743519
2.6746955 2.5073926 -0.70662999
2.7509289 2.5113924 -0.70795357
1.8614612 2.4548059 -0.70093644
1.8713608 2.4598393 -0.70159733
1.8816882 2.4590206 -0.70306414
1.8760194 2.4625463 -0.70388925
1.8980088 2.4699965 -0.70008945
1.9116267 2.4681046 -0.70000476
1.897241 2.4718499 -0.70486939
1.9027786 2.47668 -0.70430756
1.9277436 2.4785118 -0.70449519
2.0451295 2.4805174 -0.70411098
2.6213343 2.5028648 -0.70468402
2.6085992 2.5055029 -0.70177829
2.7142537 2.5088606 -0.70110971
1.8782332 2.4584587 -0.69607836
1.8850409 2.4653544 -0.69691414
1.913671 2.4775078 -0.69544309
2.0449533 2.4810617 -0.69539827
2.0552244 2.4867339 -0.69756603
2.5764849 2.5034835 -0.69543469
2.5984893 2.5034683 -0.69993997
2.5859537 2.5063257 -0.69705021
2.8160415 2.5157399 -0.69712043
1.8639044 2.4553595 -0.69406986
1.8815073 2.4594135 -0.69139981
1.8711931 2.460258 -0.69264102
1.8960009 2.4619277 -0.69131076
1.903827 2.4696255 -0.69321907
1.8978382 2.4704223 -0.69098097
1.9086814 2.4721603 -0.69416344
1.9275577 2.4789155 -0.69251102
1.9186661 2.4802101 -0.69272435
1.9261429 2.4822745 -0.69370687
2.0641873 2.4874153 -0.69133389
2.5130277 2.5038407 -0.69227511
2.6211994 2.5037603 -0.69408643
2.5641441 2.5065548 -0.69256055
2.7141123 2.5097978 -0.69001871
2.6509416 2.5103173 -0.6914503
1.8741045 2.4559991 -0.68501061
1.8809478 2.4628367 -0.68653709
1.9115357 2.4690952 -0.68717885
1.9217126 2.473491 -0.68818384
1.915493 2.4780502 -0.68654901
2.0447774 2.481606 -0.68668562
2.0518088 2.4850488 -0.68819785
2.0770836 2.4895399 -0.68587828
2.4352417 2.5036607 -0.68538904
2.598356 2.504353 -0.68947148
2.5426621 2.507144 -0.68809712
2.5858216 2.5072036 -0.68666524
2.6332908 2.5060399 -0.68706167
2.689157 2.5111635 -0.6862945
2.7506413 2.513299 -0.68539202
2.8158932 2.5167232 -0.68549049
2.8281903 2.5189466 -0.68527693
1.888345 2.4590552 -0.68174273
1.8924745 2.46434 -0.68360275
1.8976676 2.4708478 -0.68187249
1.9035759 2.4700789 -0.68296933
1.9424495 2.4779382 -0.68472093
1.9255633 2.4827371 -0.68488789
1.9364676 2.4832277 -0.68314946
2.0640092 2.4879656 -0.68252236
2.4165957 2.5043628 -0.68128324
2.5129004 2.5046849 -0.68228483
2.5219746 2.5070944 -0.68386877
2.5640132 2.5074224 -0.68229699
2.6698575 2.5110276 -0.68262929
2.8563545 2.520113 -0.68063897
1.8758326 2.4587164 -0.67593336
1.880779 2.4632583 -0.67751992
1.9182853 2.4682078 -0.67820531
1.9160517 2.4772053 -0.67683649
1.9258425 2.4829369 -0.67926425
2.0446012 2.4821503 -0.67797297
2.0515437 2.485868 -0.67508328
2.0864882 2.4899926 -0.67954695
2.0769038 2.4900951 -0.67699075
2.4351199 2.5044684 -0.6758315
2.45362 2.5051289 -0.67964035
2.5425329 2.5080011 -0.67795503
2.552268 2.5096292 -0.67971778
2.5856891 2.5080812 -0.6762802
2.5982225 2.5052376 -0.679003
2.6324215 2.5106964 -0.67552471
2.6506894 2.511097 -0.67897433
2.7091136 2.5116582 -0.67731774
2.7139711 2.510735 -0.67892766
1.8874677 2.45858 -0.67047429
1.8945878 2.4629152 -0.67166811
1.8974972 2.4712737 -0.67276406
1.9058312 2.4717753 -0.67426455
1.9292307 2.4780278 -0.67230451
1.9492973 2.4777031 -0.67452657
1.9355086 2.4818349 -0.67239445
1.9467214 2.4863732 -0.67430735
2.0579319 2.4906082 -0.67189348
2.4081316 2.5030947 -0.67497051
2.4621925 2.5079379 -0.6715377
2.512773 2.5055294 -0.67229462
2.5638826 2.5082898 -0.67203349
2.5762212 2.5052323 -0.67474067
2.6142769 2.5104883 -0.67208463
2.6696029 2.5118146 -0.67003167
2.6889 2.5119581 -0.67357516
2.7504976 2.5142527 -0.67411125
2.7425542 2.51825 -0.67009103
2.8157451 2.5177059 -0.67386049
2.8279161 2.5197952 -0.67169851
1.8737583 2.4585009 -0.66698152
1.9251266 2.4679146 -0.66817683
1.9147822 2.4732924 -0.66856694
1.9420304 2.4848385 -0.66608286
2.044425 2.4826946 -0.66926026
1.9733344 2.4882367 -0.66856736
2.0672066 2.4908519 -0.66561288
2.0767241 2.4906504 -0.66810322
2.0838237 2.4946275 -0.66507769
2.1030617 2.4949727 -0.66550064
2.1542225 2.4948072 -0.66920823
2.1435635 2.4950967 -0.66654694
2.5885398 2.5031805 -0.66702628
2.434998 2.5052762 -0.66627395
2.4534969 2.505945 -0.66998416
2.5014682 2.5082202 -0.66975069
2.5424037 2.5088582 -0.667813
2.5980892 2.5061226 -0.66853452
2.5962551 2.5104728 -0.66865408
2.7221012 2.5181634 -0.66645896
2.8562036 2.5211139 -0.66879642
1.8843669 2.4579215 -0.66456544
1.8949987 2.4590969 -0.66020817
1.896703 2.4623284 -0.66272819
1.9044727 2.4685051 -0.66452217
1.9216124 2.4736443 -0.6644817
1.9356769 2.477073 -0.66303998
1.9561434 2.4774714 -0.66422552
1.9554151 2.4867029 -0.6631223
2.0512786 2.4866874 -0.66196865
2.0600991 2.4872816 -0.66418582
2.0933647 2.4948881 -0.66305709
2.1672878 2.4916363 -0.66342121
2.1230817 2.4950991 -0.66149318
2.2395735 2.5010576 -0.66026562
2.2884164 2.5012338 -0.66129071
2.4079514 2.5042882 -0.66085052
2.5666733 2.5033112 -0.66289604
2.462069 2.5087571 -0.66184354
2.5126457 2.5063736 -0.66230434
2.5217192 2.5087893 -0.6638124
2.6321716 2.5114689 -0.66316271
2.7088537 2.5124609 -0.66446924
2.7503538 2.5152059 -0.66283047
2.7641521 2.5157723 -0.66312033
2.7844114 2.5192857 -0.66426551
1.9041433 2.4655395 -0.65713811
1.9249407 2.4683182 -0.65619266
1.9111122 2.4709771 -0.6586082
1.9237354 2.4731021 -0.65536046
1.939888 2.4810185 -0.65654588
1.9581113 2.4825077 -0.65645218
1.947257 2.4859729 -0.65841287
1.97245 2.4885807 -0.65804136
2.0418496 2.4874358 -0.65515083
2.0670283 2.4914033 -0.6567862
2.1028788 2.4955373 -0.656461
2.1433754 2.4956775 -0.65724885
2.1539385 2.4956849 -0.65515852
2.2165298 2.5007815 -0.65503824
2.2633932 2.5016105 -0.655707
2.275526 2.5017705 -0.65838271
2.5451343 2.5038021 -0.65879214
2.588407 2.5040622 -0.65659583
2.4348762 2.506084 -0.65671641
2.4430277 2.5089936 -0.65802461
2.4812722 2.5096643 -0.65588498
2.5024195 2.5069568 -0.65534222
2.5330734 2.5071559 -0.65619063
2.5520084 2.5113511 -0.65934259
2.5960097 2.5112309 -0.65652025
2.6140294 2.5112536 -0.65983671
2.6693482 2.5126019 -0.65743405
2.7422905 2.5190644 -0.6570524
2.8276415 2.5206435 -0.65812016
2.8560529 2.5221148 -0.65695387
2.868345 2.5250769 -0.6587137
1.8984249 2.4609215 -0.65376812
1.913568 2.4677601 -0.65291536
1.9320254 2.4760551 -0.65481615
1.9445179 2.4766645 -0.65307558
1.9559541 2.4778826 -0.65202057
1.9610989 2.4867673 -0.65248203
2.0555115 2.4875324 -0.6543076
1.9690793 2.4919882 -0.65418351
1.9917958 2.4925888 -0.65430021
2.0752664 2.4933939 -0.65425676
2.0835533 2.4954634 -0.65170079
2.0931833 2.4954491 -0.65407836
2.1639431 2.4967084 -0.65276766
2.1970119 2.4966106 -0.65098977
2.2080359 2.496911 -0.65347433
2.2393734 2.5016756 -0.65037453
2.5239234 2.504653 -0.65471447
2.5665419 2.5041826 -0.652587
2.4062109 2.509346 -0.65065205
2.4242735 2.5095453 -0.65422869
2.4619455 2.5095766 -0.65214938
2.5125184 2.5072179 -0.65231413
2.5542872 2.5073156 -0.65005338
2.6319218 2.5122409 -0.65080082
2.7085941 2.5132637 -0.65162075
2.7218401 2.51897 -0.65354961
2.75021 2.5161595 -0.6515497
2.7841425 2.5201168 -0.6509608
2.8058181 2.5202646 -0.6545347
1.8877997 2.4602394 -0.64658976
1.8970286 2.4605849 -0.64652354
1.9055622 2.4615674 -0.64603138
1.9250859 2.472115 -0.64606404
1.9318507 2.4764915 -0.64547944
1.9397125 2.4814568 -0.64717114
1.9499826 2.4844015 -0.64968729
1.9642611 2.487669 -0.64636999
1.9721929 2.4890032 -0.64755201
1.9810004 2.4883983 -0.64592409
2.0553343 2.4880805 -0.64553785
2.0668497 2.4919548 -0.64795947
2.0930018 2.4960098 -0.64509964
2.1026962 2.4961021 -0.64742142
2.1123643 2.4965811 -0.64519823
2.1431875 2.4962585 -0.64795083
2.1860619 2.4964256 -0.64851093
2.2163329 2.5013907 -0.64529157
2.2274866 2.5019007 -0.64771783
2.5353019 2.503057 -0.64698082
2.5450046 2.504663 -0.64860451
2.4347544 2.5068917 -0.64715886
2.4429057 2.509804 -0.64843673
2.4922707 2.5076177 -0.6484623
2.4811473 2.5104926 -0.64608449
2.7626143 2.5201998 -0.64739823
1.9156854 2.4671988 -0.64381248
1.9247547 2.4687219 -0.64420855
1.9442596 2.4771309 -0.64253664
1.9638023 2.4775655 -0.64180887
1.955808 2.4821696 -0.64370656
2.0438967 2.4843278 -0.64312226
2.0690303 2.4886632 -0.64010102
1.9942014 2.4945338 -0.6427241
2.0761852 2.4923162 -0.64144063
2.0857649 2.4922287 -0.64375359
2.1227112 2.4962447 -0.64315557
2.1536543 2.4965627 -0.64110875
2.1637526 2.4972973 -0.64334035
2.1968169 2.4972129 -0.64134955
2.2078395 2.4975176 -0.64376581
2.130132 2.5003164 -0.64448535
2.1720126 2.5008023 -0.64488602
2.2391737 2.5022936 -0.6404835
2.5056503 2.5006595 -0.64178407
2.5146971 2.5030534 -0.64321411
2.556565 2.5032866 -0.64068836
2.4531279 2.5083933 -0.64101553
2.4640005 2.5052431 -0.64337313
2.5237954 2.5055037 -0.64464825
2.5664105 2.505054 -0.64227796
2.4060915 2.510139 -0.64126909
2.5273957 2.5109248 -0.64390659
2.5778706 2.5121512 -0.64119339
2.5957646 2.5119889 -0.64438635
2.6690936 2.5133886 -0.64483643
2.7278907 2.5146496 -0.64197147
2.742027 2.5198793 -0.64401382
2.827354 2.5224187 -0.64259946
2.8428485 2.5238776 -0.64498293
2.9861722 2.5307956 -0.64037144
3.0453131 2.5354581 -0.64108747
1.9277577 2.4684463 -0.63581955
1.9311979 2.4741859 -0.63769615
1.9679184 2.479269 -0.63805223
1.9757143 2.488847 -0.63813108
2.0560293 2.4871678 -0.63713032
1.9839442 2.4920986 -0.639063
2.095228 2.4928067 -0.63706249
2.1429996 2.4968395 -0.63865274
2.1743588 2.4978385 -0.63631171
2.1858683 2.4970236 -0.6389392
2.129946 2.5008912 -0.63528615
2.2161357 2.5019996 -0.6355449
2.2272882 2.5025139 -0.6379028
2.2629871 2.5028653 -0.63562071
2.5351727 2.5039144 -0.63683879
2.4346328 2.5076995 -0.63760138
2.4726467 2.5081558 -0.63504887
2.4832516 2.5062275 -0.63716811
2.4921451 2.5084524 -0.63858587
2.5448747 2.5055242 -0.63841689
2.6188855 2.5080252 -0.63654554
2.4266586 2.5126393 -0.63593042
2.4433625 2.5125654 -0.63910365
2.4791758 2.510601 -0.63504958
2.4948945 2.5107799 -0.63793182
2.5439482 2.5116415 -0.63519299
2.5608521 2.5118065 -0.63818872
2.6316719 2.5130134 -0.63843882
2.7083344 2.5140665 -0.63877225
2.7859032 2.5208192 -0.63618559
2.8646326 2.5285845 -0.63639379
2.887682 2.5290332 -0.63989103
3.0725422 2.5358677 -0.63643903
1.9068451 2.4616671 -0.63476509
1.9174196 2.4658351 -0.63467115
1.9333637 2.4691851 -0.63202596
1.9456819 2.4771521 -0.63421333
1.9706442 2.4773431 -0.63123381
1.9535878 2.4818048 -0.63210976
2.0437205 2.4848719 -0.63440961
1.9607431 2.4876556 -0.63347375
1.9855587 2.4868064 -0.6331048
2.0688515 2.4892166 -0.63124394
1.9959882 2.4933314 -0.63307059
2.0760055 2.4928715 -0.6325531
2.0855839 2.4927878 -0.63480526
2.1151381 2.4927952 -0.63268977
2.0072048 2.4975245 -0.63487899
2.0381336 2.497277 -0.63443333
2.1036339 2.4950809 -0.63431835
2.1225257 2.4968176 -0.63398671
2.153465 2.497148 -0.63174224
2.1635618 2.4978862 -0.63391304
2.1934097 2.5021927 -0.63063049
2.2044106 2.5024698 -0.63297665
2.2389736 2.5029116 -0.63059241
2.505523 2.5015039 -0.63179386
2.5145693 2.503901 -0.63318592
2.2476251 2.5070391 -0.63205457
2.4075918 2.5066748 -0.63261068
2.4159937 2.5083566 -0.634027
2.4530048 2.5092094 -0.63135928
2.4638765 2.5060654 -0.633641
2.5236671 2.5063543 -0.6345821
2.5662792 2.5059252 -0.63196886
2.5836778 2.5073612 -0.63054526
2.5955193 2.5127468 -0.63225245
2.668839 2.5141759 -0.63223881
2.4591966 2.5150199 -0.63106906
2.5219502 2.5166423 -0.63095939
2.7767167 2.5174003 -0.63319772
2.7417636 2.5206938 -0.63097525
2.8270926 2.5223403 -0.63096344
2.8417387 2.5283799 -0.6329087
2.9356203 2.5303991 -0.6329906
3.0452883 2.5362587 -0.63113105
3.0540826 2.5366762 -0.63459796
1.9232564 2.4655144 -0.62616593
1.9354277 2.4738166 -0.62809718
1.9676561 2.4797428 -0.62734592
1.9685128 2.4812152 -0.62648374
2.0546412 2.4820607 -0.62863314
1.9757249 2.4871922 -0.62782198
2.0435443 2.4854164 -0.6256969
1.9837637 2.4925494 -0.62941426
1.9982567 2.4926095 -0.62597311
2.085403 2.4933467 -0.62585688
2.0950458 2.4933696 -0.62805331
2.0070214 2.4979823 -0.62508559
2.0170484 2.4957671 -0.62800634
2.1322322 2.497808 -0.62697285
2.1741669 2.4984317 -0.62681597
2.1824827 2.5020313 -0.62829012
2.2159388 2.5026085 -0.62579834
2.2270899 2.5031271 -0.62808776
2.262784 2.5034928 -0.62557757
2.4361918 2.5043201 -0.62874287
2.4742846 2.5048869 -0.62595403
2.5258694 2.5022306 -0.62533236
2.5350435 2.5047715 -0.62669671
2.2715578 2.5078154 -0.62701124
2.4259865 2.5066872 -0.62665558
2.4831262 2.5070589 -0.62732977
2.4920192 2.5092871 -0.6287095
2.5468454 2.5069132 -0.62640554
2.4290619 2.5148215 -0.62553358
2.4431887 2.5133188 -0.6287331
2.494662 2.511498 -0.62643647
2.560611 2.5125508 -0.62627536
2.7275367 2.5142 -0.62742394
2.5060451 2.5161624 -0.62816143
2.7499228 2.5180662 -0.62898815
2.8052747 2.5219443 -0.62765169
2.8271923 2.524333 -0.62897396
2.8874004 2.5299039 -0.62595534
2.9114282 2.5300231 -0.62946653
2.9857728 2.5335617 -0.62649167
1.9394323 2.468055 -0.62385982
1.9404814 2.4680345 -0.62109506
1.9494351 2.4736414 -0.62230825
1.9553099 2.4766374 -0.62392914
1.9775138 2.476614 -0.62206435
1.9876428 2.4837093 -0.62139595
1.9957031 2.487987 -0.62467635
2.0023172 2.4896514 -0.62469804
2.0639846 2.4871826 -0.62447822
2.0782003 2.4896131 -0.6245743
2.1045709 2.4940615 -0.62118483
2.1149535 2.4933662 -0.62355137
2.0244131 2.4963274 -0.6245001
2.046998 2.4970307 -0.62367553
2.1223404 2.4973903 -0.62481785
2.1427178 2.4977107 -0.62470567
2.1532757 2.4977331 -0.62237573
2.1633713 2.4984753 -0.62448573
2.1964273 2.4984174 -0.62206924
2.204215 2.5030739 -0.6233061
2.2387738 2.5035295 -0.62070131
2.4550338 2.5048509 -0.6225431
2.46593 2.5017416 -0.62475091
2.5053957 2.5023479 -0.62180364
2.5144415 2.5047483 -0.62315774
2.5780203 2.5047741 -0.6237942
2.2474244 2.5076594 -0.62212545
2.4074717 2.5074704 -0.62319738
2.4158733 2.5091555 -0.62457573
2.4446654 2.5070324 -0.62051094
2.6186366 2.5087938 -0.62424445
2.4000485 2.5145006 -0.62021303
2.4187994 2.5100379 -0.62397039
2.4633355 2.5112951 -0.6208781
2.4789455 2.5113132 -0.62365317
2.5269227 2.5123868 -0.62050557
2.6314123 2.5161366 -0.62292099
2.6878715 2.5151367 -0.62269807
2.7010126 2.5206904 -0.62449741
2.7620821 2.5218451 -0.62106258
2.7836046 2.5217793 -0.62435144
2.8643537 2.5294461 -0.62260258
2.9605188 2.5313623 -0.62227488
3.0255251 2.534091 -0.6246351
3.0372996 2.5353723 -0.62106502
3.0814621 2.5399265 -0.62431037
1.9249182 2.4651558 -0.61698228
1.9730248 2.477941 -0.61810035
1.9683335 2.4816632 -0.61690354
1.9795341 2.4842353 -0.61943161
2.0077283 2.4802577 -0.6160199
2.0543747 2.4828849 -0.61543864
2.0732079 2.4826486 -0.61528367
2.0196452 2.4864213 -0.6176191
2.0803936 2.4863586 -0.61653459
1.9850944 2.491878 -0.61541462
2.09727 2.4901721 -0.61992496
2.1172075 2.4902298 -0.61526597
2.1246099 2.4942815 -0.6165033
2.1663311 2.4945931 -0.61609453
2.0143845 2.4958386 -0.61749053
2.173975 2.4990249 -0.6173203
2.1866608 2.4967566 -0.61541033
2.0641789 2.5030079 -0.61658615
2.2157416 2.5032175 -0.61605167
2.2625811 2.5041203 -0.61553442
2.4763625 2.5005999 -0.61695969
2.5160241 2.5040712 -0.61636561
2.2242734 2.5071614 -0.61746657
2.2713542 2.5084453 -0.61693007
2.3899338 2.5099475 -0.61866128
2.4173925 2.5057244 -0.61578989
2.4243672 2.5068371 -0.61557269
2.4360695 2.5051303 -0.61915499
2.4834187 2.5073988 -0.61546743
2.4941471 2.5050631 -0.61964339
2.5478513 2.5052567 -0.6157729
2.5834336 2.508116 -0.61846459
2.4331551 2.5110078 -0.61552888
2.4478321 2.5114436 -0.61811125
2.7273345 2.5150776 -0.61534786
2.6623726 2.5202398 -0.6183784
2.826818 2.5231886 -0.61738503
2.8414631 2.5292325 -0.61926186
2.9353325 2.5312886 -0.61875081
3.0273371 2.53862 -0.61934781
1.9392446 2.4684627 -0.61176145
1.9448922 2.4665322 -0.61177075
1.9367346 2.4730563 -0.61452091
1.9492577 2.4740841 -0.61283457
1.9578992 2.4759355 -0.61459535
2.0484738 2.4774239 -0.61461926
2.0660548 2.4789901 -0.61403531
1.9930212 2.4819593 -0.61196935
2.0939016 2.4854748 -0.61363703
1.9987082 2.4928784 -0.61376852
2.0020492 2.4901352 -0.61376345
2.0243053 2.4947515 -0.61430317
2.1068099 2.4908953 -0.61296648
2.1347318 2.4945621 -0.61405665
2.1449232 2.4949536 -0.6115849
2.1580937 2.4911129 -0.61466449
2.0492945 2.4963989 -0.61344284
2.0548532 2.4968641 -0.61256146
2.1962323 2.4990196 -0.61242902
2.2072508 2.4993374 -0.61463988
2.0343981 2.5011888 -0.61170077
2.2385738 2.5041475 -0.61081022
2.4093757 2.5029507 -0.61461383
2.4462433 2.5036864 -0.61152512
2.4658055 2.5025673 -0.61498082
2.2472236 2.5082798 -0.61219633
2.2962847 2.5089469 -0.61164427
2.3093226 2.5086801 -0.61414623
2.3621612 2.5096896 -0.61356497
2.4549103 2.5056703 -0.61284888
2.5670416 2.5056086 -0.61380309
2.6183882 2.5095625 -0.6119433
2.348069 2.5101767 -0.61093682
2.3714292 2.5147948 -0.61492306
2.4944296 2.5122163 -0.6149413
2.7078149 2.515672 -0.61307514
2.7131233 2.5163593 -0.61238182
2.7833357 2.5226107 -0.61104679
2.6593568 2.5257871 -0.61198306
2.8871188 2.5307744 -0.6120196
2.9855838 2.5326147 -0.6112532
3.0111115 2.5332367 -0.61464441
3.0369499 2.536099 -0.61426151
3.0543017 2.5371377 -0.61209786
1.9311428 2.4661765 -0.60902309
1.9601777 2.476881 -0.60581207
1.9760066 2.4776514 -0.60847908
2.0658751 2.4795451 -0.60514778
1.9793534 2.4846864 -0.60978293
2.0281441 2.484688 -0.60639071
2.0730276 2.4832058 -0.6063658
2.0130956 2.4862504 -0.60557389
2.0802126 2.4869177 -0.60758626
2.0025451 2.4900012 -0.60516012
2.0139189 2.49296 -0.60756576
2.117022 2.4908028 -0.6060971
2.124424 2.4948564 -0.60730404
2.1579032 2.4917021 -0.60523713
2.027827 2.4953535 -0.60518938
2.0771966 2.4987226 -0.60834002
2.1661396 2.4951844 -0.60662919
2.1769528 2.4951813 -0.60882419
2.2187958 2.4995201 -0.6072731
2.467422 2.4992812 -0.60582364
2.0630777 2.5039864 -0.60799241
2.2623782 2.5047479 -0.60549134
2.4092553 2.5037494 -0.6051625
2.4193206 2.5012422 -0.60710216
2.4252319 2.5049572 -0.60567987
2.4369364 2.5037336 -0.60515308
2.4548039 2.5041285 -0.60600686
2.4762371 2.5014315 -0.60712135
2.5347521 2.5043483 -0.60862452
2.2240758 2.5077727 -0.60768193
2.2711504 2.5090752 -0.60684896
2.3939581 2.5060041 -0.60887897
2.4843545 2.5056305 -0.60520852
2.4966836 2.5068829 -0.60715544
2.5151944 2.5082741 -0.60717809
2.5831895 2.5088706 -0.60638398
2.3215535 2.5100071 -0.60606587
2.3347661 2.5100212 -0.6084978
2.3754315 2.5108044 -0.60527563
2.4631071 2.512001 -0.60958052
2.3998284 2.5151801 -0.60933363
2.6192882 2.5197611 -0.60552323
2.6876144 2.5159316 -0.6099788
2.6621189 2.5210233 -0.60584164
2.7618158 2.5226679 -0.60789478
2.841187 2.5300851 -0.60561508
2.8640749 2.5303078 -0.60881132
2.960228 2.5322618 -0.60787547
3.0254192 2.5354247 -0.60837412
1.9439639 2.4682162 -0.60143179
1.9556856 2.4720764 -0.60434473
1.9893842 2.472079 -0.60070455
2.0012023 2.4757974 -0.60105592
2.0493612 2.4762902 -0.60187662
2.0564318 2.4798226 -0.60308826
2.0847766 2.4798608 -0.60027289
1.982363 2.4824152 -0.6010496
1.9964145 2.482343 -0.60306346
2.0956683 2.4856112 -0.60206693
2.1824646 2.4877949 -0.60102153
2.0547028 2.4948018 -0.6035111
2.1066258 2.4914641 -0.6038661
2.1372304 2.4913206 -0.60107195
2.0382783 2.4984269 -0.60283768
2.0627065 2.4967015 -0.60132557
2.1447346 2.4955366 -0.60225642
2.1876459 2.4958937 -0.60142279
2.1960375 2.4996221 -0.60278881
2.2070546 2.499944 -0.60493135
2.4482458 2.4993062 -0.60263091
2.0465631 2.5043309 -0.60429829
2.2383738 2.5047655 -0.60091913
2.250335 2.5046926 -0.6032021
2.0961349 2.5050194 -0.60285759
2.2852581 2.5072064 -0.60461164
2.2960777 2.5095868 -0.60140347
2.3125277 2.50528 -0.60472655
2.3478553 2.5108368 -0.60036904
2.3619456 2.5103555 -0.60290599
2.4329307 2.5117018 -0.60442138
2.6491761 2.5157735 -0.60411841
2.7075553 2.5164747 -0.60022664
2.7271042 2.5170808 -0.60306096
2.5073967 2.5221434 -0.60093141
2.8047314 2.5236239 -0.60076863
2.8265436 2.5240369 -0.60380661
2.7129726 2.5298123 -0.60478461
2.9350448 2.5321784 -0.60451096
1.9653375 2.4710269 -0.59659111
2.0095961 2.4844623 -0.5973627
2.0184813 2.4845562 -0.59587485
2.0656953 2.4801006 -0.59626019
2.109468 2.4873712 -0.59575427
2.1608407 2.4877923 -0.59676838
2.0177693 2.4901237 -0.59881413
2.0332482 2.4908142 -0.59891397
2.1168368 2.4913754 -0.5969283
2.1266921 2.4917531 -0.59889817
2.168467 2.4922023 -0.59793198
2.0826132 2.4971795 -0.59816641
2.2100883 2.4962144 -0.59615111
2.0504572 2.5016091 -0.59532231
2.0678048 2.5006733 -0.59911907
2.2185979 2.5001314 -0.59748846
2.2264946 2.5049667 -0.59864259
2.4149761 2.501174 -0.5969485
2.1181569 2.506387 -0.59955376
2.2621751 2.5053754 -0.5954482
2.2742987 2.5055637 -0.59766769
2.3254633 2.5058441 -0.59670734
2.3386991 2.5059023 -0.59905756
2.379432 2.5068197 -0.59553701
2.3937383 2.5066838 -0.59799957
2.4250593 2.5057065 -0.59537029
2.4524426 2.5076385 -0.59684294
2.4672432 2.5082846 -0.5992527
2.5149591 2.5090017 -0.59553075
2.4038756 2.511281 -0.59946197
2.6001029 2.5102277 -0.59689367
2.6181393 2.5103309 -0.59964216
2.7830667 2.5234418 -0.59774208
2.6589744 2.5264776 -0.5963763
1.9308795 2.4668338 -0.59496093
1.9529103 2.4679124 -0.59062326
1.952055 2.4721649 -0.5947994
2.0514903 2.4729295 -0.59389269
1.9750338 2.4765975 -0.59497595
1.9861689 2.4794669 -0.59247661
2.0090406 2.4755025 -0.5901894
2.0762906 2.4782932 -0.59418273
1.9981909 2.4811296 -0.59327233
2.0562534 2.4803743 -0.59426153
2.0845945 2.4804239 -0.59126371
2.0966794 2.4842868 -0.59340632
2.0346138 2.4878788 -0.59406167
2.1295719 2.487735 -0.59062231
2.1395123 2.4882512 -0.59253812
2.1822705 2.4883947 -0.59141928
2.0667388 2.4907665 -0.59498644
2.1476536 2.4915886 -0.59388489
2.1945252 2.4944117 -0.59331799
2.0421569 2.4956691 -0.59389842
2.0796175 2.4958725 -0.59180325
2.4394817 2.4981632 -0.5916909
2.0850616 2.5004413 -0.59259069
2.1049261 2.5019557 -0.59119785
2.2414644 2.5011458 -0.59192324
2.2534444 2.5011098 -0.59413171
2.4481223 2.5001254 -0.59293675
2.487762 2.5039573 -0.59147042
2.5035257 2.5042439 -0.59396142
2.0935271 2.5067427 -0.59399021
2.1218908 2.5084736 -0.59450161
2.1587114 2.5090151 -0.59014004
2.2992632 2.5061517 -0.59202778
2.3123183 2.5059276 -0.59436405
2.3652246 2.5071094 -0.59308207
2.4370213 2.5078967 -0.59427989
2.566668 2.5072308 -0.59148937
2.5829451 2.5096254 -0.59430331
2.6489239 2.5165529 -0.59164238
2.6680751 2.5165372 -0.59444588
2.6189125 2.5204394 -0.59019041
2.7615495 2.5234904 -0.59472692
2.8262691 2.5248852 -0.59022826
2.6200614 2.5259719 -0.5919342
2.8482265 2.5255375 -0.5931409
1.9518771 2.472609 -0.5852952
1.9669394 2.4715276 -0.58871412
1.9895453 2.4745417 -0.58682162
2.0134299 2.4815931 -0.58857173
2.1043522 2.4802346 -0.58623397
2.038197 2.4880893 -0.58626628
2.0730884 2.4888313 -0.58502519
2.115396 2.4862309 -0.5879488
2.1499496 2.4885511 -0.58525348
2.1606493 2.4883838 -0.58730298
2.171423 2.4883313 -0.58935833
2.0179646 2.4937499 -0.58933067
2.2056572 2.4948959 -0.58575642
2.0584309 2.4957013 -0.58730829
2.0736635 2.4966581 -0.58532232
2.2209997 2.4973016 -0.58841741
2.4211259 2.4975739 -0.58878088
2.2295661 2.5013103 -0.58972114
2.2653029 2.501832 -0.58626539
2.2774456 2.5020571 -0.58841056
2.3286848 2.5024886 -0.58709157
2.3977594 2.502749 -0.58808041
2.4106324 2.5011027 -0.58683276
2.4721045 2.5038371 -0.58898771
2.1068029 2.5099401 -0.58618903
2.1269009 2.5082288 -0.58506441
2.1355233 2.5050299 -0.58761573
2.2869728 2.5056958 -0.58987117
2.3384862 2.5065598 -0.58852792
2.4079208 2.5073872 -0.58949912
2.4522152 2.5083416 -0.58559096
2.5482268 2.5096641 -0.5890013
2.1574948 2.5124247 -0.58555925
2.3476417 2.511497 -0.58980137
2.6178908 2.5110993 -0.58734107
2.6306725 2.5161028 -0.58899105
2.4382501 2.5212712 -0.58980525
2.5071499 2.5227594 -0.58775192
2.8044596 2.5244637 -0.58732712
1.9447503 2.4668064 -0.58408558
1.9648252 2.4683409 -0.58278918
1.9779391 2.4745271 -0.58135629
1.994477 2.4707756 -0.58020473
2.0091429 2.4767337 -0.58314145
2.0867836 2.4771826 -0.58301115
2.0246654 2.483664 -0.58358353
2.094049 2.4810286 -0.58414686
2.1852441 2.4845648 -0.58270276
1.9940667 2.4853845 -0.58416516
2.044188 2.4856524 -0.58468062
2.1213384 2.4851217 -0.58005321
2.1355805 2.4867373 -0.5826484
2.1929965 2.4891775 -0.58381546
2.0460341 2.4929147 -0.58488309
2.1065896 2.4943099 -0.58398533
2.2478435 2.4932961 -0.58370852
2.0856562 2.4977469 -0.5849604
2.2326365 2.4976587 -0.58072364
2.2565527 2.4975319 -0.58498538
2.4393587 2.4989791 -0.58203471
2.0974615 2.5041432 -0.5846225
2.1113012 2.5001354 -0.58093596
2.1630876 2.5042973 -0.58127064
2.2901378 2.5022287 -0.58049393
2.3031254 2.5019073 -0.5827415
2.3155208 2.5025346 -0.58483028
2.3557632 2.502697 -0.58114272
2.3692007 2.5030861 -0.5833416
2.4282777 2.5018148 -0.58396691
2.4411101 2.504097 -0.58404708
2.5198994 2.5047114 -0.5849151
2.142942 2.5097647 -0.58285809
2.3792138 2.5074937 -0.58474886
2.4590309 2.5194063 -0.58012539
2.4919274 2.5219955 -0.58462673
1.9667594 2.4719768 -0.57910341
2.004966 2.4778576 -0.57691985
2.0962527 2.4778185 -0.57580435
2.0132446 2.4820559 -0.57867193
2.1139383 2.4810627 -0.57893753
2.0432963 2.4856985 -0.57685626
2.1522443 2.4855175 -0.57656127
2.1629593 2.4853797 -0.57854366
2.1739655 2.4852114 -0.57581913
2.2044349 2.4892118 -0.57625055
2.0499101 2.4901638 -0.57579166
2.0631375 2.4923511 -0.57834208
2.2129226 2.4931011 -0.57751024
2.2240503 2.4936156 -0.57945633
2.0292976 2.4987855 -0.5774371
2.2684293 2.4982932 -0.57700658
2.281261 2.4977279 -0.57924205
2.3194044 2.4983389 -0.57537866
2.3325913 2.4983368 -0.57755816
2.1157238 2.5037231 -0.57786155
2.3417258 2.5032439 -0.57879204
2.3975387 2.5034313 -0.57715535
2.4119642 2.5034993 -0.579445
2.4606638 2.5001345 -0.57609236
2.4872408 2.5028718 -0.57971275
2.1641934 2.5081973 -0.57776463
2.1769686 2.51227 -0.57849908
2.6176422 2.511868 -0.57503992
2.3020418 2.517642 -0.57957786
2.6304226 2.516875 -0.57662916
2.7470474 2.5188956 -0.57985049
1.9445729 2.4672492 -0.5746119
2.0145121 2.4749999 -0.57334954
1.9897907 2.4769783 -0.5740723
2.0264521 2.4824972 -0.57353497
2.1341014 2.4815488 -0.57349133
2.1422205 2.484859 -0.57476044
2.0520301 2.4854319 -0.57338196
2.0728076 2.4893384 -0.5735656
2.1211519 2.4856987 -0.57082355
2.1850491 2.485167 -0.5730626
2.1959882 2.4853864 -0.57499409
2.2270994 2.4899342 -0.57041925
2.2509303 2.4896886 -0.5745225
2.2357051 2.4940121 -0.57165015
2.0754232 2.4958017 -0.57041013
2.0887399 2.4970505 -0.57471883
2.1165569 2.4962063 -0.57146347
2.2563496 2.4981594 -0.57494223
2.2933011 2.4987664 -0.57104063
2.3063076 2.4984822 -0.57320619
2.3590198 2.4994237 -0.5712412
2.0972664 2.5046296 -0.57421291
2.1340897 2.5035505 -0.57085073
2.1445465 2.504679 -0.57413793
2.3689833 2.5037572 -0.57259899
2.3832116 2.5035174 -0.57487339
2.4262633 2.504415 -0.57063472
2.5196629 2.5054424 -0.57321459
2.1969256 2.5111928 -0.57225585
1.993593 2.4740388 -0.56530911
2.004904 2.4768863 -0.56743604
2.0159988 2.4767735 -0.56618959
2.1137524 2.4816375 -0.56973827
2.1551592 2.4815831 -0.56797683
2.0520782 2.4864793 -0.56791127
2.2074447 2.4854598 -0.56731677
2.2153068 2.4902494 -0.56837714
2.2550914 2.4924526 -0.56508064
2.271554 2.4947591 -0.56767178
2.3226037 2.494956 -0.56568527
2.1034493 2.4951162 -0.56666243
2.3323784 2.4989944 -0.56702852
2.345654 2.4991388 -0.56913131
2.4015574 2.499505 -0.56709933
2.1196697 2.5011697 -0.56825161
2.1727049 2.5046992 -0.56909901
2.1671472 2.5063763 -0.56611192
2.1818116 2.5092936 -0.56863999
2.3207054 2.5141618 -0.56991005
2.6363139 2.5122828 -0.56528151
2.0270324 2.4835341 -0.56308538
2.0414224 2.4846916 -0.56435376
2.0769906 2.4849012 -0.56309789
2.0646982 2.4855342 -0.56473285
2.0842402 2.4893532 -0.56215757
2.2301466 2.486258 -0.56130618
2.1320233 2.4936972 -0.561804
2.2387724 2.49037 -0.5625006
2.2843008 2.4945524 -0.56468582
2.2971368 2.4944892 -0.56166118
2.0927036 2.4956598 -0.56344295
2.3094883 2.4950621 -0.56359482
2.3729563 2.4997425 -0.56272161
2.3872077 2.4995468 -0.56490672
2.0392365 2.5005407 -0.56476843
2.1380484 2.5010395 -0.56107473
2.1477242 2.5009122 -0.56437314
2.1525595 2.5036249 -0.56359017
2.3588037 2.500092 -0.56054425
2.2033067 2.5053573 -0.56150937
2.2221785 2.5087764 -0.56479049
2.536145 2.5061088 -0.56385791
2.6173935 2.5126367 -0.56273878
1.9965968 2.4717817 -0.55627906
2.0087194 2.4739881 -0.55852962
2.0182486 2.4767096 -0.55608898
2.0409439 2.4774563 -0.55635631
2.0452807 2.4819098 -0.55518496
2.05847 2.4840288 -0.55756503
2.207247 2.4860711 -0.55753207
2.1071026 2.4900274 -0.55711019
2.2625599 2.4910226 -0.5563454
2.2753429 2.4903975 -0.55841017
2.1109066 2.4951344 -0.55641878
2.1244423 2.4980109 -0.55874383
2.3223917 2.495611 -0.55520117
2.3355961 2.4956512 -0.55721498
2.3495805 2.495039 -0.55937934
2.1754112 2.5034847 -0.55709785
2.1866527 2.5063217 -0.55868959
2.0226166 2.4760761 -0.55308127
2.032968 2.4792852 -0.55299461
2.0686994 2.4794471 -0.55025071
2.0796938 2.4804158 -0.55142707
2.0861626 2.4853551 -0.55312705
2.0974412 2.4924102 -0.55409944
2.1370671 2.4923735 -0.5507468
2.2873392 2.4913816 -0.55005348
2.3047876 2.4933743 -0.55262125
2.1425138 2.4954705 -0.55082572
2.1541038 2.4991636 -0.55363369
2.3627524 2.4960389 -0.5506649
2.1573658 2.5005615 -0.55381924
2.2187254 2.5039527 -0.55261719
2.227052 2.5059025 -0.55451608
2.2973633 2.5063782 -0.55302739
1.996413 2.4722409 -0.54645526
2.0456114 2.4763958 -0.54593962
2.0623415 2.4812889 -0.54823768
2.1130896 2.4849823 -0.54589927
2.152431 2.4855065 -0.54511714
2.1148353 2.4925499 -0.54673147
2.1292136 2.4948564 -0.54914474
2.1928849 2.4993818 -0.54828858
2.1767926 2.5003452 -0.54629928
2.1914918 2.5033541 -0.54864782
2.2239809 2.5019152 -0.54564571
2.0368104 2.4764686 -0.54382443
2.0794997 2.4809008 -0.54105544
2.094713 2.4826164 -0.54352272
2.1013553 2.4897871 -0.54449451
2.138124 2.4886651 -0.54026937
2.1476243 2.4948254 -0.54162103
2.165138 2.4961605 -0.54404914
2.217031 2.4995985 -0.54187691
2.0740821 2.4778275 -0.53984559
2.0621495 2.4817679 -0.53798783
2.1230476 2.4835935 -0.53568518
2.1198068 2.4863091 -0.53605008
2.1866388 2.4938138 -0.53719306
2.2002256 2.497386 -0.5372715
2.0366216 2.4769402 -0.53373438
2.096519 2.4815464 -0.53287184
2.1060896 2.4865456 -0.53497601
2.1573956 2.4861236 -0.53044832
2.1517217 2.4922674 -0.53495485
2.1669729 2.4944475 -0.53400338
2.1744788 2.4930825 -0.5331279
2.2218835 2.4966874 -0.53150964
2.0660188 2.4790335 -0.52854645
2.0738001 2.4783366 -0.52834028
2.1100008 2.4839301 -0.52521127
2.125246 2.4853094 -0.52639949
2.1341567 2.4852102 -0.52537072
2.1799934 2.4911547 -0.52907503
2.1914563 2.4908109 -0.52701277
2.2062097 2.4939528 -0.52918345
2.2142491 2.4931748 -0.52721226
2.1026175 2.4804378 -0.52157366
2.1571932 2.4886281 -0.52180207
2.1767797 2.4878349 -0.52484834
2.181802 2.4910264 -0.52216196
2.1282613 2.4835889 -0.51750803
2.1426888 2.4860256 -0.51965189
2.2118835 2.4904206 -0.5189634
2.1098027 2.4844244 -0.51463419
2.1765733 2.4883504 -0.51382232
