# .PCD v0.7 - Point Cloud Data file format
VERSION 0.7
FIELDS x y z
SIZE 4 4 4
TYPE F F F
COUNT 1 1 1
WIDTH 786
HEIGHT 1
VIEWPOINT 0 0 0 1 0 0 0
POINTS 786
DATA ascii
3.5618672 2.4548874 -0.31507599
3.5758281 2.4535699 -0.31475949
3.5508263 2.4497385 -0.30202401
3.5014927 2.4414012 -0.28940722
3.5397854 2.4445891 -0.28897202
3.5536397 2.4432218 -0.28852949
3.5920973 2.4446623 -0.2876417
3.606971 2.441756 -0.28684366
3.5287447 2.4394403 -0.27592003
3.5150499 2.440892 -0.27643004
3.5206983 2.4415674 -0.27572215
3.5961838 2.4395785 -0.27428141
3.5453053 2.4315162 -0.2617355
3.584923 2.4343269 -0.26096952
3.5991557 2.4331813 -0.26042157
3.4774144 2.4379373 -0.26447004
3.5150187 2.4418988 -0.26390669
3.5259752 2.4480295 -0.26437229
4.2415457 2.473875 -0.26070425
4.2621536 2.471837 -0.26075932
4.1825762 2.4779491 -0.26037255
4.2020931 2.4764984 -0.26047215
4.2144814 2.4847536 -0.26144448
4.2747564 2.4802358 -0.26174852
4.0649104 2.4415932 -0.25530353
4.0770259 2.4496672 -0.25625452
4.0952435 2.4486647 -0.25638226
4.1142039 2.4468427 -0.25643823
4.1773176 2.4599879 -0.25852749
4.1196012 2.4648967 -0.25829419
4.1579399 2.4615314 -0.2584388
4.1317806 2.4730127 -0.25925013
4.0044308 2.4288898 -0.2532908
3.4930749 2.4306436 -0.25045213
4.0527945 2.4335194 -0.25435254
4.0342455 2.4356151 -0.25432888
3.5396914 2.4476242 -0.25121963
3.5624332 2.4227917 -0.24718042
3.5066628 2.429142 -0.24981607
3.5203571 2.4277 -0.24918452
3.5736623 2.4290752 -0.24765758
3.5878415 2.4279048 -0.24704665
3.5314198 2.4338903 -0.24965462
4.1935725 2.464982 -0.24547872
4.1354933 2.4695044 -0.24543306
4.1547136 2.4679041 -0.24543735
4.1740732 2.4663966 -0.24545261
4.2060299 2.4732833 -0.24645653
4.2184868 2.481585 -0.24743435
4.2382646 2.4803557 -0.24748245
4.0190444 2.4338195 -0.24066904
4.0496216 2.4397874 -0.24156478
3.9482453 2.4403448 -0.24071899
4.0310903 2.4418471 -0.24161455
4.0617371 2.4478612 -0.24251577
4.0920534 2.4549651 -0.2435278
4.1109958 2.4531794 -0.24351028
4.1300774 2.4514866 -0.2435036
4.0738525 2.455935 -0.24346676
3.5092628 2.4225259 -0.23606953
3.5230103 2.4211187 -0.23537949
3.5480328 2.4260206 -0.23516859
3.97119 2.4294372 -0.23978481
4.0069981 2.4257922 -0.23972353
3.5368638 2.4197707 -0.23469396
3.5614405 2.4174986 -0.23076287
3.5769365 2.4167957 -0.23017642
3.5624013 2.4238234 -0.23434567
3.5765276 2.4226284 -0.23367172
4.1077881 2.459516 -0.23058233
4.1268511 2.457859 -0.23050216
4.0706797 2.462203 -0.23067901
4.0888638 2.4612658 -0.23067322
4.1778526 2.463125 -0.23135266
4.1391692 2.4660678 -0.23146906
4.1514874 2.4742768 -0.23243591
4.1903095 2.4714265 -0.23233047
4.2099295 2.4701405 -0.23229411
3.9797511 2.4159689 -0.22511813
3.9097981 2.4228785 -0.22550294
3.9269576 2.4212582 -0.22541681
3.9917972 2.4239964 -0.22606364
3.9388075 2.4291551 -0.22634694
3.9561567 2.4276614 -0.22627559
4.0222168 2.4299073 -0.22687504
4.0038433 2.432024 -0.22700921
4.0343323 2.4379811 -0.22782603
4.0464482 2.4460552 -0.22877702
4.0645061 2.4450338 -0.22876135
3.5256631 2.414547 -0.22145292
3.8980114 2.4150238 -0.22457775
3.5368321 2.4207969 -0.22192755
3.5539312 2.4110384 -0.21981734
3.5810494 2.4100409 -0.21543315
4.0311594 2.4442492 -0.21503833
4.0613165 2.4513345 -0.21590683
4.0734949 2.4594502 -0.21686277
4.1236248 2.4642317 -0.21750078
4.0856743 2.4675665 -0.21781871
4.1045799 2.4658527 -0.21765432
4.1745896 2.4695697 -0.21820429
4.1359434 2.4724405 -0.21846768
4.1551971 2.4709587 -0.21833053
4.187047 2.4778712 -0.2191821
3.5967185 2.4094548 -0.21478757
3.8831377 2.4132669 -0.21121213
3.9001541 2.4115951 -0.21104929
3.8662479 2.4150229 -0.21138498
3.912004 2.4194918 -0.21197942
3.9590673 2.4235311 -0.21252659
3.9765961 2.4222007 -0.21240392
3.9238539 2.4273887 -0.21290955
3.9411232 2.4258854 -0.21276644
3.9886422 2.4302282 -0.21334943
4.0006886 2.4382558 -0.214295
4.0190439 2.4361753 -0.21408734
4.0491371 2.4432182 -0.21495089
3.5566897 2.4045467 -0.20564473
3.5144622 2.4093232 -0.2082119
3.5007153 2.4107208 -0.20902348
4.1713271 2.4760141 -0.20505598
3.5234101 2.406208 -0.20345783
4.0037546 2.4343693 -0.20034859
4.0158706 2.4424434 -0.20129958
4.0337687 2.4414029 -0.20114043
4.0459476 2.4495187 -0.20209643
4.0581264 2.4576349 -0.20305237
4.0768747 2.4558644 -0.20280358
4.0891232 2.4640269 -0.203765
4.1080809 2.4623954 -0.20353255
4.1271772 2.4608569 -0.203311
4.1395645 2.4691122 -0.20428333
4.1588697 2.4677126 -0.20407823
3.8564773 2.4036553 -0.19692138
3.8852005 2.4098287 -0.19761184
3.9022634 2.4082317 -0.19738713
3.4735088 2.4147062 -0.19807601
3.5144305 2.4103496 -0.19544551
3.868264 2.4115098 -0.19784656
3.8182139 2.4170594 -0.19861004
3.9141767 2.4161706 -0.19832221
3.9260898 2.4241097 -0.19925734
3.9439461 2.4217448 -0.19893852
3.961395 2.4204051 -0.19874409
3.9734411 2.4284327 -0.1996896
3.9916391 2.4262953 -0.19939759
3.5453224 2.3992453 -0.19220674
3.5032613 2.4040997 -0.19497088
3.5313032 2.4004855 -0.19306749
4.1239324 2.4672656 -0.19023612
3.5736055 2.397141 -0.18631896
3.8820968 2.4159589 -0.18510458
3.9288249 2.4199586 -0.18535051
3.9461939 2.4186096 -0.18508431
3.9110565 2.4223337 -0.18574819
3.9702861 2.4346647 -0.18697533
3.9884658 2.4325633 -0.18660983
4.0005817 2.4406371 -0.18756083
4.0678997 2.4441416 -0.18763044
4.0126972 2.4487112 -0.18851182
4.0305786 2.4477034 -0.18828592
4.0491695 2.4458761 -0.18795267
4.0802183 2.4523506 -0.18859735
4.1115446 2.4590104 -0.18926379
4.092536 2.4605594 -0.1895642
3.7967362 2.3978465 -0.18329296
3.464886 2.40183 -0.18360955
3.8249369 2.4037154 -0.18387696
3.8416035 2.4018984 -0.18355569
3.858397 2.4001656 -0.18324432
3.8083963 2.4056168 -0.18420818
3.8702469 2.4080622 -0.18417445
3.4491358 2.4128835 -0.18104401
3.8991432 2.4143949 -0.18481311
3.9642346 2.4164155 -0.18470785
3.5339551 2.3939438 -0.17876881
3.519989 2.3952088 -0.17969257
4.0095243 2.4549789 -0.17572418
4.027389 2.4540043 -0.17543134
4.0459619 2.4522128 -0.17502478
4.0959129 2.4571638 -0.17521659
4.1083002 2.4654188 -0.17618892
3.5938478 2.3889673 -0.17022127
3.5623019 2.3908181 -0.17442234
3.6649857 2.3915319 -0.17054561
3.7225618 2.3938363 -0.17031899
3.5735605 2.3983426 -0.17269576
3.6762853 2.3990617 -0.17143252
3.6914496 2.3975751 -0.17109737
3.810143 2.4019678 -0.1705831
3.8267298 2.4001412 -0.17019007
3.702806 2.405143 -0.17198876
3.8385165 2.4079959 -0.17111525
3.8552933 2.4062958 -0.17073712
3.8671432 2.4141927 -0.17166725
3.88411 2.4126191 -0.17130396
3.896023 2.420558 -0.17223904
3.9430389 2.4248414 -0.17237005
3.9610615 2.4226832 -0.17192021
3.9079363 2.4284971 -0.17317411
3.9256864 2.426158 -0.172703
3.9852927 2.4388311 -0.17382219
3.9671311 2.4408965 -0.17426106
3.9974084 2.4469051 -0.17477319
4.0835247 2.4489086 -0.17424425
4.0646739 2.4505143 -0.174629
3.4561567 2.3889041 -0.16901705
3.5339229 2.3949852 -0.16581255
3.7984195 2.3941553 -0.16966286
3.4382329 2.4240994 -0.16517136
3.4894359 2.3881075 -0.16161135
3.5007164 2.3953185 -0.1622102
3.4965839 2.4000864 -0.16112533
3.5595682 2.4099684 -0.16166803
3.9048162 2.4346602 -0.1606001
3.9225481 2.4323568 -0.16005549
3.9700038 2.4370251 -0.16008344
3.9821196 2.4450991 -0.16103444
4.0491295 2.448678 -0.16066071
4.0678926 2.447062 -0.16019699
3.994235 2.4531732 -0.16198543
4.0120201 2.4521885 -0.16162089
4.0305052 2.450387 -0.16113541
3.6657622 2.3883142 -0.15732816
3.7239599 2.3898721 -0.15679094
3.7395205 2.388689 -0.15642789
3.6923251 2.3944631 -0.15782872
3.8000693 2.3905296 -0.1558992
3.6470478 2.3989484 -0.15902802
3.6771188 2.3958824 -0.15821955
3.7511175 2.3964171 -0.15733817
3.8118563 2.3983841 -0.15682438
3.8284898 2.3966327 -0.15636954
3.7627144 2.4041452 -0.15824839
3.8354294 2.4140935 -0.15867475
3.8521895 2.4124262 -0.1582298
3.8809896 2.4187822 -0.15872994
3.8640397 2.4203231 -0.15915993
3.8929029 2.4267211 -0.15966502
3.9578881 2.4289513 -0.15913245
3.9398839 2.4310732 -0.15965578
4.0933099 2.43576 -0.15831909
3.4973609 2.384656 -0.15294269
3.5112205 2.3833408 -0.1518929
3.4836078 2.3860302 -0.153997
3.406548 2.3999686 -0.1504266
3.4170315 2.4069548 -0.15124944
3.440496 2.4123576 -0.15163061
3.5271621 2.3844013 -0.14619949
3.4995081 2.3877203 -0.14713296
3.485677 2.3900166 -0.14769062
3.5381198 2.3917036 -0.14705959
3.7596769 2.4101448 -0.14600828
3.8205557 2.4123366 -0.14530912
3.849086 2.4185567 -0.14572254
3.8659563 2.4170065 -0.14522079
3.8323424 2.4201913 -0.1462343
3.8778696 2.4249454 -0.14615586
3.8954439 2.4225855 -0.14552686
3.9246831 2.4292777 -0.14599594
3.9074268 2.4305708 -0.14646742
3.9722939 2.4341412 -0.14589849
3.936729 2.4373052 -0.14694151
3.9547148 2.4352193 -0.14634469
4.0212669 2.438633 -0.14572552
3.9844728 2.4422572 -0.14685449
4.0028 2.4403987 -0.14628461
4.0335851 2.446842 -0.14669237
4.0646482 2.4534707 -0.14712211
4.0459032 2.4550507 -0.14765927
3.640075 2.3790536 -0.14355901
3.6251683 2.3806329 -0.14403227
3.6514316 2.3866215 -0.1444504
3.6665089 2.3851557 -0.14399049
3.7093978 2.3881516 -0.14370504
3.7248864 2.3869603 -0.1432775
3.6779222 2.3927617 -0.14488634
3.6935968 2.3904147 -0.14429072
3.7364831 2.3946886 -0.14418778
3.7525942 2.3926322 -0.14362648
3.7805552 2.3984728 -0.1439952
3.7969823 2.3966274 -0.14345875
3.343327 2.4046125 -0.14047828
3.8087692 2.4044819 -0.14438394
3.2733901 2.4051771 -0.14198694
3.3021781 2.3771908 -0.13724843
3.3978829 2.3810492 -0.1358709
3.4348087 2.3839836 -0.13555393
3.3350687 2.3889103 -0.1383169
3.3597386 2.3862271 -0.13741627
3.4084678 2.388103 -0.13670167
3.4214356 2.3865457 -0.13620648
3.4587283 2.3897247 -0.13591829
3.4455011 2.391109 -0.13639316
3.7835364 2.3917339 -0.13745013
3.5703957 2.3748984 -0.13144353
3.5849457 2.3731205 -0.13088331
3.5416372 2.3786812 -0.13259074
3.6109095 2.3789487 -0.13121894
3.6257441 2.3773608 -0.13068119
3.5961883 2.3806126 -0.13176575
3.6371007 2.3849287 -0.13157257
3.6521063 2.3834543 -0.13104811
3.6676376 2.3810558 -0.13037589
3.5527089 2.3860595 -0.13345978
3.6791143 2.3887038 -0.1312767
3.6948352 2.3864317 -0.13061926
3.7102523 2.3852315 -0.13012704
3.721849 2.3929598 -0.13103732
3.7378802 2.3908939 -0.13040432
3.2051494 2.4035015 -0.13190135
3.7774847 2.4045377 -0.13162151
3.7612004 2.4064348 -0.13223478
3.8056819 2.4105797 -0.13194332
3.8174686 2.4184344 -0.1328685
3.8341327 2.4167902 -0.13228515
3.8509228 2.4152305 -0.13171163
3.8628361 2.4231696 -0.13264677
3.8803229 2.4207993 -0.13193879
3.8923056 2.4287846 -0.13287935
3.909482 2.4274821 -0.13233611
3.9394259 2.433413 -0.13260606
3.975095 2.4304104 -0.13143381
3.9215279 2.4355094 -0.13328162
3.9873438 2.4385729 -0.13239524
3.9515417 2.4414871 -0.13355699
3.9995923 2.4467354 -0.13335666
3.4884853 2.3727381 -0.12501702
3.2204912 2.3768806 -0.12743059
3.1865978 2.3822455 -0.12907544
3.2305443 2.38358 -0.12821969
3.242007 2.3823252 -0.12774965
3.2873833 2.384613 -0.12700626
3.3465734 2.3846719 -0.12558588
3.2521043 2.3890543 -0.12854221
3.2637 2.387888 -0.12808254
3.3097711 2.3893683 -0.12719801
3.334125 2.3865402 -0.1261743
3.7540379 2.3889127 -0.1297811
3.2738416 2.3946466 -0.12887856
3.2976198 2.3914347 -0.12780973
3.7985826 2.3930998 -0.12949476
3.3200583 2.3962238 -0.12800547
3.3999319 2.3681393 -0.12175092
3.4637957 2.3687716 -0.12030604
3.5530448 2.3825092 -0.12026665
3.5165937 2.3696527 -0.11916664
3.5307875 2.3676767 -0.11851963
3.5718396 2.3695498 -0.11887789
3.2191675 2.3740911 -0.11550698
3.8093317 2.3733125 -0.11825398
3.2078052 2.3753819 -0.11603072
3.2525501 2.3773456 -0.11509368
3.5419161 2.375093 -0.11939314
3.5820012 2.3789368 -0.11901715
3.5966504 2.3772645 -0.11840579
3.6114135 2.3756678 -0.11780342
3.5674663 2.3806851 -0.1196374
3.6227698 2.3832359 -0.11869481
3.6377034 2.381753 -0.11810574
3.6802731 2.3847113 -0.11753336
3.649117 2.389359 -0.1190016
3.6646318 2.3869929 -0.11826256
3.691813 2.3924017 -0.11843917
3.7072148 2.3912311 -0.11788687
3.7188118 2.3989592 -0.11879715
3.7348263 2.3969264 -0.11809734
3.7954791 2.3992302 -0.11698744
3.7464864 2.4046967 -0.11901256
3.7790217 2.4009681 -0.11765257
3.7581465 2.412467 -0.11992779
3.8025951 2.4166775 -0.11950287
3.8191791 2.4150238 -0.1188477
3.8652015 2.419013 -0.11835071
3.8310289 2.4229207 -0.11977783
3.8478026 2.4213936 -0.11913756
3.9120216 2.4235332 -0.11791632
3.8771844 2.4269984 -0.11929128
3.8942809 2.4256864 -0.11867633
3.9241371 2.4316072 -0.11886731
3.9362528 2.4396811 -0.1198183
3.1876988 2.3619831 -0.11445251
3.2321653 2.3637609 -0.11349365
3.2898772 2.3642366 -0.11195651
3.4912326 2.3651481 -0.11013028
3.2423577 2.3705533 -0.11429366
3.2762148 2.3741241 -0.11391762
3.2642288 2.3762655 -0.11459473
3.29864 2.3789389 -0.11406001
3.3106415 2.3780739 -0.1135864
3.3229754 2.3761644 -0.11293659
3.9714451 2.4085016 -0.11416599
3.4258809 2.3611763 -0.1076664
3.4775996 2.3627224 -0.10646781
3.4915504 2.3606238 -0.10574266
3.560179 2.3641119 -0.10509336
3.3864396 2.3665457 -0.10962644
3.3993871 2.3650451 -0.10902485
3.4500394 2.3671465 -0.1079447
3.5026221 2.3680024 -0.1066117
3.5455327 2.3661034 -0.10651958
3.5278726 2.3734341 -0.10677359
3.5136938 2.3753805 -0.10748073
3.5533509 2.3790176 -0.10695329
3.5678141 2.3772609 -0.10626844
3.5823913 2.3755801 -0.10559246
3.5390015 2.3808503 -0.10764709
3.6233008 2.3800516 -0.10516337
3.6347141 2.3876576 -0.10605922
3.6501491 2.3852825 -0.10524842
3.6616259 2.3929305 -0.10614929
3.6772506 2.3906815 -0.10535333
3.7041774 2.3972306 -0.1056467
3.7157743 2.4049587 -0.10655698
3.7317724 2.4029584 -0.10579035
3.7478967 2.4010427 -0.10503367
3.7596202 2.4088552 -0.1059539
3.7759347 2.4070659 -0.10521206
3.7877212 2.4149206 -0.10613719
3.8327694 2.4196179 -0.1056284
3.7995081 2.422775 -0.10706237
3.8160753 2.4211545 -0.10634044
3.8446825 2.4275568 -0.10656348
3.9152181 2.4479733 -0.10785308
3.1862304 2.359128 -0.10247162
3.1975369 2.3578305 -0.10189757
3.2076788 2.364589 -0.10269359
3.5749445 2.3621874 -0.10367224
3.5898299 2.3603296 -0.10225618
3.229496 2.3690338 -0.10273597
3.2410746 2.3679178 -0.10218325
3.287158 2.3696077 -0.10099843
3.2993774 2.3676567 -0.10028735
3.2178204 2.3713474 -0.10348967
3.2513111 2.3747394 -0.10298672
3.2632334 2.3725905 -0.10225233
3.2752566 2.3705087 -0.10152575
3.5970824 2.373975 -0.10492554
3.6118875 2.3724458 -0.10426751
3.6925807 2.3895025 -0.10473648
3.8846169 2.4136534 -0.10322657
3.9018297 2.4124627 -0.10255519
3.8670337 2.4158633 -0.10407099
3.9499974 2.416707 -0.1018869
3.9140086 2.4205787 -0.10351118
3.3622546 2.3578265 -0.096662611
3.4121885 2.3595588 -0.095362455
3.3241203 2.3639574 -0.098888963
3.3366435 2.3622086 -0.098201603
3.349268 2.3605275 -0.097522229
3.372947 2.3649516 -0.097501844
3.3858309 2.3634434 -0.096842974
3.3988159 2.3620028 -0.096191853
3.64713 2.3618317 -0.098545343
3.3116982 2.3657732 -0.099584132
3.4362836 2.3655214 -0.095583528
3.4253826 2.3582571 -0.094727904
3.1835859 2.3643517 -0.091814071
3.194881 2.3630772 -0.091193318
3.4499347 2.3632629 -0.094775945
3.4636998 2.3610804 -0.093977362
3.5027006 2.3643591 -0.093280584
3.2050226 2.3698359 -0.091989338
3.2166343 2.3675146 -0.091178238
3.4747148 2.3684206 -0.094841987
3.4886508 2.3663516 -0.094056755
3.5280499 2.3698959 -0.09339121
3.5423844 2.368093 -0.09263733
3.2268267 2.3743067 -0.091978252
3.2383935 2.3732135 -0.091378808
3.2502518 2.371057 -0.09058699
3.2844388 2.3749788 -0.090040356
3.5138292 2.3717752 -0.09415409
3.2605391 2.3779125 -0.091394454
3.553627 2.3755851 -0.093519777
3.5941081 2.3798501 -0.092939109
3.5648696 2.3830771 -0.094402224
3.579432 2.3814256 -0.093666166
3.6356666 2.3835716 -0.092234284
3.6054645 2.3874183 -0.093830556
3.6203115 2.3859563 -0.09311685
3.6626883 2.3889613 -0.092267424
3.6471434 2.3912196 -0.093135089
3.6742282 2.3966515 -0.093173236
3.7492743 2.3974543 -0.090921313
3.6857681 2.4043417 -0.094079047
3.7011402 2.4032302 -0.093406528
3.7170582 2.4012203 -0.092568249
3.7287185 2.4089909 -0.093483478
3.7610607 2.4053087 -0.091846436
3.8058226 2.409903 -0.091184169
3.8229764 2.4074552 -0.090234071
3.7728477 2.4131637 -0.09277162
3.7892718 2.4114912 -0.091972917
3.8518326 2.4140675 -0.090411216
3.8814437 2.4199214 -0.090438873
3.3358471 2.3589423 -0.085462362
3.2984691 2.3642106 -0.087696344
3.3108273 2.3623872 -0.086943835
3.3232865 2.360631 -0.086199135
3.3594544 2.3633578 -0.085377365
3.2740567 2.3680601 -0.089225441
3.3464823 2.3660297 -0.086297125
3.8397865 2.40604 -0.089465708
3.869328 2.4118474 -0.08948788
3.3984966 2.3579414 -0.083058625
3.4116266 2.3566322 -0.082366616
3.3722744 2.3618422 -0.084661037
3.3851955 2.360394 -0.083952636
3.4225273 2.3638966 -0.08322224
3.4361069 2.3616295 -0.082350105
3.474679 2.3647015 -0.081501812
3.488657 2.3627 -0.080660969
3.1922247 2.3683238 -0.080489069
3.4470649 2.3689318 -0.0832102
3.460815 2.3667789 -0.082351536
3.5139346 2.3682287 -0.080707043
3.2139647 2.3727875 -0.080420494
3.4997859 2.3701162 -0.081534535
3.5394399 2.3739092 -0.080771118
3.2357125 2.3785095 -0.080574334
3.5651729 2.3797412 -0.080853015
3.5764723 2.3872714 -0.081739932
3.5911336 2.3857253 -0.080952674
3.6024902 2.3932934 -0.081844121
3.6173224 2.391861 -0.081070334
3.6596658 2.3949313 -0.080087334
3.6712058 2.4026215 -0.080993146
3.6865058 2.4015017 -0.080256134
3.1820829 2.3615656 -0.079693049
3.2037723 2.3659954 -0.079620481
3.2609553 2.3665123 -0.077452511
3.2957234 2.3696342 -0.076631427
3.3205144 2.3661067 -0.075027376
3.5281973 2.3664172 -0.079888612
3.2254758 2.3716877 -0.079770803
3.2713375 2.3734312 -0.078267425
3.2834799 2.3714991 -0.077445477
3.5538735 2.3722112 -0.079966098
3.2475574 2.376379 -0.07972905
3.636586 2.3795509 -0.07827577
3.6481259 2.3872411 -0.079181522
3.7023442 2.3994823 -0.079346031
3.7183089 2.3975477 -0.078445762
3.7344003 2.3956971 -0.077555567
3.7958722 2.3976836 -0.075705498
3.7461872 2.4035518 -0.07848075
3.7624683 2.4018278 -0.077605337
3.8245854 2.4042444 -0.075805813
3.7743182 2.4097247 -0.078535467
3.8078551 2.405669 -0.07664606
3.8366318 2.412272 -0.076751381
3.3352697 2.3546388 -0.072413594
3.3607819 2.3515923 -0.070866078
3.3099298 2.3590531 -0.074196547
3.3715754 2.3587849 -0.071713299
3.3848042 2.3563242 -0.070754796
3.3459618 2.361764 -0.073252887
3.3956547 2.3635547 -0.071606487
3.4087715 2.3622718 -0.070860952
3.1807182 2.3576839 -0.067262679
3.4222789 2.3599961 -0.069924265
3.4359004 2.3577967 -0.068996578
3.1909103 2.364476 -0.068062693
3.247854 2.364965 -0.06567955
3.4607077 2.3630509 -0.068946868
3.4746137 2.3610413 -0.068041474
3.2242887 2.36799 -0.067256272
3.2361205 2.3658857 -0.066357493
3.2703147 2.3699436 -0.065615147
3.4469151 2.3651369 -0.069861144
3.4857423 2.3684573 -0.06891498
3.2011027 2.3712683 -0.068862766
3.212558 2.3701615 -0.068162829
3.2582362 2.3718834 -0.066494465
3.5110049 2.3740153 -0.068900973
3.5252528 2.3722334 -0.0680224
3.2807474 2.3768961 -0.066434056
3.2929778 2.3750575 -0.06556657
3.496871 2.3758736 -0.069788545
3.5364952 2.3797255 -0.068904907
3.5509138 2.378057 -0.068039685
3.576803 2.3840322 -0.068074912
3.6067016 2.3801503 -0.066206068
3.5622134 2.385587 -0.068926603
3.6181784 2.3877983 -0.067106873
3.6335635 2.3855209 -0.06609574
3.5881593 2.3916004 -0.068966299
3.6451035 2.3932111 -0.067001492
3.6602747 2.3920445 -0.066195458
3.6718717 2.3997726 -0.06710574
3.6834686 2.407501 -0.068016022
3.6992903 2.4055147 -0.067039102
3.7593646 2.4079583 -0.065098137
3.3451614 2.3586395 -0.060297221
3.3071575 2.3645291 -0.063024819
3.3324692 2.3601704 -0.061128318
3.3177421 2.3715825 -0.063855648
3.7195268 2.3939402 -0.064189941
3.7356648 2.3921647 -0.063237876
3.7475147 2.4000616 -0.064168006
3.7757559 2.4063513 -0.06416592
3.3711123 2.3547068 -0.058450967
3.357955 2.3571761 -0.059473962
3.1780486 2.3629568 -0.056504935
3.3819625 2.3619373 -0.059302598
3.3950155 2.3606467 -0.058499664
3.4330156 2.3634949 -0.057370692
3.4467359 2.3614006 -0.056391805
3.188241 2.3697488 -0.057304949
3.1996403 2.3686359 -0.056554884
3.211307 2.3664565 -0.055590928
3.4059165 2.3679111 -0.059355348
3.419409 2.365665 -0.05835852
3.4578078 2.3687789 -0.057260901
3.471699 2.3667986 -0.056295425
3.4828277 2.3742146 -0.057168931
3.4968896 2.3723481 -0.056216925
3.5080755 2.3798022 -0.057094902
3.5223081 2.3780496 -0.056156188
3.5366549 2.3763728 -0.055226535
3.5479546 2.3839025 -0.056113452
3.5624721 2.3823397 -0.05519709
3.8024032 2.3840137 -0.059157461
3.8191867 2.382668 -0.05825606
3.5738287 2.3899076 -0.056088477
3.5851851 2.3974755 -0.056979865
3.2230749 2.3643448 -0.054634809
3.2347527 2.3634171 -0.05390662
3.2571495 2.3683887 -0.053784817
3.3168554 2.368361 -0.050952137
3.2451348 2.3703358 -0.054721534
3.2797487 2.3734946 -0.05367884
3.2920165 2.371716 -0.052762032
3.3043854 2.3700047 -0.05185312
3.2675822 2.3753409 -0.054603666
3.3274908 2.3754482 -0.0517869
3.607461 2.3761106 -0.052104086
3.6190009 2.3838005 -0.053009897
3.6340437 2.3825879 -0.052134782
3.6769979 2.38624 -0.050937802
3.6456406 2.390316 -0.053045064
3.6887212 2.3940525 -0.051858038
3.704653 2.3921833 -0.050824314
3.6572375 2.3980441 -0.053955287
3.7164397 2.400038 -0.051749438
3.3423479 2.3641973 -0.04895851
3.355128 2.3627601 -0.048081845
3.3682704 2.3603201 -0.046998709
3.1753793 2.3682296 -0.045747221
3.3791208 2.3675506 -0.047850341
3.3921604 2.3662863 -0.04699403
3.4030614 2.3735507 -0.047849715
3.4165392 2.3713341 -0.046792835
3.4274969 2.3786364 -0.04765299
3.4411454 2.3765335 -0.046609491
3.1957638 2.381814 -0.047347307
3.1867228 2.3671098 -0.044946909
3.2203674 2.369693 -0.043723524
3.2320335 2.3687882 -0.042948574
3.2439842 2.3668334 -0.041954428
3.4576554 2.3651397 -0.04367587
3.4968786 2.3688817 -0.042525083
3.2086127 2.3717785 -0.044733018
3.2544169 2.373786 -0.042773336
3.4687843 2.372556 -0.044549376
3.4827745 2.3706808 -0.043532759
3.5223961 2.3746881 -0.042413265
3.277003 2.3789182 -0.042613924
3.508121 2.3763738 -0.04340753
3.2648497 2.3807383 -0.043592185
3.5336955 2.3822184 -0.043300182
3.5481412 2.3806467 -0.042319328
3.5594978 2.3882148 -0.043210715
3.5855277 2.3943629 -0.04313913
3.5708542 2.3957827 -0.044102103
3.6426034 2.3963153 -0.040804893
3.6542001 2.4040437 -0.041715115
3.3415079 2.361151 -0.035842627
3.2910285 2.368427 -0.039850473
3.3034348 2.3667758 -0.03889212
3.3654287 2.3659334 -0.035546541
3.3140702 2.373863 -0.039726943
3.3268685 2.3712332 -0.038557798
3.3893054 2.3719258 -0.035488397
3.6078126 2.3731308 -0.038074046
3.6348817 2.3787274 -0.037849098
3.6194096 2.3808591 -0.038984329
3.3545783 2.3587027 -0.03469485
3.4187927 2.3580999 -0.031281948
3.3784044 2.3646612 -0.034632772
3.4436121 2.3634808 -0.031056345
3.173805 2.3655839 -0.033338994
3.2189322 2.3672407 -0.031175613
3.230819 2.3652782 -0.030124009
3.4027112 2.3697004 -0.034366995
3.4298646 2.365478 -0.032150984
3.4686592 2.3690133 -0.030848712
3.1840415 2.3724058 -0.034142464
3.195631 2.370245 -0.033067703
3.2412517 2.3722305 -0.030942917
3.2059183 2.3771005 -0.033875167
3.2516847 2.3791833 -0.031761825
3.545167 2.3865218 -0.030332893
3.5565233 2.3940899 -0.031224281
3.4574735 2.3615592 -0.029970676
3.2654305 2.3685756 -0.028871715
3.2776718 2.3668494 -0.027848005
3.4826913 2.3672056 -0.029776424
3.4968374 2.3654737 -0.028713018
3.2882564 2.3739028 -0.028678775
3.3006494 2.3722777 -0.027666956
3.508137 2.373004 -0.029599994
3.522454 2.3713861 -0.028550118
3.3112845 2.379365 -0.028501779
3.3240681 2.3767648 -0.027272522
3.5338104 2.3789539 -0.029441506
3.5747309 2.3826659 -0.028064519
3.5898762 2.3803604 -0.026838094
3.6014161 2.3880506 -0.027743906
3.3408861 2.3570852 -0.022390902
3.3537474 2.355772 -0.021415949
3.3646483 2.3630362 -0.022271574
3.3779254 2.3607647 -0.02108109
3.1942763 2.366611 -0.020277977
3.2046144 2.3735001 -0.021089435
3.1700401 2.3787756 -0.024231791
3.1813605 2.3777015 -0.02333799
3.4184399 2.3544056 -0.017563254
3.3913164 2.3585691 -0.019899517
3.4048214 2.3564494 -0.018727005
3.4433584 2.3598919 -0.017286569
3.4572616 2.3580379 -0.016145289
3.2176538 2.3637233 -0.018293738
3.4295688 2.3618219 -0.018436819
3.4825785 2.3637896 -0.015899837
3.2643149 2.3652716 -0.015845388
3.4685044 2.36553 -0.017027736
3.5081232 2.3696933 -0.015672296
3.2280865 2.3706756 -0.019112587
3.2872288 2.3706925 -0.015606999
3.2385194 2.3776278 -0.019931495
3.2505448 2.375793 -0.018838406
3.5194795 2.3772612 -0.016563684
3.5338955 2.3757486 -0.015462577
3.2765934 2.363605 -0.014772236
3.4967666 2.3621252 -0.014780909
3.2998834 2.3680458 -0.01430878
3.3124213 2.3665521 -0.013256043
3.3250606 2.3651259 -0.012211174
3.3617933 2.3686757 -0.01076594
3.3797779 2.3474207 -0.0053029656
3.3399916 2.354147 -0.009054631
3.3908498 2.354799 -0.006172061
3.1927295 2.3641455 -0.0076296329
3.3508923 2.3614116 -0.0099103153
3.4155252 2.360163 -0.0058172643
3.169668 2.3671784 -0.009736985
3.181231 2.3650699 -0.0085552037
3.2149215 2.3691204 -0.0072822273
3.2268324 2.367244 -0.0061278045
3.2031116 2.3710642 -0.0084445477
3.2373159 2.3742301 -0.0069506466
3.4377828 2.3749952 -0.0075643361
3.4043965 2.352747 -0.0049437582
3.4570198 2.3545752 -0.0021996498
3.2881222 2.3577919 -0.0002309382
3.4292431 2.3582244 -0.0046024323
3.250958 2.3636937 -0.0038428605
3.273808 2.3691072 -0.0035470724
3.2615428 2.3707473 -0.0046736896
3.3135018 2.3538504 0.0022167861
3.169246 2.355679 0.0049582422
3.300647 2.3563242 0.00087529421
3.3371365 2.3597865 0.0024510026
3.3243523 2.3610811 0.0013650954
3.3480372 2.3670509 0.0015953183
3.2044837 2.3498251 0.0086174309
3.2164321 2.3480086 0.0098213255
3.1808906 2.3536606 0.006185919
3.1913233 2.3606129 0.0053670704
3.2255516 2.3638649 0.0069637597
3.2360857 2.3708849 0.006136924
3.2622063 2.3577328 0.01077947
3.1665268 2.3610501 0.015916288
3.2030752 2.346431 0.021823794
