# .PCD v0.7 - Point Cloud Data file format
VERSION 0.7
FIELDS x y z
SIZE 4 4 4
TYPE F F F
COUNT 1 1 1
WIDTH 327
HEIGHT 1
VIEWPOINT 0 0 0 1 0 0 0
POINTS 327
DATA ascii
5.114439 2.5493531 -0.80636364
5.3071771 2.557982 -0.79716665
5.174284 2.542109 -0.79219675
5.135036 2.5406046 -0.78824437
5.0980244 2.5382965 -0.78455842
5.2925224 2.5503728 -0.78244829
5.1741481 2.5440192 -0.7711255
5.0840816 2.5451407 -0.77388525
5.2126703 2.5462532 -0.77480352
5.0389776 2.5390444 -0.76925993
5.134901 2.5424991 -0.76734757
5.19134 2.5290804 -0.76080275
5.0978904 2.5401764 -0.76382101
5.1687098 2.5485005 -0.76121491
5.2081256 2.5475144 -0.76214683
5.2942238 2.5515194 -0.76152563
5.2355089 2.536787 -0.75610161
5.2754345 2.5388627 -0.75974947
5.2590809 2.5518279 -0.75845373
5.195858 2.5349295 -0.75247169
5.1137013 2.5351393 -0.75291651
5.1183596 2.5313573 -0.7453748
5.1574688 2.5327845 -0.7489692
5.038672 2.54107 -0.74529397
5.2400565 2.537149 -0.74048519
5.2778001 2.542769 -0.74129629
5.2583461 2.5273528 -0.73705065
5.1910233 2.5311828 -0.73592579
5.0235186 2.5384974 -0.73629022
5.2096634 2.5386751 -0.73690587
5.0600224 2.540432 -0.73962426
5.1790466 2.5236053 -0.73013985
5.2185593 2.5253701 -0.73358631
5.1420698 2.5434518 -0.73000991
5.140789 2.5215497 -0.7268129
5.1129193 2.5375419 -0.72805715
5.0671453 2.5313067 -0.72420621
5.2613764 2.534019 -0.72106695
5.2965183 2.5337358 -0.72385049
5.2650881 2.5038757 -0.71662486
5.2821798 2.5174561 -0.71774578
5.2719808 2.5268245 -0.7183376
4.9945531 2.5368757 -0.71726584
5.023387 2.5403481 -0.71587908
5.0598898 2.5422969 -0.71905375
5.2016096 2.5139532 -0.7110709
5.2227869 2.5206575 -0.71400809
5.0073619 2.5276146 -0.71482801
4.9510255 2.5309715 -0.71322644
5.1261158 2.5349519 -0.71035945
5.1753459 2.5448723 -0.71384257
5.1420074 2.5451107 -0.71120304
5.1622348 2.5122819 -0.70780802
5.1430011 2.5272586 -0.70685077
4.9172845 2.5346279 -0.70665288
4.9520907 2.5365181 -0.70967901
5.061305 2.5354254 -0.70522785
5.0931234 2.5354118 -0.70773828
5.2470093 2.5038486 -0.7017206
5.2820287 2.5035005 -0.70435345
5.1241093 2.5103149 -0.7046566
5.0966058 2.5211749 -0.70276976
5.2779045 2.523895 -0.70415938
4.8483868 2.5314159 -0.70064723
4.9983234 2.5358706 -0.70024168
5.029705 2.5355783 -0.70272899
5.0218906 2.5273619 -0.69606721
5.1766081 2.5258517 -0.69570249
5.0436063 2.5313292 -0.69742405
5.1657314 2.5374794 -0.69664848
5.1964569 2.5361943 -0.69880766
5.2121305 2.5449653 -0.69947374
4.9912047 2.5167317 -0.69336593
5.0072303 2.529465 -0.69441694
5.1101618 2.5264521 -0.69070894
5.1432691 2.5260782 -0.69319957
5.1352181 2.5388832 -0.6944983
5.1454229 2.500958 -0.68547618
5.2055173 2.5041666 -0.68753099
4.9044914 2.5256729 -0.68577963
4.9361801 2.5258012 -0.68854403
5.0772848 2.526974 -0.68823057
4.9507256 2.5329609 -0.68968564
5.2139816 2.4844975 -0.68046564
5.2487564 2.4840059 -0.68294138
5.1828017 2.5059462 -0.68478411
5.2117815 2.5081439 -0.68305516
5.0851421 2.5109682 -0.68053252
4.8670459 2.5223718 -0.68282634
4.9828138 2.5276074 -0.6811384
5.0140862 2.5272567 -0.68349087
5.0296445 2.5372024 -0.68431675
5.0485106 2.5088859 -0.67766798
5.0962949 2.5232384 -0.67835587
5.1197128 2.531652 -0.6761688
4.9750481 2.5058489 -0.67190373
5.0111728 2.5075285 -0.67473507
5.0783167 2.5077939 -0.67021489
5.1111927 2.5072844 -0.67255664
5.1442995 2.5069222 -0.67491066
5.021585 2.5293875 -0.67210126
5.0613661 2.5336306 -0.67231685
5.0315847 2.5354338 -0.6703192
5.0766282 2.542171 -0.67296541
5.2276011 2.4792578 -0.66686058
4.9202695 2.5150843 -0.66740894
5.0298481 2.518666 -0.66648197
4.9779201 2.5232894 -0.66847563
4.8325539 2.5261474 -0.66508001
4.9753418 2.5374351 -0.66660237
5.0029163 2.5367055 -0.66841471
5.2344847 2.4527535 -0.66304892
5.150898 2.4777615 -0.66493767
5.1957159 2.4810276 -0.66485691
5.0907507 2.4878452 -0.66034406
4.8857031 2.5133557 -0.66470188
4.9345412 2.5175066 -0.66487288
4.9984674 2.5189357 -0.66425276
4.9516993 2.5296986 -0.66064334
5.1630259 2.4763947 -0.65777349
5.0521941 2.4867902 -0.6574837
5.0732851 2.507117 -0.65652525
4.7668505 2.5192928 -0.65519059
4.8235149 2.5181534 -0.655604
4.9363594 2.5198927 -0.65982902
4.7996669 2.5209177 -0.65776098
4.8652143 2.5235872 -0.65906775
5.0750351 2.5254011 -0.65602726
4.8911505 2.5304565 -0.65633535
5.0903959 2.5339971 -0.65668005
5.0791159 2.4884906 -0.6519137
5.1119919 2.4879928 -0.6541189
4.9588909 2.494966 -0.65044153
4.9948897 2.4965608 -0.65310538
4.7028055 2.5160179 -0.65017611
4.7342596 2.5178475 -0.6526351
4.7580557 2.5239971 -0.65012246
4.8174171 2.5215905 -0.65136075
4.8785186 2.5280938 -0.65211022
4.9878173 2.529664 -0.65056568
5.016386 2.5283453 -0.65235209
4.8616428 2.5307276 -0.6542387
5.0464711 2.4891353 -0.64972079
4.9231424 2.4935699 -0.64779425
4.9889379 2.4958947 -0.6455456
4.9984527 2.5002711 -0.64627743
5.0335817 2.5015945 -0.64903432
4.905057 2.5329599 -0.64540797
4.9321594 2.5319748 -0.64709395
4.9603357 2.530437 -0.64886367
5.1339483 2.4663446 -0.64242232
5.1022797 2.4878902 -0.64106488
5.1179533 2.4966612 -0.6417309
4.8357048 2.5012617 -0.64119452
4.8699126 2.5027194 -0.64372641
5.1336279 2.5054317 -0.64239699
4.9209595 2.5116878 -0.64086056
4.9517946 2.5110812 -0.64293176
4.8359709 2.5277567 -0.64136565
4.8626022 2.5265079 -0.64303154
5.1125588 2.4685779 -0.63539565
5.1466022 2.4676447 -0.63754416
5.0356526 2.4756484 -0.63551092
5.0740709 2.4766102 -0.63818777
4.8760033 2.5020723 -0.6380651
5.0442677 2.5096204 -0.63716316
4.7842302 2.5105202 -0.63725626
4.8911529 2.5140104 -0.63796484
5.0154939 2.5108147 -0.63548195
4.8759632 2.5223651 -0.63762856
5.0630465 2.479929 -0.63212049
4.9786067 2.4855931 -0.63147569
4.687706 2.5058472 -0.63011813
4.8493176 2.5084071 -0.63469505
4.9506884 2.5073371 -0.6309846
4.7744169 2.5136256 -0.63103712
4.8024359 2.5136089 -0.63290775
4.8315325 2.5130858 -0.63486117
4.9576626 2.5141973 -0.63207686
4.9860315 2.5127764 -0.6337409
4.7026825 2.5177474 -0.63110042
4.7341356 2.5195894 -0.63342285
4.9303675 2.5150661 -0.63048911
4.9427338 2.4840832 -0.62897944
4.8884478 2.49365 -0.62513888
4.9827242 2.4918914 -0.62690449
5.0139952 2.4915752 -0.62886989
4.7425709 2.5092103 -0.62638193
4.640419 2.514575 -0.62649781
4.7180972 2.5146737 -0.6272552
4.7465911 2.5137656 -0.62917662
4.7827635 2.514504 -0.62952316
4.6906624 2.5150638 -0.6254155
4.8478899 2.5196464 -0.62563944
4.8625603 2.5278559 -0.62626284
4.8902445 2.526052 -0.62789774
5.0169544 2.4857166 -0.62354147
4.8541222 2.4920835 -0.62275094
4.8902187 2.4936769 -0.62107766
4.9055591 2.5034828 -0.62189198
4.936285 2.5028183 -0.62382847
4.8635793 2.5072536 -0.62430972
4.5798988 2.5115018 -0.62202388
4.6096087 2.5132446 -0.62421763
4.6642671 2.5149233 -0.62365663
4.6372104 2.5155554 -0.62183702
4.7696691 2.52315 -0.62106228
4.821352 2.5209389 -0.62408376
5.0135012 2.49384 -0.61829901
5.0422745 2.4926548 -0.61986625
4.801609 2.5017741 -0.61903346
4.8456469 2.5046024 -0.6181187
4.5210867 2.5084991 -0.61767644
4.8164482 2.5050492 -0.61628127
4.9708328 2.5056882 -0.61577374
4.7514029 2.5107272 -0.61548102
4.7464471 2.5180266 -0.61533999
4.7436829 2.5247507 -0.61953008
4.7058115 2.4745011 -0.61249083
5.0304551 2.4822946 -0.61126345
5.0629835 2.4815998 -0.613177
4.9784737 2.487458 -0.61090523
4.7038441 2.4973602 -0.61223203
4.8751149 2.4986954 -0.61337614
4.7189279 2.5093458 -0.61322135
4.759532 2.5056953 -0.61270297
4.7874541 2.5056269 -0.61445469
4.9167099 2.5060549 -0.61463487
4.942564 2.5071559 -0.61422789
4.5821924 2.5153615 -0.61390191
4.8754325 2.5191441 -0.61038744
4.906981 2.4846077 -0.60624778
4.9981575 2.4831371 -0.60936219
4.9426022 2.4859338 -0.60856831
4.641582 2.4941633 -0.60790253
4.6887836 2.4974985 -0.60839039
4.7671432 2.4995878 -0.60557461
4.7020693 2.5044503 -0.60526121
4.9362249 2.5044312 -0.60554528
4.6497684 2.5071988 -0.6057983
4.8074665 2.5050445 -0.60852909
4.7165356 2.5131283 -0.6059534
4.8067331 2.5141211 -0.60680193
4.8331776 2.512785 -0.60824722
4.8606625 2.5108788 -0.60975981
4.8383312 2.4814477 -0.60177541
4.8725371 2.482933 -0.60400379
4.9207759 2.4945552 -0.60472518
4.8606462 2.4955132 -0.60119081
4.8901587 2.4952784 -0.60292351
4.53582 2.5001051 -0.60048771
4.5652256 2.5016181 -0.60253239
4.5948334 2.5032921 -0.60459042
4.6228085 2.5078821 -0.60409766
4.7552299 2.5164158 -0.60399306
4.769628 2.5244727 -0.6046049
4.7533579 2.4897254 -0.59624678
4.7860584 2.4912999 -0.59837711
4.8013635 2.4970126 -0.59770131
4.8304596 2.496511 -0.5994119
4.9556341 2.4986 -0.59780657
4.9274654 2.5001142 -0.59637892
4.7594738 2.5072432 -0.59515595
4.6795354 2.516871 -0.59936142
4.9018731 2.4885871 -0.59170651
4.7170143 2.4980078 -0.59274632
4.84585 2.5039706 -0.59224945
4.7317452 2.5074244 -0.59352827
4.8184652 2.5059235 -0.59085512
4.86062 2.5122359 -0.59287715
4.8874431 2.5111206 -0.59423226
4.9068503 2.486444 -0.58599603
4.8331261 2.4951811 -0.58719909
4.700686 2.503365 -0.58500439
4.7149911 2.5113699 -0.5856123
4.7292962 2.5193748 -0.5862202
4.7551889 2.5177388 -0.58753574
4.7812676 2.516207 -0.58885926
4.8382025 2.4832559 -0.58182716
4.8453493 2.4873633 -0.58234918
4.8735828 2.4859142 -0.58392942
4.5505519 2.4917345 -0.58304095
4.890099 2.4968798 -0.58476931
4.7668538 2.501508 -0.58285356
4.7379217 2.4793282 -0.57574201
4.7705083 2.4808257 -0.57772088
4.8042364 2.481946 -0.57976621
4.7169566 2.4995456 -0.57531315
4.7445889 2.4993129 -0.57682186
4.7724142 2.4992032 -0.57834077
4.8025289 2.4988217 -0.57669103
4.8725376 2.504169 -0.5766117
4.845808 2.5053279 -0.57536685
4.8310375 2.4970627 -0.57473922
4.7774949 2.5004854 -0.57223815
4.7407498 2.5110049 -0.57046658
4.8746986 2.4886749 -0.56580079
4.6863399 2.4966745 -0.5680455
4.6901445 2.5137687 -0.568106
4.7149506 2.5126843 -0.56926125
4.8579278 2.4764533 -0.56387764
4.8152127 2.4899988 -0.56280136
4.7862196 2.4905443 -0.56133914
4.7703819 2.4826064 -0.55807608
4.8041086 2.4837408 -0.55996972
4.7021685 2.4916668 -0.55709803
4.7574325 2.4912214 -0.55988777
4.7890406 2.4922009 -0.55607086
4.8309956 2.49842 -0.55785656
4.7168989 2.5010834 -0.55788004
4.8037109 2.5004101 -0.55669427
4.7628756 2.4936674 -0.55495632
4.6862993 2.4979892 -0.55169445
4.7263107 2.504271 -0.55339736
4.7006044 2.5059938 -0.55230236
4.7424507 2.4832397 -0.54143471
4.7573743 2.4927793 -0.54222691
4.7861614 2.4921131 -0.54355681
4.8014131 2.4832468 -0.53971863
4.7743282 2.4853396 -0.53867871
4.6862583 2.4993036 -0.53534341
4.7005639 2.5073085 -0.53595132
4.7262697 2.505594 -0.53694004
4.7857189 2.4750772 -0.52379805
4.7262287 2.506917 -0.52048266
4.6974325 2.4908032 -0.51925898
4.7118301 2.4988601 -0.51987088
