# .PCD v0.7 - Point Cloud Data file format
VERSION 0.7
FIELDS x y z
SIZE 4 4 4
TYPE F F F
COUNT 1 1 1
WIDTH 103
HEIGHT 1
VIEWPOINT 0 0 0 1 0 0 0
POINTS 103
DATA ascii
4.6144853 2.4398761 -1.3779262
4.5772505 2.4354711 -1.3686455
4.5197134 2.4422162 -1.3519653
4.614255 2.4444823 -1.3541676
4.318809 2.4487576 -1.3455825
4.5937963 2.4495704 -1.3498929
4.5401521 2.4536166 -1.3497754
4.3840833 2.4491839 -1.3408222
4.4100108 2.453496 -1.3406439
4.5109153 2.452744 -1.3424553
4.2803907 2.4396737 -1.3358703
4.4262495 2.4482131 -1.339101
4.555378 2.4485269 -1.3394568
4.4827504 2.4514084 -1.3355232
4.5694733 2.4563191 -1.3387009
4.6286263 2.4596965 -1.3355438
4.3768311 2.4489989 -1.3323162
4.5400343 2.4552739 -1.3314966
4.3188229 2.4427838 -1.3291818
4.3721113 2.4459896 -1.3254633
4.3858848 2.4569335 -1.3263667
4.4440703 2.4594817 -1.328586
4.5912728 2.4551258 -1.3266177
4.2793136 2.4311407 -1.3215958
4.2625747 2.4447722 -1.3210793
4.2928133 2.4418669 -1.3224812
4.4261351 2.4498248 -1.3213228
4.4988971 2.4548776 -1.3234646
4.5107985 2.4543896 -1.3243054
4.409749 2.4552352 -1.3200637
4.4400935 2.4609156 -1.3222382
4.4915347 2.461308 -1.3213391
4.3457389 2.4447737 -1.3188528
4.3255944 2.455092 -1.3171418
4.1543441 2.4411955 -1.3102375
4.3985486 2.4489481 -1.3144287
4.3765707 2.4507248 -1.3118954
4.4678507 2.4636421 -1.3112516
4.5335093 2.4615531 -1.3106167
4.2421455 2.4397912 -1.3095021
4.0812354 2.4412699 -1.3077743
4.2927022 2.4434257 -1.3052874
4.1943965 2.4506056 -1.3099973
4.2938557 2.4506564 -1.3091993
4.3062015 2.4541519 -1.3061728
4.524931 2.4673576 -1.30709
4.0528297 2.4374933 -1.3002294
4.1254792 2.4369011 -1.3027924
4.2174764 2.4386225 -1.3032225
4.3593106 2.4572268 -1.3023213
4.4399791 2.4625273 -1.30446
4.4966726 2.4659243 -1.3003945
4.1921701 2.4382641 -1.2965683
4.267694 2.4419777 -1.2990918
4.3253384 2.4567914 -1.2970321
4.3321886 2.4567194 -1.2954576
4.4122972 2.4615641 -1.2976812
4.5541496 2.4699912 -1.29588
4.2442546 2.4570251 -1.294426
4.4771509 2.4680042 -1.2949758
4.1574626 2.4462361 -1.2853019
4.1939445 2.452003 -1.2876303
4.3060908 2.4557106 -1.2889789
4.5248141 2.4690032 -1.2889402
4.0651927 2.4529097 -1.2825637
4.1381135 2.4526563 -1.2847388
4.2809997 2.4541869 -1.2828841
4.2183695 2.4606862 -1.28154
4.3570213 2.4631767 -1.2845775
4.4965568 2.4675586 -1.2823662
4.0377541 2.4486589 -1.2755181
4.1938734 2.4596457 -1.275378
4.1222849 2.4551508 -1.2736716
4.1668239 2.4586878 -1.2728333
4.2437453 2.4627264 -1.2712245
4.0992355 2.4539533 -1.2678312
4.1703491 2.4580603 -1.269605
4.0763416 2.4528785 -1.2620012
4.1461806 2.4572799 -1.2634646
4.2182617 2.4622052 -1.2647861
4.2751813 2.4644706 -1.2627319
4.122179 2.4566319 -1.2573351
4.1937666 2.4611549 -1.2587304
4.0932093 2.4599786 -1.2523565
4.1702423 2.4595609 -1.2530562
4.2436366 2.4642553 -1.2543569
4.2049999 2.4532723 -1.2471696
4.218154 2.4637241 -1.2480323
4.2941957 2.4679451 -1.2495886
4.1220741 2.4581127 -1.2409986
4.1963663 2.4660478 -1.2416381
4.2683616 2.4671245 -1.2433548
4.3454423 2.4722238 -1.2444257
4.1701355 2.461061 -1.2365072
4.2435279 2.4657845 -1.2374893
4.3192577 2.4711132 -1.2382827
4.2180457 2.4652429 -1.2312785
4.2940855 2.4694943 -1.232501
4.3453307 2.4737928 -1.227118
4.1219687 2.4595938 -1.2246622
4.1214037 2.4672966 -1.2216172
4.3191466 2.472672 -1.2210888
4.319036 2.4742308 -1.2038949
