# .PCD v0.7 - Point Cloud Data file format
VERSION 0.7
FIELDS x y z
SIZE 4 4 4
TYPE F F F
COUNT 1 1 1
WIDTH 505
HEIGHT 1
VIEWPOINT 0 0 0 1 0 0 0
POINTS 505
DATA ascii
4.6146178 2.7120278 1.4110824
4.6130905 2.5497885 1.4173875
4.649282 2.6093929 1.417321
4.6675849 2.6215901 1.4158843
4.557766 2.5484066 1.4245043
4.5760689 2.5606036 1.4230676
4.5943723 2.5728011 1.421631
4.6126757 2.5849981 1.4201943
4.5394306 2.5714641 1.4284035
4.5575819 2.5835605 1.4269787
4.5757332 2.5956564 1.425554
4.6106834 2.6879368 1.4274877
4.6099796 2.721189 1.4297732
4.6451674 2.5839329 1.433969
4.5391741 2.60636 1.4305693
4.5214133 2.6284471 1.4344947
4.5571213 2.6522429 1.4316919
4.5749755 2.6641407 1.4302905
4.5568542 2.6857862 1.4339432
4.574563 2.6975873 1.4325532
4.5922713 2.7093883 1.4311632
4.2074623 2.5895448 1.4372091
4.6078815 2.5944672 1.4395127
4.6261849 2.6066647 1.438076
4.5035591 2.616549 1.435896
4.6444883 2.6188617 1.4366394
4.6627913 2.6310592 1.4352027
4.4860201 2.6385822 1.4395031
4.5037289 2.6503835 1.4381131
4.6435847 2.6534312 1.4390132
4.5214372 2.6621842 1.4367231
4.5391455 2.6739852 1.4353331
4.3718739 2.6798739 1.4395511
4.5218229 2.6950366 1.4393348
4.5393925 2.7067449 1.4379555
4.5159822 2.4978435 1.4441091
4.5344372 2.5101421 1.4426606
4.5528922 2.5224404 1.4412119
4.1393867 2.544179 1.4425526
4.3964353 2.5451612 1.4443045
4.4142895 2.5570593 1.442903
4.1423359 2.5770621 1.4445497
4.1592216 2.588315 1.4432243
4.4328947 2.6031795 1.443673
4.5709791 2.6050467 1.4447123
4.4506035 2.6149802 1.442283
4.5891304 2.6171429 1.4432875
4.4683118 2.6267815 1.4408931
4.6072822 2.6292391 1.4418628
4.3032665 2.6341538 1.4449362
4.6254334 2.641335 1.440438
4.3204184 2.6455841 1.4435899
4.4515457 2.6482036 1.4448508
4.3375702 2.6570139 1.4422437
4.4691153 2.6599119 1.4434718
4.6064582 2.6636515 1.443916
4.354722 2.6684439 1.4408973
4.4866843 2.6716201 1.4420928
4.5042534 2.6833284 1.4407138
4.4797592 2.5090861 1.4495693
4.4980621 2.5212834 1.4481328
4.5163655 2.5334806 1.446696
4.5346689 2.5456781 1.4452593
4.3620605 2.5559754 1.4492329
4.3797693 2.5677764 1.447843
4.5165253 2.5687585 1.4489865
4.3974776 2.5795774 1.446453
4.5346766 2.5808544 1.4475617
4.4151859 2.5913782 1.445063
4.2518115 2.599864 1.4489751
4.1455512 2.6090317 1.44699
4.2689629 2.6112943 1.4476287
4.398838 2.6130791 1.4489881
4.4164071 2.6247873 1.4476091
4.5524597 2.6276667 1.4481543
4.4339762 2.6364954 1.4462301
4.1485796 2.6407015 1.4491831
4.1652126 2.6517859 1.4478778
4.4168792 2.6584251 1.4492062
4.4517269 2.6816475 1.446471
4.0241337 2.498292 1.4538277
4.4614558 2.4968889 1.4510061
4.4439197 2.5203741 1.4546854
4.4620709 2.5324702 1.4532607
4.4802227 2.5445662 1.451836
4.1832042 2.5541444 1.4543601
4.498374 2.5566623 1.4504112
4.0785131 2.5643573 1.452252
4.200356 2.5655742 1.4530139
4.3285608 2.566246 1.4545044
4.3461299 2.5779543 1.4531251
4.4804611 2.5796871 1.4538056
4.2346597 2.5884342 1.4503213
4.363699 2.5896626 1.4517461
4.4984608 2.591682 1.4523929
4.0820479 2.5963645 1.4544054
4.3812685 2.6013708 1.4503671
4.098681 2.6074488 1.4530998
4.2200236 2.6096907 1.4538362
4.3471842 2.61198 1.4546767
3.8691161 2.6225412 1.4542174
4.3646078 2.6235912 1.4533092
4.1319466 2.6296172 1.4504887
3.9864907 2.6366038 1.4538513
4.3820314 2.6352026 1.4519415
4.3994551 2.6468139 1.4505739
4.1184087 2.6500721 1.4537205
4.1349154 2.661072 1.4524249
4.1514215 2.6720719 1.4511293
4.0063953 2.6778555 1.4543262
4.4009409 2.6790938 1.4532423
4.418232 2.6906166 1.4518851
4.435523 2.7021394 1.4505279
4.3894653 2.4840856 1.4589597
4.4076171 2.4961817 1.4575349
4.1145973 2.5084243 1.4597453
4.4257684 2.5082779 1.4561102
4.1317492 2.5198545 1.4583989
4.0282345 2.5308516 1.4561985
4.1660528 2.5427144 1.4557065
4.0155163 2.5520277 1.4596277
4.4444623 2.5556972 1.4566313
4.4624619 2.5676923 1.4552184
4.0654149 2.5852804 1.455711
4.1859856 2.5870078 1.4565079
4.2030048 2.5983491 1.4551721
4.3297601 2.6003687 1.4560444
4.0523829 2.6060724 1.458903
4.1716852 2.6083035 1.4597216
4.0688896 2.6170723 1.4576074
4.188571 2.6195564 1.4583961
4.0853958 2.6280723 1.4563118
4.2054572 2.6308093 1.4570707
3.942318 2.6351545 1.4593557
4.1019025 2.6390722 1.4550163
4.2223434 2.6420622 1.4557453
4.0721769 2.6485648 1.4592563
3.9743567 2.6565051 1.4568409
4.0885572 2.6594806 1.4579706
4.2081995 2.6623759 1.4594172
3.990376 2.6671805 1.4555835
4.1049371 2.6703961 1.4566849
4.2249594 2.6735446 1.4581019
4.3502297 2.6773171 1.4590005
4.1213169 2.6813116 1.4553993
4.2417188 2.6847134 1.4567863
4.3673816 2.6887469 1.4576542
4.4996519 2.6924176 1.4592576
4.3845329 2.7001772 1.4563079
4.0802937 2.4855647 1.4624379
4.3544645 2.4957228 1.4636954
3.9489841 2.5076907 1.4648498
4.3724642 2.5077176 1.4622825
4.0838723 2.5189593 1.464523
4.3904638 2.5197124 1.4608697
4.1008911 2.5303006 1.4631872
4.1179104 2.5416422 1.4618514
4.1349292 2.5529835 1.4605155
3.9863572 2.5620728 1.4640855
4.0028639 2.5730727 1.4627899
4.121027 2.5745449 1.4636978
4.0193701 2.5840726 1.4614943
4.1379132 2.5857978 1.4623724
4.0358768 2.5950725 1.4601988
3.8942604 2.6031289 1.4631279
4.0066576 2.6049025 1.4643991
4.2971954 2.6099577 1.4613856
3.9102798 2.6138039 1.4618704
4.0230374 2.615818 1.4631134
3.9262989 2.6244793 1.460613
4.0394173 2.6267338 1.4618278
4.2816229 2.6315973 1.4643856
4.0557976 2.6376493 1.4605421
3.9149842 2.6438789 1.4640682
4.2987742 2.6430273 1.4630393
3.9308896 2.6544783 1.4628197
4.1914401 2.6512074 1.4607328
4.3159261 2.6544571 1.461693
4.0432081 2.6574967 1.4639406
4.4469442 2.6572928 1.4633948
4.0594678 2.6683321 1.4626644
4.3330779 2.6658871 1.4603468
4.1774893 2.6714749 1.4641279
3.9627004 2.6756773 1.4603229
4.0757275 2.6791677 1.4613881
4.1941223 2.6825593 1.4628223
4.4820828 2.6807094 1.4606366
4.3176794 2.6865437 1.4637839
4.2107553 2.6936433 1.4615167
4.3346987 2.697885 1.4624482
3.8990855 2.4744382 1.4687666
4.0157967 2.4735935 1.4698664
3.9157183 2.4855223 1.467461
4.0498347 2.4962764 1.4671947
4.0668535 2.507618 1.4658588
4.320343 2.5068059 1.4687544
3.9203317 2.5180731 1.469268
4.3381972 2.5187039 1.4673531
3.9368382 2.529073 1.4679724
4.053483 2.5295334 1.4689995
4.356051 2.530602 1.4659517
3.9533446 2.5400729 1.4666768
4.0703688 2.5407863 1.4676741
3.8141642 2.5497522 1.4694147
3.969851 2.5510728 1.4653813
3.8245819 2.5649173 1.4685408
3.941138 2.5612402 1.4695419
4.1041412 2.563292 1.4650233
3.9575181 2.5721557 1.4682562
3.8622217 2.581778 1.4656426
3.9738979 2.5830712 1.4669704
3.9902778 2.593987 1.4656848
4.124402 2.6065333 1.4659947
4.2473192 2.6087375 1.4670782
3.9781694 2.6141548 1.4690456
3.8831735 2.6226802 1.4665651
4.2644711 2.6201673 1.4657319
3.8990788 2.6332796 1.4653167
4.0106888 2.6358256 1.4664931
4.2496042 2.6411779 1.4691273
4.0269485 2.6466613 1.4652169
4.266623 2.6525195 1.4677914
4.2836418 2.6638608 1.4664556
4.3006606 2.6752021 1.4651197
4.2685785 2.6845567 1.4695917
4.2854648 2.6958096 1.4682664
3.9987781 2.4622521 1.4712023
3.854306 2.4740734 1.4744505
3.985939 2.4845219 1.4743012
3.8708124 2.4850733 1.4731549
4.3024893 2.4949081 1.4701558
3.8873188 2.4960732 1.4718593
4.0028248 2.4957747 1.4729757
3.9038253 2.5070732 1.4705638
4.019711 2.5070276 1.4716504
3.8756185 2.5175776 1.4746847
3.9083781 2.5394089 1.4721133
4.3220057 2.5415349 1.4707036
3.9247582 2.5503244 1.4708276
4.0406046 2.5506907 1.4725722
4.0573645 2.5618591 1.4712566
3.8036466 2.5696833 1.4728073
3.9131308 2.5708127 1.4741508
4.3239594 2.5753355 1.4730482
3.9293904 2.5816483 1.4728745
3.9456501 2.5924838 1.4715983
3.9619098 2.6033192 1.4703219
3.8405628 2.621067 1.4722408
3.9661241 2.6341982 1.4721528
3.8455002 2.6509819 1.4739488
3.8377995 2.4630735 1.4757463
3.9521668 2.4620161 1.4769521
3.9690528 2.473269 1.4756266
3.826479 2.4848309 1.4785417
3.8428588 2.4957466 1.4772561
3.8592386 2.5066624 1.4759704
3.9735668 2.5060163 1.4778341
3.9903264 2.5171847 1.4765185
4.0070858 2.5283532 1.4752032
3.8643517 2.5383062 1.4779795
3.8806114 2.5491419 1.4767033
3.8968711 2.5599773 1.475427
3.8854268 2.5804212 1.4784869
3.7827897 2.6091917 1.478871
3.8298225 2.6405344 1.4751793
3.8035784 2.6495125 1.4790989
3.9541419 2.6541171 1.4750062
3.8191421 2.6598842 1.4778774
3.9267237 2.6627069 1.4796073
3.8347058 2.6702559 1.4766557
3.7819679 2.4788485 1.4837251
3.9400477 2.4836791 1.4804651
3.7810161 2.5085762 1.4825203
3.8155727 2.5057998 1.4818083
3.8318324 2.5166354 1.4805321
3.8047295 2.5266442 1.4848211
3.7800643 2.5383043 1.4813155
3.8370085 2.5481551 1.4822874
3.8531477 2.5589104 1.4810206
3.7357569 2.5778489 1.4825627
3.8420069 2.5793903 1.4838079
3.8580263 2.5900655 1.4825505
3.7671123 2.5987439 1.4801017
3.8740454 2.6007409 1.4812931
3.7413235 2.6080258 1.4839855
3.7568872 2.6183975 1.4827639
3.8631022 2.6203094 1.4846011
3.7724509 2.6287692 1.4815422
3.8790076 2.6309087 1.4833528
3.7880147 2.6391408 1.4803206
3.894913 2.6415081 1.4821043
3.7625165 2.6475949 1.4847509
3.9108183 2.6521075 1.4808558
3.7779727 2.6578951 1.4835376
3.7934289 2.668195 1.4823245
3.7342744 2.4516225 1.4881896
3.7401714 2.4836228 1.4898883
3.7563109 2.4943783 1.4886215
3.7724504 2.5051336 1.4873546
3.78859 2.5158889 1.4860878
3.899502 2.5156126 1.4879857
3.7779298 2.5366893 1.4888374
3.7939491 2.5473645 1.4875799
3.870172 2.5629048 1.4871072
3.8259878 2.5687151 1.4850653
3.6946321 2.5769107 1.4876504
3.7994807 2.5779119 1.4895949
3.710196 2.5872824 1.4864287
3.8153861 2.5885112 1.4883466
3.7257595 2.5976541 1.4852071
3.8312914 2.5991106 1.4870981
3.7006917 2.606395 1.4896036
3.7161479 2.6166949 1.4883903
3.7316041 2.6269951 1.4871773
3.7470603 2.637295 1.4859639
3.8680096 2.6502836 1.4864291
3.7372897 2.6560812 1.488937
3.8838012 2.6608069 1.4851898
3.7526383 2.6663096 1.4877323
3.6917531 2.4513566 1.4936888
3.7078924 2.4621122 1.492422
3.8169701 2.460613 1.4944638
3.7240319 2.4728675 1.4911551
3.7138529 2.4939883 1.493867
3.7298722 2.5046635 1.4926096
3.6012497 2.5146804 1.4949802
3.7458913 2.5153387 1.4913522
3.8549485 2.5151362 1.4932588
3.7619107 2.5260141 1.4900948
3.7358589 2.5355144 1.4945887
3.7517645 2.5461137 1.4933404
3.7676699 2.5567131 1.4920919
3.7835753 2.5673125 1.4908434
3.8048437 2.6081896 1.4913872
3.8206353 2.6187131 1.4901477
3.7065923 2.6356244 1.4913465
3.721941 2.6458528 1.4901417
3.697093 2.6544428 1.4940755
3.6497757 2.451287 1.4988965
3.6657951 2.4619625 1.4976391
3.7730491 2.4605582 1.4996873
3.6818142 2.4726377 1.4963816
3.7894289 2.4714739 1.4984015
3.5545585 2.4835651 1.4986451
3.6978335 2.4833128 1.4951245
3.805809 2.4823895 1.4971159
3.585686 2.5043087 1.4962019
3.7040482 2.5143154 1.4970857
3.7199535 2.5249147 1.4958372
3.7100947 2.5450487 1.4988242
3.7258863 2.555572 1.4975847
3.7574692 2.5766191 1.4951059
3.6298492 2.5844827 1.4973701
3.6361289 2.613816 1.4988607
3.65137 2.6239727 1.4976645
3.666611 2.6341295 1.4964681
3.6818521 2.6442862 1.4952718
3.6573834 2.6529796 1.4989532
3.6725168 2.6630647 1.4977654
3.7739246 2.6658912 1.4998511
3.7566693 2.4496427 1.500973
3.6086159 2.4507191 1.5045763
3.6245213 2.4613185 1.503328
3.6404266 2.4719179 1.5020795
3.656332 2.4825172 1.500831
3.6943033 2.5345252 1.5000638
3.6689405 2.5441689 1.5040323
3.684618 2.5546167 1.5028018
3.5599234 2.5630326 1.5048423
3.690556 2.5849624 1.5040774
3.6056466 2.5935025 1.5012534
3.5817156 2.6025546 1.5048926
3.6208878 2.6036592 1.500057
3.5968492 2.6126397 1.5037047
3.6271162 2.6328096 1.5013289
3.6422496 2.6428947 1.5001411
3.6184535 2.651042 1.5043777
3.6334858 2.6610596 1.503198
3.6311371 2.4924312 1.5050219
3.6219075 2.5128262 1.5077239
3.6375852 2.5232739 1.5064934
3.6532626 2.5337214 1.5052627
3.6283011 2.5434756 1.5089639
3.6438646 2.5538473 1.5077423
3.5211816 2.5622146 1.509644
3.6594286 2.564219 1.5065207
3.536315 2.5722995 1.5084561
3.6749921 2.5745907 1.5052991
3.5514488 2.5823846 1.5072683
3.650275 2.5834908 1.5095567
3.5665822 2.5924697 1.5060804
3.6657312 2.593791 1.5083435
3.6811874 2.6040909 1.5071303
3.5583243 2.6109717 1.5090975
3.6966436 2.6143911 1.5059171
3.5647779 2.6399786 1.5099132
3.6034212 2.6410244 1.5055577
3.5797024 2.6499245 1.5087417
3.5946274 2.6598704 1.5075703
3.5435195 2.4605882 1.5138768
3.5748746 2.4814835 1.5114156
3.6776187 2.4809251 1.5132896
3.6936378 2.4916003 1.5120323
3.566046 2.5019884 1.5138505
3.5816097 2.5123606 1.5126289
3.5971735 2.5227323 1.5114073
3.475781 2.5319595 1.5132076
3.6127372 2.5331039 1.5101856
3.4909146 2.5420446 1.5120198
3.5884502 2.5422907 1.5144094
3.5060482 2.5521295 1.5108318
3.6039064 2.5525906 1.5131962
3.4831629 2.560884 1.5149971
3.6193626 2.5628908 1.511983
3.4981952 2.5709016 1.5138172
3.5282598 2.5909367 1.5114573
3.5050788 2.6001952 1.5145991
3.543292 2.6009543 1.5102774
3.5200036 2.610141 1.5134276
3.5349283 2.6200869 1.5122561
3.5498528 2.6300328 1.5110847
3.4882274 2.45013 1.5199586
3.5278418 2.4501407 1.5151075
3.5037911 2.4605017 1.5187371
3.5193548 2.4708734 1.5175154
3.4001133 2.4815345 1.5191469
3.5349185 2.481245 1.5162938
3.5504823 2.4916167 1.5150721
3.6521664 2.4907458 1.5176187
3.5266256 2.5010905 1.5192622
3.6680717 2.5013452 1.5163702
3.5420818 2.5113907 1.5180489
3.6839771 2.5119445 1.5151218
3.4230337 2.5208137 1.5197169
3.557538 2.5216906 1.5168358
3.438066 2.5308313 1.5185369
3.572994 2.5319908 1.5156226
3.4530983 2.540849 1.517357
3.5490861 2.5412815 1.519594
3.4681306 2.5508664 1.5161771
3.5797834 2.561738 1.5171844
3.4603045 2.5703576 1.5181135
3.5951319 2.5719664 1.5159796
3.4752293 2.5803034 1.516942
3.490154 2.5902493 1.5157706
3.6168959 2.6115441 1.5161434
3.5928855 2.6204686 1.5196776
3.4726634 2.4397583 1.5211803
3.5885448 2.4483483 1.5226125
3.4648008 2.4598904 1.5241148
3.6044502 2.4589477 1.521364
3.6203556 2.469547 1.5201156
3.480257 2.4701905 1.5229017
3.4957132 2.4804904 1.5216885
3.5111694 2.4907906 1.5204753
3.3929691 2.5007787 1.5220767
3.4876916 2.5003679 1.5244129
3.4080014 2.5107961 1.5208968
3.5030403 2.5105963 1.5232081
3.5183887 2.5208247 1.5220034
3.4006057 2.5305741 1.5227994
3.5337377 2.5310531 1.5207987
3.4155302 2.54052 1.5216279
3.5777521 2.6103837 1.5208656
3.4338884 2.4392903 1.5265412
3.4493446 2.4495904 1.525328
3.33284 2.4607084 1.5267962
3.4416456 2.4696829 1.5280272
3.3259819 2.4808445 1.5286568
3.472343 2.4901395 1.5256177
3.449244 2.4998207 1.5293028
3.3558314 2.5007362 1.5263139
3.4644852 2.5099773 1.5281066
3.3707561 2.5106821 1.5251424
3.5172181 2.5700438 1.525617
3.3882799 2.4591939 1.534088
3.2748799 2.4705107 1.5346112
3.418762 2.4795072 1.5316955
3.4340031 2.4896641 1.5304991
3.3045268 2.4902675 1.5322841
3.434129 2.5386081 1.534403
3.4491613 2.5486259 1.533223
3.3425565 2.4287238 1.537677
3.2155857 2.4309969 1.5392653
3.3577976 2.4388804 1.5364807
3.3507493 2.4591086 1.5386835
3.3658829 2.4691935 1.5374956
3.3810163 2.4792786 1.5363078
3.3890319 2.5085554 1.5379428
3.2007623 2.4211185 1.5404289
3.3053486 2.4288535 1.5422471
3.3204823 2.4389386 1.5410593
3.4143841 2.4369864 1.544068
3.4298403 2.4472864 1.5428548
3.3138707 2.458468 1.5438424
3.4607527 2.4678864 1.5404284
3.3439353 2.4785028 1.5414826
3.2687736 2.4284153 1.5473822
3.2838058 2.4384327 1.5462023
3.3762312 2.4367099 1.5490463
3.2623742 2.4487822 1.5490953
3.2988384 2.4484501 1.5450224
3.2922235 2.4686739 1.5467523
3.2325246 2.4288905 1.5514382
3.2474494 2.4388363 1.5502669
