# .PCD v0.7 - Point Cloud Data file format
VERSION 0.7
FIELDS x y z
SIZE 4 4 4
TYPE F F F
COUNT 1 1 1
WIDTH 179
HEIGHT 1
VIEWPOINT 0 0 0 1 0 0 0
POINTS 179
DATA ascii
1.3145022 1.6056889 -0.77718931
1.3247787 1.7551422 -0.77566344
1.319995 1.8015538 -0.77739197
1.3240502 1.6934485 -0.77035016
1.3192885 1.7396481 -0.77207083
1.3111861 1.7593217 -0.77021867
1.3100003 1.7708261 -0.77064717
1.3145268 1.7858477 -0.77379143
1.3202262 1.6080508 -0.76838446
1.3218577 1.6557815 -0.76636249
1.3324286 1.7478428 -0.76667565
1.3300258 1.7711546 -0.76754385
1.32096 1.7903614 -0.76529694
1.3313438 1.563746 -0.7629348
1.3233954 1.5721015 -0.76023042
1.317494 1.6293588 -0.76236284
1.3163137 1.6408101 -0.76278937
1.3139386 1.7009374 -0.76410329
1.337234 1.7012191 -0.76493919
1.320249 1.7285068 -0.7600311
1.3245478 1.7555528 -0.76400054
1.3154873 1.7747064 -0.76175171
1.3131064 1.7978063 -0.76261204
1.3304771 1.5033929 -0.75767148
1.3292968 1.5148443 -0.75809795
1.3281165 1.5262958 -0.75852442
1.3211256 1.5351844 -0.75627065
1.3192573 1.6791975 -0.75565553
1.3297938 1.7715671 -0.75582767
1.3285924 1.7832232 -0.75626177
1.3273911 1.7948791 -0.75669587
1.3293549 1.4553424 -0.75329709
1.3216287 1.6561887 -0.75479859
1.3267087 1.7327576 -0.75147337
1.3255128 1.7443604 -0.7519055
1.3243169 1.7559633 -0.75233763
1.3290689 1.5152495 -0.74658734
1.3278886 1.526701 -0.74701381
1.3267083 1.5381525 -0.74744034
1.3231674 1.5725067 -0.74871981
1.3219872 1.5839581 -0.74914628
1.3536341 1.5853498 -0.74723053
1.3468745 1.5930761 -0.74500084
1.3208069 1.5954096 -0.74957275
1.3448728 1.6159179 -0.74593997
1.349615 1.6312156 -0.7491163
1.3267766 1.4785581 -0.7426818
1.345843 1.5471109 -0.74455929
1.32464 1.5630298 -0.74373043
1.3294804 1.6296078 -0.74055916
1.3550043 1.647707 -0.74118704
1.3216941 1.7795796 -0.74153912
1.3271593 1.7952914 -0.74497974
1.3193023 1.8027856 -0.74240339
1.3481296 1.4977698 -0.7381106
1.3471334 1.5091376 -0.73857796
1.3276607 1.5271062 -0.7355032
1.3451412 1.5318732 -0.73951268
1.3374125 1.5390899 -0.73683763
1.3274834 1.5540395 -0.73571336
1.3364209 1.5504047 -0.73730284
1.3533343 1.5857967 -0.73572308
1.3513247 1.6087296 -0.73666596
1.35032 1.620196 -0.73713738
1.3493152 1.6316625 -0.73760885
1.3227539 1.6369548 -0.73831385
1.3473055 1.6545953 -0.73855168
1.3347942 1.7881057 -0.7357828
1.3433615 1.4712015 -0.73404646
1.3323818 1.4813004 -0.73379719
1.3336166 1.5129931 -0.7332173
1.3485774 1.5706794 -0.73260003
1.3465757 1.5935211 -0.73353916
1.3353368 1.7141123 -0.73022479
1.32933 1.772392 -0.73239535
1.3269273 1.7957039 -0.73326355
1.3478324 1.4982129 -0.72670215
1.3468362 1.5095807 -0.72716951
1.3458401 1.5209486 -0.72763687
1.3371166 1.5395309 -0.72548234
1.3330283 1.5419583 -0.72738618
1.336125 1.5508456 -0.72594756
1.3294711 1.5764717 -0.72867155
1.3282853 1.5879761 -0.72910005
1.3510247 1.6091764 -0.72515851
1.3500201 1.6206429 -0.72562993
1.3547029 1.6481558 -0.72962636
1.3365382 1.7024565 -0.72979069
1.3372719 1.4683554 -0.72005451
1.3323344 1.5247016 -0.72237116
1.3472779 1.5825453 -0.7216078
1.3462771 1.5939662 -0.72207737
1.3430089 1.7065574 -0.72096074
1.3272585 1.7326661 -0.72306067
1.3302994 1.7611485 -0.72024506
1.329098 1.7728044 -0.72067916
1.3345611 1.7885201 -0.72401333
1.3266953 1.7961164 -0.72154737
1.3532828 1.5140198 -0.71879047
1.3455428 1.5213916 -0.71622843
1.3435504 1.5441272 -0.71716321
1.3425543 1.555495 -0.71763057
1.3415581 1.5668628 -0.71809793
1.3298801 1.619175 -0.71738356
1.3711689 1.6854936 -0.71588427
1.332702 1.7378366 -0.71937686
1.3315008 1.7494925 -0.71981096
1.3427697 1.4720834 -0.71133602
1.3378122 1.5286571 -0.71366197
1.3463482 1.6248819 -0.71307349
1.3409745 1.6515157 -0.7129634
1.3403622 1.7303896 -0.71006346
1.3587633 1.517892 -0.70987976
1.3432531 1.5445702 -0.7057547
1.3352839 1.6355128 -0.7094937
1.335407 1.6518328 -0.7085073
1.3588213 1.664548 -0.70950627
1.3324701 1.7382491 -0.70766068
1.3312688 1.749905 -0.70809478
1.3300674 1.7615609 -0.70852888
1.328866 1.7732168 -0.70896298
1.3276646 1.7848729 -0.70939708
1.3264633 1.7965288 -0.70983118
1.3385078 1.5177832 -0.70184159
1.350425 1.6100701 -0.70214373
1.3460488 1.6253278 -0.70158887
1.3353522 1.6415764 -0.70136487
1.3416765 1.64054 -0.7010321
1.3641845 1.6812561 -0.70127338
1.3424737 1.4725244 -0.6999808
1.3584634 1.5183388 -0.6983723
1.3425275 1.571959 -0.69877207
1.369275 1.6231656 -0.69888508
1.3615592 1.6303036 -0.69647348
1.357837 1.6034245 -0.69304979
1.3481157 1.6334498 -0.69157916
1.3471109 1.6449163 -0.69205058
1.3461061 1.6563827 -0.69252199
1.3581636 1.5187857 -0.68686485
1.3531396 1.5761178 -0.68922198
1.3669349 1.6468545 -0.68818074
1.3444128 1.4864485 -0.68484581
1.351386 1.5267758 -0.68487471
1.3595546 1.5808344 -0.68054181
1.3585452 1.5923539 -0.68101543
1.3575357 1.6038734 -0.68148905
1.3565264 1.6153929 -0.68196267
1.3555169 1.6269124 -0.68243629
1.353498 1.6499515 -0.68338352
1.3458062 1.6568295 -0.6810146
1.3448014 1.6682959 -0.68148607
1.3558543 1.5421654 -0.67630029
1.3538446 1.5650982 -0.67724317
1.3540897 1.4929583 -0.67200422
1.3530889 1.5043793 -0.67247379
1.3510872 1.527221 -0.67341286
1.3542062 1.6388808 -0.67134923
1.3511778 1.6734393 -0.67277002
1.3521974 1.5413357 -0.6651324
1.3622818 1.5467249 -0.66756028
1.3545495 1.5540786 -0.66526431
1.3525399 1.5770115 -0.66620713
1.3582439 1.5928029 -0.66945475
1.3572345 1.6043223 -0.66992837
1.3495255 1.6114106 -0.66762143
1.3485208 1.6228771 -0.66809285
1.3605783 1.4852802 -0.66243571
1.3507886 1.5276661 -0.66195112
1.3477862 1.5619287 -0.66335982
1.3466711 1.6617932 -0.66036916
1.3609711 1.5586932 -0.65647316
1.3569332 1.6047711 -0.65836763
1.3559239 1.6162908 -0.65884125
1.3549144 1.6278102 -0.65931487
1.353905 1.6393297 -0.65978849
1.3465422 1.6539037 -0.65896642
1.3592737 1.4971933 -0.65139967
1.3519654 1.541748 -0.65341622
1.3522401 1.5774583 -0.65469968
