# .PCD v0.7 - Point Cloud Data file format
VERSION 0.7
FIELDS x y z
SIZE 4 4 4
TYPE F F F
COUNT 1 1 1
WIDTH 498
HEIGHT 1
VIEWPOINT 0 0 0 1 0 0 0
POINTS 498
DATA ascii
5.0570335 2.9853854 1.3924526
4.8723249 2.981262 1.3983477
5.0792179 2.943738 1.4048195
5.0973692 2.9558339 1.4033947
5.1155205 2.9679301 1.40197
4.8178186 2.9770527 1.4045478
5.1336718 2.9800262 1.4005452
4.8427854 2.8426101 1.4092695
4.8606396 2.8545079 1.407868
5.0247636 2.9074495 1.4090937
5.0429153 2.9195457 1.4076689
5.0610666 2.9316418 1.4062443
5.0564461 2.9635246 1.4085954
4.8006673 2.9656229 1.4058942
4.7713695 2.7950182 1.414875
4.7892237 2.8069162 1.4134736
4.952158 2.8590651 1.4147927
4.8224816 2.8628011 1.4130934
4.8401899 2.8746018 1.4117035
4.9703093 2.8711612 1.413368
4.9884605 2.8832574 1.4119432
5.0066123 2.8953533 1.4105184
4.8380704 2.9057846 1.4145116
4.9844484 2.915545 1.4142467
5.0024481 2.9275398 1.4128338
5.0204473 2.9395347 1.4114209
5.0384469 2.9515297 1.4100081
4.8698978 2.9603176 1.4136478
4.7516479 2.8155971 1.4186534
4.8977041 2.8227768 1.4190669
4.7693563 2.8273978 1.4172634
4.647543 2.8314667 1.4159914
4.9158554 2.834873 1.4176421
4.7870646 2.8391991 1.4158734
4.9340067 2.8469691 1.4162174
4.7853627 2.8706601 1.4186488
4.8029318 2.8823683 1.4172698
4.8205013 2.8940763 1.4158908
4.9664488 2.9035499 1.4156595
4.8002024 2.9138727 1.4191183
4.8176265 2.9254839 1.4177507
4.8350506 2.9370952 1.416383
4.8524742 2.9487064 1.4150155
4.6808138 2.768393 1.4242133
4.6985221 2.780194 1.4228233
4.8432498 2.7864885 1.4233412
4.5956702 2.7968986 1.4200631
4.8614011 2.7985845 1.4219164
4.7339392 2.8037961 1.4200433
4.8795524 2.8106806 1.4204917
4.5776944 2.8170333 1.4233958
4.7326546 2.8355353 1.4227861
4.7502241 2.8472435 1.4214069
4.7677932 2.8589518 1.4200279
4.7479315 2.8790388 1.4232212
4.6284766 2.8818846 1.4217758
4.7653551 2.89065 1.4218535
4.7827787 2.9022613 1.420486
4.764051 2.9210711 1.424741
4.7813416 2.9325938 1.4233838
4.7986326 2.9441166 1.4220266
4.660706 2.9639273 1.4238991
4.6774654 2.9750957 1.4225835
4.6448083 2.7769942 1.4296812
4.6623774 2.7887025 1.4283022
4.5433912 2.7941735 1.4260883
4.6799469 2.8004105 1.4269232
4.8224525 2.8075905 1.426962
4.8404517 2.8195856 1.4255491
4.5604014 2.836519 1.4271193
4.8202553 2.8399487 1.4295152
4.7121782 2.8865027 1.4288126
4.7294688 2.8980255 1.4274554
4.7275681 2.9287763 1.4293823
4.6271868 2.9415901 1.42653
4.74472 2.9402061 1.4280361
4.6439466 2.9527588 1.4252144
4.7618718 2.9516363 1.4266897
4.7790232 2.9630661 1.4253435
4.6265793 2.9707494 1.4288777
4.7601705 2.9814205 1.4290518
4.6272388 2.765286 1.4310604
4.6430144 2.8404121 1.4342415
4.660305 2.8519349 1.4328843
4.5431776 2.8558669 1.4305623
4.6775961 2.8634574 1.4315271
4.5266299 2.8745787 1.4344229
4.6948872 2.8749802 1.4301699
4.6589613 2.8830564 1.4347675
4.9655552 2.8805518 1.4325262
4.5433893 2.8857474 1.4331075
4.6761131 2.8944864 1.4334211
4.5601492 2.8969159 1.4317919
4.417181 2.9067128 1.4345868
4.6932645 2.9059162 1.4320749
4.7104163 2.9173465 1.4307287
4.5600471 2.9264123 1.4341
4.5766802 2.9374967 1.4327945
4.6920948 2.9360549 1.4343952
4.7091141 2.9473963 1.4330593
4.4503083 2.9568596 1.4341481
4.6099463 2.9596651 1.4301833
4.7261329 2.9587376 1.4317235
4.5762653 2.966609 1.4348651
4.7431517 2.9700792 1.4303876
4.592772 2.9776092 1.4335696
4.4412689 2.7571292 1.4364702
4.5736933 2.7629263 1.4368975
4.4582882 2.7684705 1.4351343
4.5911169 2.7745376 1.4355299
4.4249754 2.7770967 1.4398402
4.7309852 2.7804589 1.4365222
4.5738506 2.7943211 1.4396703
4.7293015 2.8129573 1.4387341
4.6084323 2.8173666 1.4369559
4.4595919 2.8299046 1.439685
4.6257234 2.8288894 1.4355987
4.4763517 2.841073 1.4383694
4.6075058 2.8487666 1.4388063
4.7456226 2.8563328 1.4399508
4.3521423 2.8633709 1.4396918
4.6246576 2.8601966 1.4374601
4.3684015 2.8742065 1.4384155
4.4935155 2.8820755 1.4393221
4.5101485 2.8931596 1.4380165
4.6240196 2.8906891 1.4397386
4.5267816 2.9042439 1.4367112
4.6410384 2.9020307 1.4384028
4.3857503 2.9138379 1.4392154
4.6580572 2.913372 1.4370669
4.5434141 2.915328 1.4354056
4.4018898 2.9245934 1.4379486
4.675076 2.9247134 1.4357311
4.5267463 2.9336095 1.4387521
4.4180293 2.9353485 1.4366817
4.5432525 2.9446092 1.4374563
4.4341688 2.946104 1.4354149
4.4026814 2.9530249 1.4397992
4.5597591 2.9556093 1.4361607
4.3158288 2.9644098 1.4370316
4.4187002 2.9637001 1.438542
4.4347196 2.9743752 1.4372846
4.5429039 2.9735911 1.4392596
4.5219779 2.759753 1.4437419
4.5392685 2.7712758 1.4423847
4.3925543 2.7852302 1.4449469
4.4093137 2.7963986 1.4436313
4.5388989 2.8030467 1.4441915
4.7115927 2.8011563 1.440124
4.4260731 2.8075674 1.4423159
4.5560508 2.8144765 1.4428451
4.4428325 2.8187361 1.4410003
4.2871037 2.8200288 1.4447968
4.6929145 2.821208 1.444088
4.710484 2.8329163 1.442709
4.4269838 2.8377385 1.4445444
4.590354 2.8373365 1.4401526
4.7280531 2.8446245 1.44133
4.4436169 2.8488228 1.4432389
4.4602494 2.8599069 1.4419333
4.5729628 2.8566649 1.4437462
4.5899816 2.8680065 1.4424103
4.4768825 2.8709912 1.4406277
4.6070004 2.8793478 1.4410745
4.3373318 2.8815718 1.4430158
4.4607205 2.8896098 1.4439346
4.3534713 2.8923273 1.441749
4.5894132 2.8983614 1.4444088
4.7607918 2.8996642 1.4402438
4.4772272 2.9006095 1.4426388
4.6062994 2.9096143 1.4430833
4.4937334 2.9116096 1.4413432
4.3546233 2.9209991 1.4435714
4.5102396 2.9226093 1.4400476
4.6231852 2.9208672 1.4417579
4.4773846 2.9299285 1.4444025
4.3706427 2.9316742 1.442314
4.386662 2.9423494 1.4410566
4.2549267 2.9502921 1.4436716
4.5101442 2.9517598 1.441831
4.3720741 2.9594896 1.4446508
4.2704906 2.9606638 1.4424499
4.4874434 2.7687569 1.4482303
4.0099831 2.776293 1.4467907
4.5045953 2.7801867 1.446884
4.025547 2.786665 1.445569
4.6402068 2.7860835 1.4482251
4.3604517 2.7934015 1.4497668
4.5217471 2.7916167 1.4455377
4.6577759 2.7977917 1.4468461
4.3770847 2.8044858 1.4484612
4.2708435 2.8091936 1.4460731
4.0293198 2.8146996 1.4478129
4.1248097 2.8104897 1.4499296
4.5048876 2.8112993 1.4490896
4.3937178 2.8155701 1.4471556
4.5219059 2.8226407 1.4477538
4.2566347 2.827795 1.44935
4.4103508 2.8266542 1.44585
4.5389252 2.8339822 1.4464179
4.2727742 2.8385503 1.4480832
4.2889137 2.8493056 1.4468163
4.3946948 2.8456101 1.4491171
4.5218692 2.8533499 1.4497105
4.4112015 2.8566098 1.4478213
4.4277077 2.86761 1.4465257
4.2905464 2.8782978 1.4486009
4.4442139 2.8786097 1.4452301
4.1904078 2.8808293 1.4468762
4.3065658 2.8889732 1.4473437
4.3225851 2.8996484 1.4460863
4.4446249 2.9080975 1.4469738
4.4610043 2.919013 1.4456881
4.3402634 2.9382908 1.4471477
4.6060381 2.9390919 1.4455347
4.2107458 2.946296 1.4495682
4.4779611 2.9584665 1.4466432
4.3417549 2.9659882 1.4492439
4.4942207 2.9693019 1.445367
4.0422273 2.7286739 1.4540806
4.0581326 2.7392735 1.4528321
4.1732855 2.7441807 1.4537306
4.29392 2.7490647 1.4549888
4.1895456 2.7550161 1.4524543
4.0899434 2.7604723 1.4503353
4.3105531 2.7601488 1.4536833
4.3271861 2.7712331 1.4523777
4.4538307 2.7772751 1.4530972
4.1920767 2.7847733 1.4544172
4.3438187 2.7823174 1.4510723
4.4708495 2.7886164 1.4517614
3.9984074 2.7940996 1.4502393
4.2082162 2.7955289 1.4531504
4.4878683 2.7999578 1.4504255
4.3286691 2.8016105 1.4542996
4.3451757 2.8126101 1.4530038
4.2104502 2.8249216 1.454888
4.3616819 2.8236103 1.4517082
4.3781881 2.83461 1.4504126
4.3463454 2.8426039 1.454688
4.5049829 2.842097 1.4510359
4.2424889 2.846272 1.4523731
4.2585077 2.8569474 1.4511157
4.1304169 2.8673184 1.4534447
4.1459808 2.8776901 1.4522231
4.3954849 2.8753507 1.4508309
4.380403 2.8934536 1.454301
3.9240973 2.9063587 1.454914
4.2925472 2.9064925 1.450893
4.2785888 2.9238942 1.4542018
4.2943802 2.9344177 1.4529625
3.9682641 2.9357917 1.4514471
4.1952896 2.9359961 1.4507815
4.3101716 2.9449413 1.451723
4.1823997 2.9527037 1.4539992
4.5389295 2.9531488 1.4548782
4.2960453 2.9620731 1.4548093
4.3117228 2.9725206 1.4535788
3.9984777 2.7263017 1.4598457
3.9056702 2.7322993 1.4575185
4.0142694 2.7368255 1.4586061
4.0300608 2.7473488 1.4573667
4.1436582 2.7525072 1.4582177
4.4197931 2.7545922 1.4557689
4.0458522 2.7578723 1.4561272
4.2626433 2.7576108 1.4594821
4.1597977 2.7632627 1.4569509
4.27915 2.7686105 1.4581863
4.1759372 2.774018 1.4556841
4.2956562 2.7796106 1.4568907
4.1463728 2.7822204 1.4599174
4.0493093 2.7868009 1.4579514
4.1623921 2.7928958 1.45866
4.3121624 2.7906103 1.4555951
4.1784115 2.803571 1.4574028
3.9449422 2.8090649 1.4588481
4.1944308 2.8142462 1.4561454
4.052598 2.81546 1.4595529
4.3135853 2.8207726 1.4572594
4.3299656 2.8316884 1.4559736
4.0837259 2.8362033 1.4571096
3.9640174 2.8468509 1.459223
4.0992894 2.846575 1.4558879
4.2130203 2.8534956 1.4571353
4.3153644 2.8501117 1.459406
3.979151 2.8569357 1.4580351
4.2289257 2.864095 1.4558868
4.331624 2.8609471 1.4581298
3.8652081 2.867115 1.4595364
3.9942844 2.8670208 1.4568473
3.8799305 2.8769259 1.4583808
4.009418 2.8771057 1.4556594
4.2154226 2.8818002 1.45916
3.998198 2.8937039 1.4590138
4.3492441 2.9006767 1.4587837
4.2627974 2.9133708 1.4554414
4.136354 2.9220185 1.4576136
4.2333345 2.9202826 1.4597317
4.1517029 2.9322469 1.4564086
4.2490125 2.9307303 1.4585012
4.5059166 2.931149 1.4574696
4.366447 2.9399617 1.459222
4.1390843 2.9489865 1.4593827
4.1543255 2.9591432 1.4581863
4.3984857 2.9613123 1.4567071
4.0822959 2.7395194 1.4649471
3.986599 2.7450104 1.4628736
4.2461371 2.7466106 1.4607776
4.369895 2.752074 1.4616393
3.8687367 2.7582817 1.4648296
4.0022764 2.7554579 1.4616431
4.2153063 2.7552791 1.4649736
4.1143346 2.76087 1.4624323
4.3867807 2.7633269 1.4603138
4.2316861 2.7661948 1.4636879
3.9903431 2.773973 1.4644394
4.1303539 2.7715452 1.4611748
4.2480659 2.7771103 1.4624021
4.117588 2.7898993 1.464626
4.2644458 2.7880259 1.4611164
4.0214705 2.7947166 1.4619961
3.9297011 2.7989082 1.4600443
3.9034834 2.8065107 1.4639745
4.2503252 2.8067698 1.464511
4.1493988 2.8110981 1.4621291
3.9186168 2.8165956 1.4627866
4.0252714 2.8226957 1.4641265
4.1653042 2.8216975 1.4608806
3.9337504 2.8266807 1.4615988
4.0407276 2.8329957 1.4629134
3.9488838 2.8367658 1.4604108
4.152257 2.8397064 1.4641181
3.9230366 2.8436162 1.4649132
3.9380689 2.8536339 1.4637333
4.07164 2.8535957 1.460487
4.1680484 2.8502297 1.4628786
3.8504858 2.8573041 1.4606918
4.2846866 2.8576553 1.4638511
3.9531012 2.8636513 1.4625534
4.1838398 2.8607533 1.461639
3.9681334 2.8736689 1.4613734
4.0596108 2.8708768 1.4636372
4.1706243 2.8784924 1.4646541
4.4233847 2.8761492 1.4639477
3.9418054 2.8809044 1.4648737
3.9831657 2.8836865 1.4601935
4.0749598 2.8811052 1.4624325
4.1863017 2.8889399 1.4634234
3.9567299 2.8908503 1.4637021
4.2019796 2.8993874 1.4621929
3.9716549 2.9007962 1.4625307
4.0781202 2.90836 1.4641678
4.2176571 2.9098351 1.4609622
4.3183894 2.9079359 1.4629941
3.9865794 2.910742 1.4613591
4.0933609 2.9185166 1.4629716
4.1885958 2.916857 1.4649851
4.3344088 2.918611 1.4617367
4.0015039 2.9206879 1.4601878
4.108602 2.9286733 1.4617752
3.9902909 2.937006 1.463116
4.1238432 2.9388299 1.4605789
4.0962553 2.9454451 1.4645052
4.2352867 2.9479721 1.4613203
4.019938 2.9567628 1.4607891
4.1113892 2.9555299 1.4633173
4.2508507 2.958344 1.4600986
4.1265225 2.965615 1.4621295
3.9552436 2.7241154 1.4653348
3.9280882 2.7324862 1.4693259
3.9436522 2.7428579 1.4681042
3.8534956 2.7481248 1.4660259
3.9592156 2.7532296 1.4668826
4.0698719 2.7581012 1.4683714
3.9747796 2.7636013 1.465661
4.0857773 2.7687006 1.4671229
3.8580828 2.7762556 1.467538
3.9634469 2.7814956 1.4689792
3.8732162 2.7863407 1.4663502
3.9789031 2.7917955 1.4677662
4.0890908 2.7976124 1.469076
4.234066 2.7959342 1.4657873
3.8629074 2.803546 1.469633
3.9943593 2.8020957 1.4665529
4.1048822 2.8081357 1.4678365
3.8779397 2.8135636 1.468453
4.0098152 2.8123956 1.4653398
3.9828677 2.8197351 1.4696609
4.1206737 2.8186593 1.466597
3.892972 2.8235812 1.4672731
3.9982164 2.8299632 1.4684561
4.1364651 2.8291829 1.4653574
4.236268 2.8253891 1.4676516
3.9080043 2.8335986 1.4660932
3.8821063 2.841121 1.4695596
4.0135651 2.8401916 1.4672514
4.1235914 2.8471494 1.4683458
3.8970311 2.8510668 1.4683882
4.0289135 2.85042 1.4660467
3.9119558 2.8610127 1.4672166
4.2543125 2.8652349 1.4680237
3.9268804 2.8709586 1.466045
4.0323968 2.8778899 1.4677567
4.1263409 2.87537 1.4698718
4.2703314 2.87591 1.4667662
3.9161735 2.8876138 1.4689337
4.0476379 2.8880465 1.4665605
4.1419044 2.8857417 1.4686501
4.2863507 2.8865852 1.4655088
4.0628791 2.8982034 1.4653641
4.1574678 2.8961134 1.4674284
3.9458203 2.9073706 1.4666067
4.0357213 2.9051049 1.4692566
4.1730318 2.9064853 1.4662068
3.9606438 2.9172492 1.465443
4.0508547 2.91519 1.4680687
4.0659885 2.9252751 1.4668809
4.1757851 2.933692 1.4683081
4.0811219 2.93536 1.465693
4.0844545 2.9615862 1.4678003
3.7672815 2.7157454 1.4746652
3.7824152 2.7258306 1.4734774
3.7975485 2.7359157 1.4722894
3.9016221 2.7402954 1.473832
3.8126822 2.7460008 1.4711016
3.9170783 2.7505953 1.4726189
3.9325345 2.7608955 1.4714056
3.9479907 2.7711954 1.4701926
3.9214733 2.7788215 1.47448
4.0732994 2.7870889 1.4703156
3.8478751 2.7935286 1.4708129
3.8224072 2.8013375 1.4742454
3.967519 2.8095067 1.4708656
3.837332 2.8112833 1.4730741
4.0765586 2.8158066 1.4720374
3.8522568 2.8212292 1.4719025
4.1902351 2.8225336 1.4730532
3.8671815 2.8311751 1.4707311
4.064086 2.8338833 1.4747583
4.2062545 2.833209 1.4717958
3.8420558 2.8382218 1.4747514
4.0952129 2.8546267 1.472315
4.1107769 2.8649983 1.4710933
3.9013498 2.8777354 1.4700972
4.0985041 2.8821919 1.4743741
4.2406654 2.8829229 1.471426
4.1139603 2.8924918 1.4731609
4.2565708 2.8935223 1.4701777
4.0205879 2.89502 1.4704444
4.1294165 2.902792 1.4719477
4.0243254 2.9215159 1.47252
4.0393581 2.9315336 1.4713401
4.0125198 2.938355 1.4747689
4.05439 2.941551 1.4701601
4.0423694 2.9582467 1.4724259
3.8707097 2.7196953 1.4762584
3.9785502 2.723948 1.4777526
3.8861659 2.7299953 1.4750453
3.8907759 2.7583649 1.4768895
3.9061246 2.7685931 1.4756848
4.1101389 2.7691574 1.4793402
3.777633 2.7714999 1.47776
3.7553878 2.7784286 1.4762776
3.7925577 2.7814457 1.4765884
3.8952272 2.7864797 1.4785235
3.8074825 2.7913916 1.475417
3.7827616 2.798708 1.4794055
3.7538486 2.8084826 1.4752665
3.7975852 2.8085866 1.478242
3.8124087 2.8184648 1.4770783
3.8272324 2.8283434 1.4759148
4.0521359 2.8512917 1.4780136
3.8293815 2.7174513 1.4817084
3.8447301 2.7276797 1.4805037
3.7179341 2.7317164 1.4824458
3.8342628 2.7458529 1.4833088
3.849504 2.7560096 1.4821124
3.7382913 2.7690728 1.482896
3.8389854 2.7739997 1.4846989
3.7531147 2.7789512 1.4817325
3.7679381 2.7888298 1.480569
4.0771585 2.9431891 1.481666
3.6641736 2.7196808 1.4887136
3.678997 2.7295589 1.4875501
3.7784514 2.7336597 1.4894503
3.6938205 2.7394376 1.4863867
3.7935848 2.7437449 1.4882624
3.7086442 2.749316 1.4852232
3.8087187 2.7538297 1.4870746
3.8238521 2.7639148 1.4858867
3.7481844 2.7134898 1.4918261
3.7633181 2.7235746 1.4906381
3.7387118 2.7311823 1.4949385
3.7537441 2.7412 1.4937586
3.7687764 2.7512176 1.4925786
3.801146 2.7761214 1.4949909
3.7086473 2.7111473 1.4972984
3.72895 2.7493834 1.4970269
