# .PCD v0.7 - Point Cloud Data file format
VERSION 0.7
FIELDS x y z
SIZE 4 4 4
TYPE F F F
COUNT 1 1 1
WIDTH 369
HEIGHT 1
VIEWPOINT 0 0 0 1 0 0 0
POINTS 369
DATA ascii
5.5651407 2.4466019 -1.451097
5.5826678 2.4578061 -1.4520274
5.6001949 2.4690104 -1.4529579
5.581995 2.4260139 -1.4426662
5.5904741 2.4681048 -1.4362799
5.5795536 2.4356849 -1.4252216
5.6162596 2.475996 -1.4281608
5.6001511 2.4426742 -1.4205496
5.5818443 2.428128 -1.419349
5.5903249 2.4702001 -1.4131675
5.6181698 2.4232585 -1.4085214
5.6159129 2.4782948 -1.4009609
5.6000013 2.4447882 -1.3972324
5.5975599 2.4581392 -1.3994913
5.6183081 2.4593344 -1.3984331
5.6083221 2.4867139 -1.3912452
5.6288567 2.4333482 -1.3823799
5.6473303 2.4480271 -1.3835915
5.5423241 2.4644437 -1.3814321
5.6364651 2.4759946 -1.3763163
5.5379915 2.4872627 -1.3752475
5.5972133 2.460438 -1.3722914
5.6155667 2.4805937 -1.3737611
5.564867 2.4539208 -1.3681283
5.5409265 2.4545965 -1.3608793
5.5596418 2.4773726 -1.3617798
5.6102314 2.4208026 -1.3576385
5.5248699 2.4551446 -1.359934
5.6731124 2.4890125 -1.3580003
5.5997005 2.4490161 -1.3505979
5.6180077 2.4635623 -1.3517985
5.6363144 2.4781084 -1.3529992
5.6546221 2.4926548 -1.3542
5.5647984 2.4557505 -1.347386
5.5968666 2.4627368 -1.3450916
5.582325 2.4669547 -1.3483164
5.2985811 2.4786768 -1.3480139
5.6152201 2.4828923 -1.3465612
5.5769596 2.4903016 -1.3421274
5.6100798 2.4229357 -1.3341088
5.4466171 2.4963899 -1.3331627
5.5995502 2.4511299 -1.3272806
5.5647297 2.4575803 -1.3266438
5.617857 2.4656763 -1.3284813
5.3149986 2.4909332 -1.3293837
5.5595064 2.4810026 -1.3206294
5.2790532 2.4879792 -1.3210171
5.2797198 2.4915328 -1.3221234
5.6078749 2.4929998 -1.3219081
5.6332269 2.5053465 -1.3208309
5.5965204 2.4650354 -1.3178917
5.4267244 2.4740763 -1.317307
5.4444923 2.4810829 -1.3184561
5.6148734 2.4851911 -1.3193613
5.6099277 2.4250689 -1.3105789
5.6284018 2.4397478 -1.3117906
5.6468754 2.4544265 -1.3130022
5.5550404 2.5036933 -1.3149157
5.4818397 2.4824448 -1.3055533
5.3149338 2.4926538 -1.3098786
5.3201532 2.4913311 -1.3077595
5.4319191 2.497812 -1.3062809
5.6353164 2.4529204 -1.3000532
5.4810219 2.4614105 -1.3019708
5.6538644 2.4732895 -1.3015385
5.5594382 2.4828176 -1.300054
5.2796555 2.4932408 -1.3027625
5.5033393 2.4730279 -1.297914
5.4266682 2.4757195 -1.297845
5.4444256 2.4828565 -1.2983514
5.6077261 2.4950953 -1.2987959
5.3916521 2.4814138 -1.2915876
5.5204706 2.4834385 -1.2926682
5.3148694 2.4943743 -1.2903734
5.5549726 2.5054941 -1.2944998
5.6328802 2.5076454 -1.2936311
5.6282501 2.4418809 -1.2882611
5.6467237 2.4565597 -1.2894727
5.5645924 2.4612398 -1.2851595
5.4112759 2.4725852 -1.2862172
5.5821195 2.4724441 -1.2860899
5.2983875 2.4838386 -1.2894986
5.4817724 2.4842315 -1.2852968
5.320013 2.4933045 -1.2859901
5.5398979 2.461422 -1.2801222
5.3703671 2.4841719 -1.2839885
5.5767555 2.4957464 -1.2804017
5.5245981 2.4624047 -1.277633
5.427371 2.4737701 -1.2773449
5.4443593 2.4846301 -1.2782468
5.6075768 2.4971905 -1.2756835
5.6349659 2.4552436 -1.2725649
5.3903418 2.4744143 -1.2703152
5.6535139 2.4756126 -1.2740501
5.3441606 2.4832392 -1.2710745
5.4079509 2.4920621 -1.2735996
5.314805 2.4960949 -1.2708684
5.4242959 2.5012083 -1.2742943
5.6465721 2.4586928 -1.2659431
5.5820508 2.4742737 -1.2653477
5.3748131 2.4934688 -1.2674118
5.6325336 2.5099442 -1.2664311
5.628098 2.4440141 -1.2647314
5.5774741 2.4494777 -1.2620223
5.5469971 2.4518652 -1.2634869
5.5645237 2.4630694 -1.2644173
5.4111319 2.4746089 -1.263894
5.4645891 2.4750767 -1.2641318
5.2631683 2.4861984 -1.2631723
5.2795277 2.4966564 -1.2640407
5.3419018 2.495002 -1.2612336
5.4273043 2.4755437 -1.2572403
5.5766878 2.4975615 -1.2598265
5.4242496 2.5027101 -1.2556117
5.390276 2.4761746 -1.2503624
5.3915596 2.4844174 -1.2542226
5.4136329 2.4828749 -1.2526414
5.3147402 2.4978156 -1.2513633
5.6074276 2.4992857 -1.2525712
5.6255741 2.5137043 -1.2537613
5.552989 2.4560304 -1.2490007
5.6346159 2.4575667 -1.2450765
5.4541101 2.4782891 -1.2494998
5.3440189 2.485229 -1.2491231
5.3909988 2.5040433 -1.2495482
5.5644555 2.4648991 -1.243675
5.4109879 2.4766328 -1.2415707
5.5819826 2.4761033 -1.2446054
5.3026404 2.4836712 -1.2413305
5.4257574 2.4839807 -1.2417827
5.263104 2.4879065 -1.2438114
5.2794638 2.4983644 -1.2446798
5.341856 2.4964831 -1.2428093
5.6172557 2.4741316 -1.2352124
5.3915129 2.4859195 -1.2355402
5.6138339 2.4920876 -1.2377616
5.5766201 2.4993763 -1.2392513
5.4242029 2.5042119 -1.2369292
5.6321869 2.512243 -1.2392312
5.5587745 2.4316211 -1.2333528
5.5806417 2.4450393 -1.232811
5.5771275 2.4517765 -1.2348224
5.5989485 2.4595854 -1.2340117
5.3146763 2.499536 -1.2318581
5.2926035 2.5088012 -1.2314153
5.4539652 2.48033 -1.2269869
5.3438778 2.4872193 -1.2271717
5.4133 2.4850821 -1.226527
5.295557 2.5027475 -1.2269633
5.6072788 2.5013812 -1.2294588
5.2612247 2.5100088 -1.2257047
5.4036341 2.5108032 -1.2263616
5.5819139 2.4779329 -1.2238632
5.4257107 2.4854937 -1.2229636
5.3418097 2.4979641 -1.224385
5.6277947 2.4482803 -1.217672
5.6342654 2.4598899 -1.2175882
5.4108438 2.4786565 -1.2192476
5.5417805 2.4789634 -1.2168301
5.3914661 2.4874213 -1.2168574
5.5765519 2.5011914 -1.218676
5.2606058 2.5111442 -1.2196546
5.3667345 2.511503 -1.2196424
5.6171055 2.4762456 -1.2118952
5.4071388 2.5161095 -1.2131312
5.6071301 2.5034766 -1.2063465
5.2956953 2.512238 -1.2068264
5.552691 2.4602211 -1.202776
5.4361439 2.4683266 -1.2033147
5.5751958 2.5081415 -1.2022742
5.5590982 2.4918926 -1.1971779
5.5764837 2.5030065 -1.1981008
5.6339154 2.462213 -1.1900998
5.407093 2.517601 -1.1945777
5.5986481 2.4638133 -1.1873772
5.6169548 2.4783597 -1.188578
5.6131406 2.4966853 -1.1833619
5.6251268 2.5199904 -1.1844243
5.631494 2.5168407 -1.1848315
5.5416441 2.4825935 -1.1756797
5.5590301 2.4937077 -1.1766026
5.576416 2.5048213 -1.1775255
5.5786996 2.5182376 -1.1766895
5.627491 2.4525466 -1.1706126
5.5247431 2.4753656 -1.1731507
5.6090174 2.4378679 -1.1694009
5.6335649 2.4645362 -1.1626115
5.5641813 2.472218 -1.1607063
5.581708 2.4834223 -1.1616367
5.652113 2.4849057 -1.1640966
5.6068316 2.5076671 -1.1601218
5.6431241 2.536504 -1.1625021
5.5886855 2.4932487 -1.1589316
5.5763478 2.5066364 -1.1569504
5.6311474 2.5191393 -1.1576316
5.5965366 2.534605 -1.1549616
5.6088657 2.440001 -1.1458713
5.6273394 2.45468 -1.1470829
5.5856895 2.4624252 -1.145152
5.5319595 2.467339 -1.149482
5.5680285 2.4511352 -1.1442144
5.5816393 2.4852519 -1.1408945
5.5885363 2.4953442 -1.1358193
5.5762796 2.5084515 -1.1363752
5.5959558 2.4164448 -1.1331197
5.6146674 2.4464903 -1.1336379
5.5319114 2.4688964 -1.1301084
5.5784044 2.5223913 -1.1308745
5.5963893 2.5366817 -1.1320542
5.609252 2.4515553 -1.1297576
5.5940943 2.4811273 -1.1274925
5.6124477 2.5012827 -1.1289622
5.6087141 2.4421344 -1.1223416
5.5679588 2.4529788 -1.1233127
5.5815711 2.4870815 -1.1201522
5.5615826 2.4410625 -1.1150242
5.598197 2.470155 -1.1174256
5.5883875 2.4974394 -1.1127069
5.5543656 2.5217028 -1.1107572
5.6143169 2.4488137 -1.1061496
5.5127196 2.4819202 -1.1060221
5.5782566 2.5244679 -1.107967
5.5678902 2.4548225 -1.1024112
5.5937476 2.4834261 -1.1002927
5.6121011 2.5035815 -1.1017623
5.6085625 2.4442673 -1.0988119
5.5639753 2.4777074 -1.0984796
5.5318146 2.4720111 -1.091361
5.5587578 2.5009675 -1.0943017
5.5913038 2.4438891 -1.0866599
5.5700922 2.4851162 -1.0884044
5.5324526 2.5349255 -1.085458
5.5061674 2.4693823 -1.0803412
5.5601234 2.512254 -1.0838799
5.6084108 2.4464006 -1.0752823
5.6139669 2.4511368 -1.0786612
5.5508795 2.5386696 -1.0795465
5.5317669 2.4735684 -1.0719874
5.5978961 2.4743829 -1.0707911
5.5934014 2.4857249 -1.0730928
5.5413041 2.4916685 -1.0728036
5.4852257 2.4811931 -1.0662624
5.5880895 2.5016298 -1.0664822
5.5734811 2.5195169 -1.0676792
5.5336509 2.4583745 -1.0629117
5.5152693 2.5257707 -1.0642929
5.577961 2.5286214 -1.0621521
5.5115814 2.5475774 -1.0607026
5.5463114 2.4701626 -1.0560648
5.5897846 2.4338551 -1.0505409
5.6082587 2.4485338 -1.0517526
5.5147686 2.4656413 -1.0518936
5.5064645 2.4712555 -1.0503825
5.5317183 2.475126 -1.0526139
5.5930548 2.4880238 -1.045893
5.5196609 2.5050497 -1.047678
5.6114078 2.5081792 -1.0473626
5.5747018 2.4678683 -1.0444233
5.5697947 2.4893069 -1.0421797
5.5152025 2.5275576 -1.0440364
5.5115147 2.5493507 -1.0405979
5.5508122 2.4652629 -1.0373757
5.5598278 2.5164075 -1.038065
5.4977713 2.4577141 -1.0317997
5.5147209 2.4671986 -1.0325199
5.5237823 2.4841847 -1.0307302
5.5411682 2.4952984 -1.0316532
5.589633 2.4359882 -1.0270113
5.6081071 2.4506669 -1.0282229
5.5063963 2.4730706 -1.0298073
5.5368443 2.5178785 -1.028178
5.5233607 2.5548768 -1.0290077
5.5426741 2.4349718 -1.0205545
5.6110616 2.510478 -1.0201627
5.5114484 2.5511243 -1.0204933
5.5182991 2.4265456 -1.0196559
5.5322905 2.4396174 -1.0169297
5.5166121 2.4477215 -1.0164065
5.5743551 2.4701672 -1.0172234
5.5696454 2.4914021 -1.0190673
5.5927081 2.4903226 -1.0186931
5.5286474 2.4626179 -1.0136501
5.5146723 2.4687562 -1.0131464
5.546174 2.4738221 -1.0145804
5.5316219 2.478241 -1.0138667
5.5411 2.4971135 -1.0110779
5.5326099 2.5306787 -1.0102465
5.536777 2.5196795 -1.0077621
5.5242167 2.4225395 -0.99603665
5.4994874 2.4397349 -0.99616295
5.5425239 2.4370856 -0.99723732
5.5322213 2.4414611 -0.99602818
5.5165634 2.4492903 -0.99688858
5.5608311 2.451632 -0.99843812
5.5791383 2.4661782 -0.9996388
5.5694962 2.4934976 -0.99595499
5.4935246 2.4420395 -0.99104702
5.5285788 2.4644475 -0.99290788
5.5740085 2.472466 -0.99002355
5.5124326 2.4911952 -0.99064606
5.5052977 2.375967 -0.98586577
5.5373025 2.4321551 -0.98708433
5.4956093 2.4817812 -0.98993117
5.5236464 2.4878144 -0.98957968
5.5236635 2.3836632 -0.98060632
5.5032811 2.3980982 -0.98273873
5.5053949 2.5449142 -0.98282254
5.5057135 2.3721886 -0.97965348
5.5154343 2.3815393 -0.9751054
5.5339079 2.3962181 -0.97631705
5.552382 2.4108968 -0.97752857
5.5172448 2.5197966 -0.9796052
5.4773388 2.5329518 -0.97848022
5.4990292 2.5523736 -0.97533083
5.496829 2.4207244 -0.97325146
5.5144911 2.4320149 -0.97418892
5.5423737 2.4391997 -0.97392011
5.463727 2.4434171 -0.9722383
5.4806767 2.4529018 -0.97295856
5.5109835 2.4550734 -0.97123528
5.5330548 2.4667559 -0.97046232
5.4877796 2.3677979 -0.96515739
5.5754704 2.4196911 -0.96573734
5.594018 2.4400601 -0.96722257
5.4787378 2.473913 -0.96998686
5.5061922 2.4785156 -0.96808159
5.4775472 2.4941802 -0.96719921
5.5234137 2.4940567 -0.96698332
5.50214 2.5012257 -0.96509886
5.5101395 2.3492427 -0.96150565
5.4703121 2.3580232 -0.96441507
5.5282373 2.3608117 -0.96246636
5.4858971 2.3899908 -0.96218801
5.4761176 2.5143137 -0.96440119
5.5235929 2.3855371 -0.95936322
5.5196495 2.4095063 -0.95642149
5.4837484 2.4120355 -0.95920736
5.4823151 2.4333177 -0.95640147
5.5357823 2.4887228 -0.95709431
5.4875746 2.5329108 -0.95915031
5.5337563 2.3983512 -0.9527874
5.5144215 2.4338586 -0.95328748
5.4806285 2.4544592 -0.95358479
5.5109148 2.456903 -0.95049304
5.4786901 2.4754589 -0.95075756
5.456727 2.5456872 -0.95464909
5.48773 2.3694029 -0.94519144
5.522666 2.388952 -0.94667602
5.5239162 2.4267673 -0.94940221
5.5147595 2.454433 -0.94615984
5.4775 2.4957151 -0.94810653
5.4760704 2.5158377 -0.9454453
5.4808931 2.5350552 -0.94752556
5.5462646 2.37427 -0.94200945
5.4858475 2.3915834 -0.94237387
5.5009012 2.4232421 -0.94027603
5.505281 2.4818428 -0.94289625
5.4635181 2.5036669 -0.94002825
5.462502 2.5674129 -0.94350255
5.5414734 2.3988857 -0.93907297
5.499342 2.444442 -0.93760914
5.4954653 2.4864187 -0.93224311
5.444026 2.5328181 -0.93134463
5.4398012 2.5366693 -0.93380123
5.4712849 2.4599178 -0.92508525
5.4641256 2.4853373 -0.92536986
5.4356766 2.5585365 -0.92835081
5.4985867 2.5045557 -0.92487419
5.4445491 2.5502689 -0.91597724
