# .PCD v0.7 - Point Cloud Data file format
VERSION 0.7
FIELDS x y z
SIZE 4 4 4
TYPE F F F
COUNT 1 1 1
WIDTH 1493
HEIGHT 1
VIEWPOINT 0 0 0 1 0 0 0
POINTS 1493
DATA ascii
1.3865536 2.0921597 -0.58200192
1.3814203 2.1234391 -0.58150399
1.3524008 2.1274602 -0.58344948
1.3770387 2.1343002 -0.58469129
1.3518636 2.1353889 -0.58392596
1.36431 2.1370924 -0.5843398
1.3657297 2.1446791 -0.58223748
1.3670332 2.1547527 -0.58209467
1.3525337 2.1640506 -0.58212686
1.3634382 2.1629961 -0.58481383
1.3703537 2.1662104 -0.58100742
1.3627514 2.17485 -0.58467364
1.371768 2.1743205 -0.58125871
1.3710814 2.1827545 -0.58276618
1.3652449 2.1872933 -0.58384192
1.3672037 2.1962225 -0.58464783
1.3719136 2.1951244 -0.58241963
1.3547984 2.2023296 -0.58346635
1.3808059 2.2016616 -0.58060861
1.3843894 2.2160568 -0.58345044
1.3910058 2.216912 -0.58010912
1.3828785 2.2263079 -0.5835259
1.3900092 2.2290239 -0.58052623
1.3869228 2.2377753 -0.58453763
1.3845242 2.2429984 -0.58219898
1.3864968 2.2542 -0.58479524
1.3971518 2.2532308 -0.58484066
1.4006923 2.2591393 -0.58013558
1.3919274 2.2670076 -0.58498442
1.4020866 2.267942 -0.58286899
1.4057255 2.274498 -0.58135074
1.406965 2.2860081 -0.58226824
1.4062119 2.2934442 -0.58222222
1.4107668 2.2993264 -0.58234251
1.4153128 2.305413 -0.58276957
1.4253302 2.3294568 -0.58099449
1.4227626 2.3338721 -0.58404833
1.4339291 2.3452733 -0.58009166
1.4344153 2.3547523 -0.58385909
1.9986057 0.7491557 -0.57585728
2.0267324 0.75481057 -0.57508409
2.1068573 0.75037408 -0.57899183
2.0890203 0.75990248 -0.57931721
2.0155418 0.76824057 -0.57686436
2.0407515 0.76996946 -0.57979101
2.5046556 0.76663697 -0.57891035
1.970292 0.77999437 -0.57752955
1.9370246 0.79410648 -0.57795709
1.955717 0.7936942 -0.57722044
1.9149097 0.80143297 -0.57814473
1.9659625 0.80127037 -0.57793015
1.9552373 0.80867606 -0.57782763
1.8127029 0.81334335 -0.57758713
1.7664832 0.81862354 -0.577887
1.8970518 0.81566632 -0.57571554
1.900875 0.8184728 -0.57830054
1.6792312 0.82850945 -0.57761258
1.7443655 0.8272565 -0.57574141
1.7572321 0.82790399 -0.57558829
1.6381106 0.83278376 -0.57726765
1.6581876 0.83007014 -0.57561195
1.7008045 0.83043039 -0.57636249
1.7438962 0.83372504 -0.57700318
1.587994 0.83616638 -0.57827133
1.6699888 0.83686042 -0.57513225
1.5036961 0.84108853 -0.57721472
1.6070443 0.84107095 -0.57984149
1.5699369 0.84520888 -0.57968748
1.612908 0.84916419 -0.57809979
1.5164716 0.8503418 -0.57877898
1.5276194 0.85719389 -0.57759237
1.41184 0.86765075 -0.57825375
1.4828612 0.86846864 -0.57955021
1.5245275 0.86551487 -0.57719886
1.4654169 0.87425601 -0.57646978
1.4206364 0.87684196 -0.57806075
1.4405231 0.87925172 -0.57673067
1.4816625 0.87903106 -0.57876015
1.4918951 0.88392854 -0.57757741
1.4118485 0.92227995 -0.57719159
1.3947179 0.95482802 -0.57521152
1.379595 1.6706378 -0.57669508
1.3828982 1.6768273 -0.57898486
1.378361 1.6826117 -0.57714105
1.3691927 1.7029531 -0.57584351
1.4071763 1.7197101 -0.57716858
1.3897269 1.7402589 -0.57820237
1.3709561 1.7544559 -0.57981676
1.388495 1.7523487 -0.5786323
1.3872631 1.7644384 -0.57906216
1.3860312 1.7765284 -0.57949209
1.3780499 1.7856519 -0.57780641
1.3891997 1.7911692 -0.5754236
1.3768234 1.7976887 -0.57823443
1.3736188 1.8248541 -0.57794607
1.372523 1.8367387 -0.57836211
1.3917879 1.8444618 -0.57969612
1.3719175 1.8458359 -0.57994652
1.3711705 1.8537624 -0.57525337
1.3683169 1.8760927 -0.57527542
1.3968953 1.9399705 -0.57514793
1.3908896 1.9454417 -0.57948154
1.3905056 1.9548984 -0.57715172
1.3886735 1.9574333 -0.57727778
1.4031683 1.9575024 -0.57802761
1.3879755 1.9671309 -0.57579005
1.4018928 1.9698777 -0.57848853
1.3734335 1.97544 -0.57556677
1.385641 1.9777132 -0.57698429
1.3921572 1.9826913 -0.57542902
1.4006172 1.9822531 -0.57894939
1.3744739 1.9867706 -0.57607412
1.3875573 1.9907333 -0.57838601
1.3936409 1.991199 -0.57569265
1.3745947 1.995066 -0.57625353
1.3768274 2.0031409 -0.57640564
1.3923471 2.0013587 -0.57506859
1.3769467 2.0135841 -0.5767746
1.3770659 2.0240273 -0.57714355
1.376917 2.0343182 -0.57762706
1.3865265 2.0357482 -0.57583553
1.3774976 2.0441313 -0.5779705
1.3857272 2.0474663 -0.57625258
1.3974907 2.054292 -0.57545692
1.3774236 2.055357 -0.57825035
1.3786588 2.0637574 -0.57865727
1.3792393 2.0735703 -0.57900065
1.4004397 2.0712023 -0.5759809
1.37982 2.0833833 -0.57934403
1.3981637 2.0815902 -0.57505095
1.401967 2.0836809 -0.5755201
1.4009705 2.0957928 -0.57593727
1.3954349 2.1052725 -0.57672095
1.4025714 2.1068654 -0.5758341
1.4012121 2.1166501 -0.57519841
1.3604566 2.1270444 -0.57880932
1.3874855 2.126533 -0.57541233
1.3724946 2.1344228 -0.57548994
1.395292 2.1319599 -0.57566047
1.3618671 2.1351318 -0.5790599
1.3866824 2.1383042 -0.57583129
1.3611817 2.1437604 -0.576208
1.3969846 2.1442404 -0.57760596
1.3653929 2.1553504 -0.57968634
1.3613958 2.1650734 -0.57864588
1.3778652 2.1723201 -0.5757072
1.36257 2.1829648 -0.57590169
1.3767223 2.1821213 -0.57547629
1.3851161 2.1880891 -0.57694256
1.3631402 2.1926029 -0.57623899
1.3854175 2.194993 -0.57686579
1.3637105 2.2022412 -0.57657623
1.3757641 2.2115903 -0.57548052
1.3872701 2.2152998 -0.57701284
1.3856603 2.2236352 -0.57537955
1.4009925 2.2299809 -0.57523769
1.3887618 2.2348695 -0.57660365
1.3889883 2.2407432 -0.57500911
1.396754 2.2438951 -0.57518649
1.4058362 2.2457874 -0.57501918
1.3895689 2.250556 -0.57535255
1.3954093 2.2522879 -0.57864106
1.3884232 2.2612295 -0.57934028
1.3951792 2.260359 -0.57716328
1.395762 2.27021 -0.57750797
1.4053215 2.2848785 -0.57514584
1.4149222 2.2945654 -0.57518744
1.4156448 2.3039987 -0.57632136
1.4151888 2.3150265 -0.57717955
1.4272163 2.3243384 -0.57511491
1.4193175 2.3306983 -0.57546377
1.4344885 2.3430302 -0.57506448
1.4413931 2.3564627 -0.57666051
2.0538669 0.75447989 -0.57186443
2.5230203 0.75573707 -0.57334679
2.0785866 0.76077604 -0.57439691
2.0800784 0.76189029 -0.57307017
2.5202413 0.76000202 -0.57285053
1.9836738 0.76721972 -0.57346028
2.0635555 0.76813579 -0.57330966
2.7210972 0.77052104 -0.57340622
2.0021384 0.77927518 -0.57364684
1.9741218 0.78155458 -0.57068723
2.0150104 0.78080416 -0.57389861
1.9458013 0.78686202 -0.57207179
1.989676 0.79061538 -0.57097113
1.852704 0.80313241 -0.57495171
1.8936349 0.80587626 -0.57461154
1.9422662 0.81143439 -0.57234049
1.7933029 0.81806338 -0.57233739
1.8285985 0.81986535 -0.57249528
1.7397311 0.82080054 -0.57262307
1.5592831 0.82899535 -0.57235962
1.7040595 0.82841009 -0.57253492
1.7802774 0.8285256 -0.57288915
1.6109346 0.83449775 -0.57339734
1.6910988 0.83152425 -0.57305038
1.7820697 0.83016908 -0.5738728
1.6228372 0.83759379 -0.57258415
1.641844 0.83592862 -0.57081532
1.5834621 0.84355134 -0.5731588
1.6380939 0.84400469 -0.57282788
1.5374075 0.84894502 -0.57413274
1.548633 0.84578198 -0.57251585
1.5428164 0.8524884 -0.57108295
1.503161 0.855739 -0.57451123
1.5582851 0.85755312 -0.57385224
1.4503642 0.86109793 -0.57444936
1.4958262 0.86387306 -0.57242507
1.5133626 0.86095202 -0.57286596
1.4627594 0.8675307 -0.57088804
1.5071555 0.86910248 -0.57115293
1.4740716 0.87218708 -0.57106233
1.5052412 0.87381411 -0.57165968
1.4649365 0.88524151 -0.57404792
1.3989996 0.89140898 -0.57222569
1.4180816 0.89107829 -0.57052559
1.4774075 0.89087588 -0.57313359
1.4257097 0.8951323 -0.57187617
1.4437952 0.90196878 -0.57390511
1.4241723 0.90571308 -0.57299411
1.41752 0.91482067 -0.57130885
1.4297516 0.91990954 -0.57006621
1.4073813 0.92728293 -0.57394636
1.403861 0.9352904 -0.57317835
1.4018295 0.94510269 -0.57479203
1.3834169 1.5901484 -0.57330304
1.3823895 1.6018727 -0.57378507
1.3746655 1.6092534 -0.57197034
1.3803347 1.6253214 -0.57474911
1.37262 1.6325958 -0.57293004
1.3990579 1.6508582 -0.57020825
1.4046978 1.6672465 -0.57294685
1.3969752 1.674625 -0.57118541
1.3959339 1.6865085 -0.57167399
1.3712561 1.693433 -0.57285231
1.3912548 1.7026289 -0.57012433
1.4015597 1.7030562 -0.57441908
1.3708761 1.7077571 -0.57072908
1.3900089 1.7147166 -0.57057452
1.3688126 1.7172772 -0.57372034
1.3954563 1.7304659 -0.57316279
1.3875172 1.7388918 -0.57147491
1.3929536 1.7547472 -0.57406712
1.3917023 1.7668878 -0.57451928
1.3904511 1.7790284 -0.57497144
1.3679075 1.7970077 -0.57082868
1.3679054 1.8028132 -0.57394183
1.373417 1.8050991 -0.57261771
1.3928685 1.8060026 -0.57429844
1.3680089 1.8156011 -0.57293105
1.3878182 1.8158703 -0.57351184
1.369656 1.8265609 -0.57186282
1.3865739 1.828012 -0.57395387
1.3653053 1.8380575 -0.5707593
1.3854125 1.8424004 -0.57385266
1.3658859 1.8478706 -0.57110262
1.3855461 1.8527857 -0.57420218
1.3838673 1.8644975 -0.57396692
1.3685093 1.86532 -0.5749017
1.3839984 1.8748677 -0.57431602
1.3682083 1.8871226 -0.57247621
1.3841294 1.8852379 -0.57466513
1.3943989 1.885797 -0.5709036
1.383149 1.8917902 -0.57310498
1.3687888 1.8969357 -0.57281959
1.3811502 1.9026031 -0.57314277
1.4007031 1.9030259 -0.57377201
1.3693694 1.9067488 -0.57316303
1.3790411 1.9134326 -0.5741502
1.3699501 1.9165618 -0.57350636
1.3865414 1.9157453 -0.57477707
1.3994339 1.9153409 -0.57423067
1.3906099 1.92256 -0.57227278
1.3741672 1.9259752 -0.57421589
1.3862697 1.9290054 -0.57466781
1.3711112 1.9361879 -0.57419318
1.3852019 1.9431714 -0.57440251
1.3716917 1.9460009 -0.57453656
1.367842 1.9564137 -0.57121223
1.3722724 1.9558139 -0.57487994
1.3688829 1.9665482 -0.5740509
1.3735043 1.9677891 -0.57331717
1.3671634 1.9783779 -0.57199472
1.3927124 2.015173 -0.57487071
1.4119123 2.0176823 -0.57187396
1.3938239 2.0253518 -0.57398456
1.3945417 2.0373819 -0.57493299
1.3931913 2.0437188 -0.57261062
1.3870965 2.0608406 -0.57342577
1.3975644 2.0657644 -0.57441926
1.3858415 2.0731578 -0.57386374
1.3845865 2.0854747 -0.57430172
1.3852711 2.0928915 -0.57130301
1.3975488 2.0956435 -0.57454753
1.3835785 2.1025703 -0.57101083
1.3882885 2.1147618 -0.57499337
1.3914326 2.1120133 -0.57343996
1.3956877 2.1233637 -0.57464081
1.3759743 2.1447568 -0.57273281
1.3814821 2.1495836 -0.57374555
1.4011214 2.1496372 -0.57026637
1.3558056 2.1537006 -0.57495618
1.3749585 2.1574826 -0.57360637
1.3564218 2.1640797 -0.573735
1.3750648 2.1657095 -0.57299113
1.3569897 2.1736801 -0.57407093
1.3985758 2.1746197 -0.57115471
1.3858258 2.1773343 -0.57325625
1.3939142 2.1856971 -0.57100409
1.3778079 2.1917629 -0.57210529
1.3779242 2.2021947 -0.57247388
1.3854914 2.2041743 -0.57468843
1.3926847 2.2054553 -0.5705958
1.3962716 2.2172332 -0.57143021
1.3944176 2.2266016 -0.57478285
1.3965383 2.233705 -0.57484972
1.402984 2.2322853 -0.57314831
1.4044609 2.2554183 -0.57262266
1.4113071 2.2594757 -0.57005262
1.405417 2.2624328 -0.57403487
1.4124148 2.2673638 -0.57342839
1.410193 2.273623 -0.57442915
1.4058524 2.2753315 -0.57333207
1.4136995 2.2856896 -0.57341433
1.4092005 2.2913706 -0.57372731
1.4200159 2.2960773 -0.5703572
1.4233543 2.3063414 -0.57072949
1.4239805 2.3149083 -0.57441407
1.4136829 2.3204758 -0.57367635
1.4311026 2.329416 -0.57494462
1.4329996 2.3349302 -0.57432437
1.4403312 2.3487158 -0.57328987
1.437287 2.3531888 -0.57412291
2.5431075 0.75357533 -0.56651318
2.5798035 0.75409913 -0.56569004
2.1162119 0.75594431 -0.56881034
2.1343892 0.75592887 -0.56935173
2.101527 0.76447207 -0.56668693
1.9957075 0.76966262 -0.56768107
2.0263228 0.76929414 -0.56639004
2.4851255 0.76693255 -0.56591487
1.9930474 0.77459443 -0.56831169
2.0533195 0.77301115 -0.56713533
2.0381031 0.77598852 -0.56728667
2.7896957 0.77511179 -0.5672065
1.9817637 0.78546935 -0.56589895
1.9256109 0.79200637 -0.56603831
1.9902853 0.79146802 -0.56825072
1.9486651 0.79553688 -0.56546354
1.9160279 0.80312687 -0.56535447
1.9782171 0.80211323 -0.5685631
1.8323845 0.80847746 -0.56941801
1.9005691 0.80679858 -0.56975609
1.8224378 0.81485945 -0.56549495
1.9218535 0.81193733 -0.56908619
1.7694324 0.82407659 -0.56671917
1.8122956 0.82408071 -0.56789291
1.8664727 0.82200819 -0.56851101
1.7170373 0.8296454 -0.56775498
1.7298841 0.82842714 -0.56738645
1.8092148 0.82657355 -0.56736851
1.7073925 0.8376925 -0.56675488
1.7525076 0.83652186 -0.56594449
1.5417638 0.84214681 -0.56815201
1.5513761 0.84402615 -0.56671464
1.5956024 0.84020424 -0.56879497
1.6056011 0.84444797 -0.56522715
1.6712446 0.84068799 -0.56960487
1.5694648 0.84577656 -0.56766438
1.5814584 0.85256785 -0.56856567
1.5020235 0.85566789 -0.56623578
1.525128 0.85593462 -0.5677532
1.4117742 0.86804032 -0.56678629
1.4825268 0.86892021 -0.56814313
1.5235583 0.86508214 -0.56577373
1.5427628 0.8651002 -0.56932312
1.4939098 0.87307858 -0.56678742
1.4678692 0.87990588 -0.56928295
1.4752005 0.87679559 -0.56604648
1.481349 0.87949824 -0.56672752
1.4916008 0.88430941 -0.56580818
1.4499516 0.88606977 -0.56897604
1.4441384 0.89578736 -0.56778967
1.4639221 0.89796144 -0.56902856
1.4098113 0.90268505 -0.56874269
1.4334854 0.90834129 -0.56814563
1.4067776 0.91804516 -0.56631827
1.4064305 0.9288879 -0.56675768
1.4232324 0.9289223 -0.56831908
1.4016606 0.94588435 -0.56578153
1.3828474 1.515884 -0.56813157
1.3818247 1.5275552 -0.56861144
1.3771714 1.5569303 -0.56834996
1.3759482 1.5687983 -0.56879199
1.375457 1.5835371 -0.56681889
1.4024674 1.5938404 -0.5660727
1.4022224 1.6046259 -0.56738842
1.3999758 1.6180155 -0.56697303
1.4021819 1.6152074 -0.56874251
1.4011406 1.6270911 -0.56923109
1.3744044 1.6383783 -0.56628382
1.4027829 1.6361578 -0.56963265
1.4042155 1.6454813 -0.56999773
1.3734479 1.6500045 -0.56668431
1.3962382 1.6542784 -0.56832361
1.3757356 1.6600646 -0.56903315
1.3949924 1.6663661 -0.56877381
1.3745208 1.6719878 -0.56945711
1.3937465 1.6784537 -0.56922394
1.3733058 1.6839108 -0.56988114
1.3935103 1.6914297 -0.56700242
1.4155313 1.7135206 -0.56716096
1.4068627 1.7201774 -0.56513596
1.3908246 1.7285876 -0.56562042
1.3939189 1.7553763 -0.56520027
1.3871288 1.7648569 -0.56691015
1.3858969 1.7769468 -0.56734008
1.3846651 1.7890365 -0.56776994
1.3953177 1.8082899 -0.56606853
1.3940601 1.8204911 -0.56652296
1.3928026 1.8326924 -0.56697738
1.3747067 1.8442612 -0.56506121
1.3842244 1.8445202 -0.56738997
1.398188 1.8490343 -0.56953442
1.3745134 1.8550795 -0.5654366
1.3821098 1.85583 -0.56651902
1.3902874 1.8570948 -0.56788623
1.3783793 1.8662789 -0.56694782
1.3758044 1.8772639 -0.56865531
1.380827 1.8953445 -0.56530082
1.3663883 1.904242 -0.56544298
1.3665098 1.9146167 -0.56580943
1.3628527 1.923257 -0.5683313
1.3831215 1.9319367 -0.56521332
1.3647704 1.9358718 -0.56597304
1.3843375 1.9413521 -0.56530362
1.3621769 1.9451298 -0.56911057
1.402922 1.9579403 -0.56558824
1.3834988 1.9664212 -0.56500435
1.3832515 1.9772812 -0.56537318
1.3892541 1.9846787 -0.5659315
1.400371 1.982691 -0.56651002
1.3738931 1.9856042 -0.56608093
1.3747973 1.9936599 -0.56607258
1.3872623 1.993268 -0.56572151
1.3990954 1.9950666 -0.56697094
1.3865085 2.0046947 -0.56715256
1.387754 2.0136681 -0.56639493
1.3719772 2.024456 -0.56527746
1.4031153 2.0246494 -0.56996775
1.3913534 2.0296028 -0.56961298
1.3750926 2.0351958 -0.56648391
1.3906847 2.039753 -0.56519544
1.375211 2.0456238 -0.56685233
1.3825748 2.0508652 -0.5684579
1.3753294 2.0560517 -0.56722069
1.3745501 2.0647244 -0.56767547
1.3846467 2.0651541 -0.56511545
1.3922879 2.0665221 -0.5651089
1.3791183 2.0739214 -0.56917149
1.3937533 2.0749245 -0.56536919
1.379699 2.0837345 -0.56951487
1.38322 2.0830307 -0.56575143
1.4025453 2.1253397 -0.56693131
1.3967158 2.133841 -0.56590551
1.3969147 2.1446533 -0.56545317
1.3697494 2.1536243 -0.56785083
1.3843775 2.154388 -0.56665725
1.4026873 2.1599259 -0.56781334
1.3839349 2.1653545 -0.56559944
1.3658885 2.1733897 -0.56707472
1.3714722 2.1827443 -0.56886983
1.3954921 2.1813755 -0.56540221
1.3851671 2.193001 -0.56538755
1.3986062 2.2081757 -0.56673938
1.3885429 2.2247317 -0.56570989
1.3976829 2.220751 -0.56990838
1.4042876 2.2232118 -0.56538403
1.3933092 2.2311585 -0.56626189
1.3981619 2.2416129 -0.56678838
1.3995019 2.2508137 -0.5683794
1.414443 2.2743649 -0.56671375
1.414723 2.3033774 -0.56536466
1.4260679 2.3126349 -0.56520444
1.4150959 2.3154209 -0.56590301
1.429283 2.3315737 -0.56824535
1.4193304 2.3355491 -0.5695281
1.4298793 2.3416526 -0.56859803
1.4183102 2.3479495 -0.56995523
1.4403331 2.3465641 -0.56562459
1.443651 2.3538337 -0.56631458
2.1550007 0.74819696 -0.56254983
2.5582459 0.75076163 -0.56078833
2.1572082 0.75833911 -0.56170577
2.0411556 0.76280719 -0.56491214
2.0926414 0.76484597 -0.56001526
2.0288618 0.77382874 -0.56233138
2.075067 0.77248627 -0.56061488
2.4682114 0.77721822 -0.56285876
1.9988132 0.78371406 -0.56089944
2.0136604 0.78378636 -0.56151509
2.0275781 0.78393859 -0.56143659
1.9584208 0.79132158 -0.56004709
1.9655789 0.80176681 -0.5625906
1.8622007 0.80814475 -0.56381005
1.9547981 0.80926925 -0.56284386
1.8130747 0.81396729 -0.56418079
1.9528424 0.81439549 -0.56001216
1.7659527 0.81926161 -0.56437343
1.9040412 0.81887347 -0.56377196
1.5671425 0.8291449 -0.56189984
1.6787266 0.82911623 -0.56476063
1.743973 0.82778645 -0.5623557
1.6910758 0.83105659 -0.56014204
1.6185379 0.83848411 -0.56368256
1.6251069 0.83705115 -0.56487042
1.647552 0.83865541 -0.56414139
1.6676347 0.83570766 -0.5639112
1.5733092 0.84251875 -0.56179929
1.4395823 0.84700215 -0.56238407
1.6457242 0.84669256 -0.56240684
1.5552068 0.85016376 -0.56318146
1.5460093 0.85544705 -0.56298804
1.4502324 0.86150885 -0.56251806
1.495489 0.86432856 -0.56091905
1.5649308 0.86009389 -0.56383896
1.4706163 0.86783314 -0.56125736
1.5040678 0.87094951 -0.56098121
1.5203038 0.87017053 -0.56247872
1.413345 0.87831479 -0.56421047
1.4332091 0.8797248 -0.56269491
1.5127403 0.8764714 -0.56119764
1.4629062 0.88200474 -0.56211621
1.4593396 0.88833708 -0.56057656
1.4771159 0.89125329 -0.56147099
1.4313501 0.89877379 -0.56314158
1.4504471 0.90484929 -0.56491691
1.4250363 0.90654659 -0.56134015
1.4359914 0.91117311 -0.56045216
1.4156929 0.91629505 -0.56058663
1.4049587 0.93570936 -0.5644905
1.4027141 0.95500904 -0.56270385
1.4043967 1.5065193 -0.56081879
1.4031563 1.518554 -0.56126702
1.4019159 1.5305886 -0.56171525
1.3949748 1.5359583 -0.56135476
1.4006755 1.5426232 -0.56216341
1.3994352 1.5546578 -0.56261164
1.3861924 1.5554328 -0.56009066
1.3981948 1.5666924 -0.56305987
1.3944166 1.5750086 -0.5631578
1.3908467 1.5830677 -0.56329161
1.3749795 1.598278 -0.56482589
1.377421 1.6201229 -0.56063032
1.4121159 1.6602291 -0.56267124
1.4110653 1.6722188 -0.56316417
1.3889546 1.6777376 -0.56185538
1.4033396 1.6796483 -0.56145835
1.4022937 1.6915848 -0.56194907
1.3932883 1.7044079 -0.56476057
1.3729355 1.7143512 -0.56099218
1.3942612 1.7176262 -0.56284893
1.3735228 1.7242782 -0.56133956
1.3741101 1.7342052 -0.56168699
1.402863 1.7350825 -0.56334209
1.3726425 1.7448145 -0.56021166
1.3951633 1.7432346 -0.5647583
1.3710258 1.7562509 -0.56079805
1.3742905 1.7677901 -0.5621686
1.3914607 1.7673173 -0.56231588
1.37154 1.7757858 -0.56167424
1.3902094 1.779458 -0.56276804
1.374393 1.7835453 -0.56271672
1.3889581 1.7915987 -0.5632202
1.3727101 1.7955639 -0.56236637
1.3740127 1.805167 -0.56346691
1.3738227 1.8159776 -0.56384194
1.3736324 1.8267884 -0.56421709
1.3701174 1.8367643 -0.56234026
1.3669261 1.8678477 -0.56196028
1.3864427 1.8672888 -0.56427914
1.3675066 1.8776608 -0.56230366
1.3820484 1.8765359 -0.56328064
1.3680873 1.8874738 -0.56264704
1.3821769 1.8868911 -0.56362927
1.3686678 1.8972869 -0.56299043
1.3801435 1.9017102 -0.56151307
1.400458 1.9034617 -0.5613935
1.3786705 1.906414 -0.56442249
1.3792931 1.9145124 -0.56097704
1.3801541 1.9149216 -0.56468612
1.3991888 1.9157765 -0.56185216
1.3816378 1.9234291 -0.56494975
1.3755947 1.9265774 -0.56227142
1.377732 1.9388492 -0.56082475
1.3966502 1.9404061 -0.56276947
1.3715707 1.946352 -0.5647074
1.3736728 1.9532232 -0.56414551
1.3839158 1.9543196 -0.56440741
1.3677609 1.9568027 -0.56022513
1.3730774 1.9670788 -0.56383926
1.3941116 1.9650359 -0.56368673
1.3731973 1.9774992 -0.56420743
1.3667431 1.989749 -0.56139886
1.3717391 2.0036459 -0.56454223
1.3718581 2.014051 -0.56490982
1.3877462 2.022903 -0.56467336
1.3892155 2.031328 -0.56493437
1.388786 2.0493333 -0.56259775
1.3908225 2.0581195 -0.56484854
1.3857046 2.0735841 -0.56148326
1.3932853 2.0832553 -0.56295174
1.3816667 2.0944653 -0.56412202
1.3935193 2.0934711 -0.56328911
1.3807392 2.1037116 -0.56037247
1.3937533 2.1036868 -0.56362653
1.3816297 2.11203 -0.56175655
1.3950945 2.1155181 -0.56447786
1.384208 2.124702 -0.56137317
1.3843257 2.1351907 -0.56174374
1.3857077 2.1462994 -0.56401831
1.3795036 2.1583874 -0.56123042
1.3927219 2.1568916 -0.5633291
1.3747419 2.1664188 -0.5649085
1.3945446 2.1670294 -0.56493676
1.3807962 2.1726835 -0.56164235
1.3956133 2.1734717 -0.56384283
1.3826985 2.1846893 -0.56446254
1.3952202 2.1946099 -0.56477743
1.3833168 2.2031252 -0.56357038
1.3864186 2.2142994 -0.56476939
1.3999704 2.216033 -0.56424558
1.4207966 2.2200894 -0.56351614
1.4045883 2.2339029 -0.56471992
1.4110603 2.2407904 -0.56219399
1.4059684 2.2488084 -0.5634346
1.4084635 2.2533827 -0.56144261
1.4106004 2.2580833 -0.56462526
1.4120467 2.2647302 -0.56484306
1.4080917 2.2661958 -0.56253791
1.4068055 2.2743018 -0.56201082
1.4159067 2.2842617 -0.56475794
1.4154065 2.2941985 -0.56486297
1.4210489 2.2969246 -0.56043673
1.4245949 2.3046913 -0.56320328
1.426471 2.321034 -0.56443024
1.4318115 2.3263872 -0.56434506
1.4339497 2.3364 -0.5642314
1.4335856 2.3441229 -0.56256521
1.4363744 2.3549228 -0.5612216
2.0366502 0.75175881 -0.55977309
2.0534425 0.75511229 -0.55557752
2.1469443 0.75880206 -0.55578339
2.0779631 0.76152581 -0.55851829
2.1404989 0.76054847 -0.55971277
2.2130773 0.76195675 -0.55858386
2.1298313 0.76510829 -0.55544877
2.0520203 0.7713412 -0.55624473
2.0045102 0.77999055 -0.55641061
2.4471347 0.77936167 -0.55866504
1.9555182 0.78749859 -0.55950636
2.0015268 0.79484993 -0.55732965
1.9417434 0.80363971 -0.55731624
1.8930107 0.80780387 -0.55801862
1.9112058 0.80823272 -0.55728787
1.9887413 0.80645943 -0.5563463
1.7837169 0.81459993 -0.55581677
1.8418859 0.81355858 -0.55843216
1.9323872 0.81643075 -0.5573861
1.7476563 0.82429391 -0.55926657
1.8250401 0.82371461 -0.55745947
1.7035475 0.82902586 -0.55949283
1.7794799 0.82730401 -0.55718791
1.7817208 0.83062071 -0.55991876
1.577216 0.83856231 -0.55788988
1.6275228 0.83643109 -0.55646962
1.6743697 0.83825976 -0.55553007
1.5846875 0.8442421 -0.55785674
1.6798645 0.8436017 -0.55916744
1.7160071 0.84054887 -0.55597258
1.5579933 0.84771544 -0.55717611
1.5689929 0.84634423 -0.55564135
1.5227529 0.8545863 -0.55790615
1.5437858 0.85241628 -0.55603147
1.5047164 0.8575598 -0.55534554
1.588101 0.85506266 -0.55832237
1.5337386 0.86222738 -0.55671918
1.4179201 0.86616796 -0.55704165
1.5494086 0.86769044 -0.55942589
1.4764221 0.87476122 -0.5552246
1.4934602 0.87361938 -0.55533469
1.4850945 0.87640822 -0.55696714
1.4448386 0.88329977 -0.55539554
1.4178497 0.89149076 -0.5588094
1.4438221 0.89623582 -0.55634761
1.4636329 0.8983357 -0.55746496
1.4095803 0.90309566 -0.55707979
1.4433123 0.90968508 -0.55711138
1.4187255 0.91422808 -0.55953503
1.4064597 0.91847444 -0.55547434
1.4262097 0.92478132 -0.55790305
1.4039352 0.9262408 -0.55622172
1.4081104 0.9367516 -0.55608618
1.4064176 1.4070203 -0.55543834
1.4052846 1.418896 -0.55590343
1.4040396 1.431581 -0.55574018
1.4110327 1.4334586 -0.55920529
1.3964664 1.4381902 -0.55527037
1.4028054 1.4435551 -0.55618614
1.3944116 1.4616387 -0.55623442
1.4003372 1.4675031 -0.557078
1.399103 1.4794772 -0.55752397
1.4001352 1.4770716 -0.55893368
1.399103 1.4888489 -0.5594179
1.3945992 1.4941313 -0.55782521
1.3903021 1.5085356 -0.55816257
1.3891208 1.5247912 -0.55551469
1.3872199 1.5437086 -0.55960864
1.4114817 1.5730669 -0.55508137
1.389728 1.5910579 -0.55653679
1.3885076 1.603034 -0.55696267
1.4086717 1.6087589 -0.55747581
1.3872874 1.6150103 -0.55738854
1.4018711 1.6156706 -0.55681652
1.4036531 1.6245918 -0.55709755
1.386067 1.6269864 -0.55781436
1.4052252 1.6337702 -0.55734217
1.3848467 1.6389625 -0.55824023
1.3997884 1.6394377 -0.55779368
1.4039738 1.645911 -0.55779433
1.3836265 1.6509387 -0.55866611
1.4027226 1.6580515 -0.55824649
1.3824061 1.662915 -0.55909199
1.3947518 1.6667937 -0.5566237
1.3935059 1.6788813 -0.55707389
1.3920841 1.7039415 -0.55529141
1.3755252 1.7097765 -0.55900478
1.3745644 1.7214558 -0.55940711
1.3736036 1.7331352 -0.55980933
1.3845309 1.7894549 -0.55561787
1.3900418 1.8045676 -0.55805868
1.3875092 1.81651 -0.55520582
1.3862649 1.8286517 -0.55564779
1.3834023 1.8442612 -0.55844069
1.3913022 1.8453252 -0.5551675
1.3837763 1.8529351 -0.55653173
1.3745785 1.8555079 -0.55537581
1.3769703 1.8742925 -0.55597496
1.3875295 1.8819289 -0.55653077
1.3751681 1.8895705 -0.55624855
1.3770529 1.8981974 -0.55552483
1.3806539 1.9033331 -0.55960143
1.3772826 1.9170883 -0.55521703
1.3903661 1.9229934 -0.55995518
1.3802421 1.9340584 -0.55574286
1.3817217 1.9425435 -0.55600578
1.3697993 1.9868135 -0.55513811
1.3746693 1.994046 -0.55504012
1.3832058 1.9979157 -0.55533987
1.384675 2.0063407 -0.55560088
1.4041491 2.0126605 -0.55701214
1.3721144 2.025944 -0.55650747
1.3860424 2.0252867 -0.55588639
1.383886 2.0348704 -0.55649811
1.3726932 2.0357268 -0.55684978
1.3877596 2.0416017 -0.55580038
1.3721144 2.0456369 -0.55559695
1.3858654 2.0506382 -0.55626667
1.3752283 2.0564229 -0.55678219
1.3906902 2.0584068 -0.55632108
1.3744296 2.0650744 -0.55787671
1.3863305 2.0680802 -0.55744261
1.3754649 2.0772791 -0.55751896
1.3898767 2.0771728 -0.55571169
1.3795781 2.0840857 -0.55968571
1.3913368 2.0855451 -0.55597115
1.3755794 2.0907741 -0.55721343
1.3899808 2.0953434 -0.5553816
1.3812212 2.102792 -0.55924976
1.3942571 2.1022902 -0.55648994
1.3813403 2.1124363 -0.5550313
1.3964934 2.1239007 -0.55671299
1.4000975 2.1357803 -0.55752766
1.39696 2.1744037 -0.55701435
1.3970463 2.1847944 -0.55736488
1.4006155 2.1846704 -0.55644524
1.3984991 2.1950839 -0.55617791
1.3947622 2.2031825 -0.55721325
1.4012656 2.2069151 -0.55645698
1.3946187 2.2125258 -0.55993176
1.4027114 2.2152052 -0.55671388
1.3951089 2.2214127 -0.55687612
1.404157 2.2234952 -0.55697072
1.3972347 2.2307358 -0.557688
1.4088309 2.2333074 -0.55528176
1.4245312 2.2343163 -0.55610502
1.4051863 2.2456026 -0.55867624
1.4137942 2.2553246 -0.55914778
1.4135364 2.2640395 -0.55669361
1.4149386 2.273109 -0.55529517
1.4271653 2.3168979 -0.55758858
1.4314549 2.3255749 -0.55519664
1.4271597 2.3311028 -0.55805963
1.4192591 2.3359718 -0.55708593
1.4297551 2.3420134 -0.55850244
1.4403796 2.3443806 -0.55664545
1.4387732 2.3460813 -0.5551312
1.4249461 2.3522799 -0.55937493
1.4396937 2.3582995 -0.55820966
2.5222645 0.75664622 -0.55409163
2.0085874 0.76947266 -0.55458325
2.052603 0.76804233 -0.55254614
2.1010554 0.76510888 -0.55059969
2.7218032 0.77442491 -0.55368245
2.0658822 0.77605927 -0.55428159
2.0496173 0.78042287 -0.55478585
1.9811691 0.78618461 -0.55075037
1.9360881 0.79723585 -0.55446482
1.9603012 0.79697436 -0.55278742
1.8125302 0.81462222 -0.55030978
1.7654221 0.81989968 -0.55085981
1.8660805 0.82252771 -0.55405724
1.6782219 0.82972306 -0.55190861
1.7293643 0.82905227 -0.55414659
1.8088078 0.82712305 -0.55348814
1.716651 0.83016717 -0.55457473
1.5872788 0.83713222 -0.55387431
1.6181735 0.83897638 -0.55124807
1.6451687 0.83803993 -0.5548805
1.6542091 0.83980274 -0.55082053
1.7521641 0.83696628 -0.55221117
1.5116192 0.84059995 -0.55482531
1.5334086 0.84282905 -0.55325872
1.6052017 0.84494257 -0.55276775
1.5799215 0.84616333 -0.55203789
1.5547389 0.85072643 -0.55126482
1.4572667 0.86080092 -0.55261058
1.5198096 0.86118495 -0.55278468
1.5725669 0.8629446 -0.55403316
1.5021132 0.86821216 -0.55186099
1.5267389 0.87140936 -0.55374777
1.4203774 0.87764895 -0.55462468
1.4646456 0.87523258 -0.55395985
1.4913064 0.88469028 -0.55403894
1.4048778 0.8913359 -0.55087769
1.4837643 0.89403898 -0.5521214
1.4369876 0.90241891 -0.55431563
1.4247144 0.90698129 -0.55035919
1.4501604 0.90522033 -0.55345219
1.4426405 0.91410697 -0.55146575
1.4213679 0.9177807 -0.55092984
1.4089397 0.94663906 -0.55329263
1.4024361 0.955369 -0.55158174
1.3903774 1.3039995 -0.55413556
1.4026308 1.3678446 -0.55237818
1.3948151 1.3762848 -0.55066049
1.3937923 1.387956 -0.55114031
1.3940603 1.3911983 -0.55023265
1.3886786 1.446312 -0.55353957
1.3947577 1.4530337 -0.55453736
1.4154087 1.461185 -0.55046499
1.4143673 1.4730685 -0.55095357
1.413326 1.484952 -0.55144215
1.4121937 1.4975669 -0.55032116
1.4110956 1.5091867 -0.55159533
1.4034665 1.5167326 -0.55073732
1.4097019 1.5217421 -0.55122149
1.4088084 1.5331578 -0.5525341
1.4081192 1.5443695 -0.55388504
1.4139844 1.5487857 -0.55417705
1.3865374 1.5531689 -0.55323273
1.4070779 1.556253 -0.55437362
1.4127331 1.5609264 -0.55462921
1.3853225 1.5650921 -0.5536567
1.4060365 1.5681366 -0.5548622
1.3946157 1.5774832 -0.55464011
1.4034727 1.5821803 -0.5534724
1.4030902 1.5930858 -0.55488098
1.3933229 1.6918528 -0.55485129
1.4075997 1.708655 -0.55261046
1.3919222 1.7169161 -0.55303842
1.4065491 1.7206446 -0.55310339
1.3906903 1.7290061 -0.55346835
1.3894584 1.7410958 -0.55389822
1.3882265 1.7531855 -0.55432814
1.3869946 1.7652754 -0.55475807
1.3878653 1.7786264 -0.55287635
1.3887166 1.7920282 -0.55101681
1.3874652 1.8041689 -0.55146897
1.3746626 1.8052807 -0.55244929
1.3717668 1.8404782 -0.55366164
1.3812087 1.8648721 -0.55372971
1.3758029 1.9086032 -0.55495417
1.3781481 1.9259948 -0.55282563
1.3762968 1.9385588 -0.55060309
1.3750595 1.9507017 -0.55103487
1.3838038 1.954648 -0.55468923
1.395136 1.9531569 -0.55084962
1.368063 1.9574656 -0.55411112
1.3738222 1.9628446 -0.5514667
1.3686417 1.9672482 -0.55445349
1.3825505 1.9652939 -0.55167711
1.3938667 1.9654717 -0.55130827
1.3681109 1.9780934 -0.55240816
1.3814186 1.9755993 -0.55397612
1.4001247 1.983129 -0.55407065
1.3808657 1.9865446 -0.55413097
1.3666621 1.9901379 -0.55041176
1.3988491 1.9955044 -0.55453157
1.3663229 2.0011199 -0.55080301
1.3760964 2.0036824 -0.55458754
1.3674283 2.011759 -0.55219406
1.3750863 2.0145113 -0.55474031
1.3874669 2.0147483 -0.55450237
1.3656443 2.0230842 -0.5515855
1.3653051 2.0340662 -0.55197674
1.3938866 2.1142511 -0.55366564
1.3777816 2.1241205 -0.55013192
1.3872657 2.1273568 -0.55180109
1.3783604 2.133903 -0.55047429
1.3978415 2.1329544 -0.55288327
1.3851734 2.1442454 -0.55225158
1.3958883 2.1461153 -0.55454838
1.3844597 2.1565418 -0.55198538
1.393537 2.1572731 -0.55485123
1.3841017 2.162941 -0.5526036
1.3944445 2.1673775 -0.5546537
1.3848679 2.171937 -0.55252767
1.3849857 2.182426 -0.55289817
1.3858435 2.1923802 -0.55363381
1.3883239 2.2145939 -0.55481613
1.4108267 2.2388268 -0.55441034
1.3991148 2.2423401 -0.55428952
1.4086949 2.2547891 -0.55028391
1.4084797 2.2644222 -0.55114841
1.4054588 2.2713315 -0.55061537
1.4168442 2.2828653 -0.55448049
1.4069488 2.2903242 -0.55156547
1.4124904 2.2917037 -0.55299562
1.4223349 2.2950644 -0.55473
1.4151275 2.3024635 -0.55405247
1.4257486 2.3051267 -0.55451834
1.4049282 2.314882 -0.55241132
1.4178872 2.311408 -0.55472457
1.4304576 2.3128834 -0.55273265
1.4249688 2.322557 -0.55471843
1.4334941 2.3354919 -0.55347466
1.443408 2.3542969 -0.55482578
2.0637522 0.75057113 -0.54928476
2.1684918 0.75288463 -0.54945385
2.0942218 0.75768876 -0.54833859
2.1565611 0.75911725 -0.54522634
2.4492729 0.75858319 -0.54836714
2.5017035 0.75624031 -0.54979372
2.0478516 0.7677905 -0.54688299
2.1051991 0.76780796 -0.54676247
2.0282531 0.77456087 -0.54682535
2.7888598 0.77611679 -0.54592079
1.9683936 0.78739691 -0.54670149
2.0137072 0.78526813 -0.54615563
2.0251768 0.78830475 -0.54920059
2.0391436 0.78687704 -0.54853469
1.9688861 0.79648316 -0.54813498
1.9651953 0.80226326 -0.54725105
1.8616415 0.80881727 -0.54956639
1.9122844 0.80581999 -0.54545504
1.9543588 0.80986243 -0.54786015
1.9035925 0.81733197 -0.54825395
1.8377398 0.82475591 -0.54728752
1.7030355 0.8296417 -0.54645073
1.7453558 0.82662094 -0.54742992
1.6903377 0.83255213 -0.5470857
1.7000924 0.83149135 -0.54904002
1.7813718 0.83107233 -0.54596472
1.6689849 0.83806759 -0.5495652
1.5837787 0.84285313 -0.54822344
1.5941215 0.84346676 -0.54594922
1.647235 0.84373915 -0.54880571
1.6795348 0.84402841 -0.5459823
1.5515672 0.85313118 -0.54902726
1.5765623 0.85122442 -0.54638398
1.418798 0.85508466 -0.54513329
1.5454285 0.85619706 -0.54518509
1.5877887 0.85546696 -0.54583001
1.4703768 0.86825895 -0.54916054
1.481858 0.8698234 -0.54532892
1.5491034 0.86808532 -0.54722273
1.5049992 0.87080824 -0.54841554
1.4577837 0.87782073 -0.5462594
1.4990412 0.87766421 -0.54606056
1.5124469 0.88022465 -0.54864281
1.4590302 0.88879812 -0.54870385
1.4246902 0.8919031 -0.54920173
1.4633439 0.89870989 -0.54590124
1.4164164 0.90355909 -0.54752731
1.4184049 0.91466099 -0.54859972
1.4074146 0.92700082 -0.5472762
1.4259274 0.92514664 -0.54661345
1.4056712 1.2564135 -0.5454998
1.4050949 1.2676687 -0.54587847
1.4103831 1.2826306 -0.54829502
1.3951536 1.2916744 -0.54511702
1.4098043 1.2939312 -0.54867524
1.3949397 1.3047779 -0.54533112
1.4092256 1.305232 -0.5490554
1.3999287 1.317929 -0.54826123
1.4050232 1.3182615 -0.54850811
1.3961071 1.3297467 -0.54734433
1.3949869 1.3414898 -0.5478043
1.3938665 1.3532329 -0.54826427
1.4247808 1.3542334 -0.54606777
1.3896549 1.3653381 -0.54726774
1.3965559 1.3762434 -0.54733264
1.4213879 1.4013166 -0.54737091
1.4168272 1.4121597 -0.5468235
1.4156864 1.4241188 -0.54729187
1.4179571 1.4372734 -0.54877901
1.3905712 1.4443774 -0.54740727
1.4029232 1.4421985 -0.54566163
1.4171771 1.4492164 -0.54852039
1.3893617 1.4562474 -0.54782939
1.4159312 1.4613039 -0.54897058
1.4146854 1.4733915 -0.54942077
1.3869427 1.4799877 -0.54867357
1.4134395 1.4854792 -0.54987097
1.3857332 1.4918578 -0.54909569
1.4055399 1.4930717 -0.54976451
1.3845237 1.5037279 -0.54951781
1.3833143 1.5155981 -0.54993987
1.4043882 1.6242238 -0.54620206
1.3859341 1.6274009 -0.54577655
1.3847138 1.6393771 -0.54620242
1.3994776 1.6399007 -0.54586762
1.3834935 1.6513532 -0.5466283
1.4051194 1.6562402 -0.54849744
1.3922793 1.6666694 -0.54690111
1.4040735 1.6681768 -0.54898822
1.3888209 1.6781542 -0.54975665
1.4030274 1.6801134 -0.54947901
1.3920195 1.6913967 -0.54537398
1.4019815 1.69205 -0.54996973
1.3907737 1.7034843 -0.54582417
1.3895278 1.7155719 -0.5462743
1.3882819 1.7276596 -0.5467245
1.3870361 1.7397473 -0.54717469
1.3857024 1.7648082 -0.54534054
1.3794689 1.8382325 -0.54518545
1.3737303 1.8515704 -0.54500955
1.372468 1.8729656 -0.54609996
1.3824832 1.8778448 -0.54844409
1.3739517 1.8814731 -0.54636359
1.3842664 1.8861742 -0.5465712
1.3727099 1.8919232 -0.54581714
1.3926482 1.8989186 -0.54672486
1.3745295 1.9036468 -0.54607987
1.3800087 1.9021304 -0.5493077
1.3761605 1.9147351 -0.54647571
1.3989438 1.9162123 -0.5494737
1.3752095 1.9255366 -0.54674852
1.3770561 1.9380206 -0.54749656
1.377923 1.9452435 -0.54630893
1.3793975 1.9536985 -0.5465709
1.380872 1.9621537 -0.54683286
1.3786653 1.9729286 -0.54600638
1.3696786 1.9871635 -0.54533935
1.3745463 1.99421 -0.54569626
1.3803006 1.9998763 -0.5459711
1.381766 2.0082788 -0.54623145
1.3832313 2.0166812 -0.5464918
1.3846967 2.0250838 -0.54675215
1.3725725 2.0360768 -0.54705101
1.3837737 2.0352437 -0.5455541
1.3839046 2.0439687 -0.54617703
1.368172 2.0467029 -0.54603136
1.3853647 2.0523415 -0.54643643
1.3687485 2.0564475 -0.54637229
1.390558 2.0586941 -0.54779357
1.3693252 2.0661919 -0.54671335
1.376182 2.0690196 -0.54534596
1.3848696 2.0663555 -0.54592705
1.3748877 2.0752072 -0.54842031
1.3865905 2.0771172 -0.54756051
1.3756531 2.0825415 -0.54725158
1.386353 2.086803 -0.54809475
1.37577 2.0942822 -0.54842889
1.3861873 2.0939698 -0.54670405
1.3766241 2.1045551 -0.5494473
1.3832158 2.1027975 -0.54807049
1.3913054 2.1039789 -0.54716617
1.3722078 2.1149151 -0.54841828
1.383014 2.1151567 -0.54686999
1.386678 2.1242986 -0.54547513
1.3959323 2.1334376 -0.54793394
1.3801088 2.136543 -0.54931396
1.3948008 2.1474488 -0.54735273
1.4071087 2.1680903 -0.54777294
1.3968253 2.1747615 -0.54652989
1.3954842 2.1857519 -0.54646391
1.3952698 2.1943877 -0.5465439
1.4031924 2.1980028 -0.54668498
1.3913178 2.2023103 -0.54549325
1.4024166 2.2074189 -0.54808116
1.4025809 2.2154887 -0.54830062
1.3924836 2.2220123 -0.54618263
1.4060272 2.2218544 -0.54613096
1.4062098 2.2311363 -0.54957825
1.3986731 2.2416325 -0.54822266
1.4115354 2.244391 -0.54593813
1.4328408 2.2407665 -0.54569221
1.4080625 2.2466922 -0.54959738
1.4070468 2.2542081 -0.54975271
1.4315364 2.2535682 -0.54614741
1.4122998 2.2590039 -0.54537594
1.4022355 2.2621775 -0.54886866
1.4123658 2.2667143 -0.54664987
1.4012296 2.2744031 -0.5492897
1.416863 2.2726021 -0.5494895
1.4288086 2.2840259 -0.54514784
1.4184054 2.2851002 -0.54622513
1.4172618 2.2901886 -0.54853654
1.4249002 2.2964189 -0.54613602
1.4270271 2.3042476 -0.54637867
1.4327385 2.3096781 -0.54742503
1.4278418 2.3121369 -0.54734868
1.4331869 2.3138645 -0.54533964
1.432832 2.3245091 -0.54665816
1.4290345 2.3322949 -0.5480541
1.43402 2.3354521 -0.54631519
1.4246526 2.3421307 -0.546974
1.4402473 2.3446679 -0.548118
1.4184113 2.3517854 -0.54573804
1.4417849 2.3549638 -0.54653132
2.5599518 0.74944854 -0.54197282
2.2267296 0.75056982 -0.54429483
2.0773396 0.76227552 -0.54263961
2.1400187 0.76119703 -0.54332882
2.1604924 0.7618618 -0.54224306
2.0648499 0.773175 -0.54154491
2.0746014 0.77311528 -0.54472566
2.0621235 0.78518265 -0.54235387
2.7857673 0.78781271 -0.54415536
2.0130682 0.79866481 -0.54486573
1.9882945 0.8070628 -0.54110384
1.779956 0.81189102 -0.54030764
1.8413327 0.81422389 -0.54434061
1.9524611 0.81488895 -0.54476392
1.783181 0.81524444 -0.54216635
1.8537499 0.81869364 -0.5441882
1.931953 0.81701732 -0.54256976
1.8676698 0.82233554 -0.54090405
1.7288444 0.8296774 -0.54090679
1.7767057 0.82716393 -0.54282624
1.8215362 0.82747018 -0.54219019
1.8736583 0.8261568 -0.54088622
1.7162645 0.83068895 -0.54139459
1.5985591 0.83914447 -0.5405665
1.6739928 0.83876884 -0.54266942
1.5032878 0.84236115 -0.54025602
1.5331601 0.84327102 -0.54070514
1.5506769 0.84497029 -0.5428654
1.7156706 0.84098446 -0.54251337
1.6119572 0.85039479 -0.54007441
1.5007371 0.85600638 -0.5448845
1.5243251 0.85695082 -0.54433799
1.4642999 0.86009681 -0.5425964
1.5170524 0.864981 -0.54241717
1.5274842 0.86268854 -0.54281139
1.5722574 0.86334515 -0.54165494
1.4116423 0.86881948 -0.54385138
1.5017743 0.86866975 -0.54030168
1.4685707 0.8746649 -0.54123676
1.5266502 0.87319809 -0.54071504
1.4202479 0.87805247 -0.54290658
1.4480959 0.88370419 -0.54490232
1.4872569 0.88152796 -0.54347742
1.4979537 0.88742793 -0.54452777
1.4834714 0.89441812 -0.54040551
1.4338605 0.89571661 -0.54194152
1.4440331 0.89841771 -0.54486316
1.43603 0.90898341 -0.54317939
1.4498737 0.90559137 -0.54198742
1.4423553 0.91447628 -0.54005432
1.4061418 0.91890371 -0.54463029
1.4078208 0.93715578 -0.54474866
1.4086605 0.9470005 -0.54212493
1.4252371 1.2682936 -0.54052299
1.4233879 1.2796319 -0.54091555
1.4242004 1.2801242 -0.54100943
1.4229839 1.2914929 -0.54139745
1.4255925 1.3052977 -0.54299539
1.4281882 1.3184233 -0.54449797
1.4142203 1.320744 -0.54011995
1.4200536 1.3274457 -0.54295498
1.4163456 1.3377442 -0.541789
1.4124404 1.3481865 -0.54058254
1.3920996 1.3601744 -0.54245633
1.4140749 1.3615488 -0.54272133
1.4099721 1.3721346 -0.54147446
1.4159068 1.3747675 -0.5449006
1.3896915 1.3838086 -0.54329675
1.4084107 1.3837103 -0.54258049
1.3884873 1.3956258 -0.54371697
1.3888347 1.5297353 -0.54040015
1.4088498 1.5329491 -0.54147041
1.4078084 1.5448326 -0.54195899
1.386405 1.5535816 -0.54124814
1.4062455 1.5575745 -0.54143476
1.38519 1.5655048 -0.54167211
1.4057257 1.5685997 -0.54293615
1.404478 1.5705204 -0.54087216
1.3839751 1.5774279 -0.54209614
1.3979735 1.5763457 -0.5412966
1.4032321 1.582608 -0.54132229
1.3969369 1.5881761 -0.54178298
1.389595 1.5914724 -0.54449892
1.4019862 1.5946957 -0.54177248
1.3883747 1.6034485 -0.5449248
1.4016712 1.6055167 -0.54331231
1.3994946 1.6188709 -0.54267287
1.3915138 1.6277171 -0.5411073
1.3970029 1.6430461 -0.5435732
1.3957571 1.6551337 -0.54402339
1.3932654 1.679309 -0.54492378
1.3893241 1.7415142 -0.54174614
1.3869412 1.7527194 -0.54490048
1.3856283 1.7777836 -0.54303592
1.3843966 1.7898734 -0.54346579
1.3831646 1.8019632 -0.54389572
1.3819327 1.8140531 -0.54432565
1.3807008 1.8261428 -0.54475558
1.3835881 1.8533601 -0.54432738
1.3823438 1.8655019 -0.54476935
1.3869507 1.9332912 -0.54412889
1.3800685 1.9797149 -0.54189962
1.3742914 1.9853108 -0.54278767
1.3805251 1.9894829 -0.5405643
1.3986028 1.9959424 -0.5420922
1.3785641 2.0027483 -0.54187071
1.3973273 2.0083179 -0.54255307
1.3785684 2.0132666 -0.5413835
1.3747919 2.0257263 -0.54425091
1.3734535 2.0452764 -0.54321688
1.3748882 2.0571027 -0.54490358
1.3695128 2.090266 -0.54454041
1.3788186 2.1440356 -0.54101789
1.3866996 2.1410584 -0.54108375
1.3793975 2.1538184 -0.54136026
1.3941197 2.1575246 -0.54403365
1.3799763 2.1636009 -0.54170251
1.3943443 2.1677256 -0.54437077
1.380555 2.1733835 -0.54204488
1.38288 2.1829233 -0.54186171
1.3828702 2.2125142 -0.54341418
1.4181688 2.2167425 -0.54073381
1.4130168 2.2295148 -0.54257286
1.4144731 2.2378647 -0.54283154
1.4215981 2.2486315 -0.54206312
1.4239728 2.2653294 -0.54383469
1.4249198 2.2745404 -0.54416502
1.4440093 2.3262994 -0.54093641
1.4415785 2.3357821 -0.54013085
1.4372573 2.347621 -0.54388344
2.5387003 0.74689877 -0.5373823
2.4496753 0.75369751 -0.53914636
2.1973453 0.75757211 -0.53800368
2.2188003 0.75562376 -0.537512
2.1949503 0.76133114 -0.53919792
2.447185 0.76138479 -0.53918624
2.1291924 0.76587665 -0.53917462
2.0654798 0.7765801 -0.5381884
2.051754 0.78448147 -0.53760797
2.7433798 0.78450978 -0.53809828
1.9916252 0.79127467 -0.53857565
2.0366883 0.79283023 -0.53670365
2.0517013 0.79002398 -0.53568435
1.9355068 0.79793495 -0.53965849
1.9719324 0.79841894 -0.53992856
1.926754 0.80641568 -0.53815925
1.9887148 0.80797875 -0.53772789
1.8711292 0.81384021 -0.53819662
1.8210284 0.81932622 -0.53910017
1.7686934 0.82517773 -0.53836155
1.808401 0.82767254 -0.53960788
1.8472881 0.82909709 -0.53595263
1.6366336 0.8345601 -0.5396471
1.6777174 0.8303299 -0.5390566
1.6993269 0.83441341 -0.53609538
1.7105616 0.83415538 -0.53591055
1.7519858 0.8349309 -0.5383485
1.6178089 0.83946866 -0.53881365
1.668483 0.83867115 -0.53678167
1.5833023 0.84342623 -0.53608626
1.6468878 0.84419912 -0.53600734
1.6628696 0.84127671 -0.53992134
1.5795654 0.84664416 -0.53989261
1.5567552 0.85293734 -0.53905153
1.4701374 0.86868483 -0.53706378
1.5487983 0.86848027 -0.53501958
1.5046134 0.87131786 -0.53653973
1.4622459 0.88289642 -0.53959113
1.5121486 0.8806107 -0.53671366
1.4725728 0.8850956 -0.53770095
1.4244572 0.89231741 -0.53743225
1.4643794 0.89469886 -0.53663838
1.4243926 0.90741599 -0.53937829
1.4150904 0.91719282 -0.53746521
1.424041 0.91839564 -0.53982323
1.4348422 0.92325455 -0.53811771
1.4159076 0.92737013 -0.53802311
1.4283242 0.93230855 -0.53650904
1.4256282 1.1830971 -0.53500891
1.4225321 1.2184291 -0.53646159
1.418869 1.2299733 -0.53706616
1.4215 1.2302065 -0.53694576
1.4124151 1.2377938 -0.53546184
1.420468 1.2419839 -0.53742999
1.4118364 1.2490945 -0.535842
1.419436 1.2537612 -0.53791422
1.4156525 1.2633659 -0.53683126
1.4129508 1.2746403 -0.53589511
1.4117221 1.2865614 -0.53633904
1.417377 1.3002903 -0.53879875
1.4161428 1.3122644 -0.53924471
1.4149086 1.3242384 -0.53969067
1.4334075 1.3339431 -0.53525627
1.4323155 1.3458889 -0.53573763
1.4312695 1.3578255 -0.53622842
1.4223874 1.3784635 -0.53511888
1.4213459 1.390347 -0.53560746
1.4203047 1.4022305 -0.53609604
1.4192632 1.414114 -0.53658462
1.418222 1.4259975 -0.53707319
1.391649 1.4329181 -0.53505397
1.4171805 1.437881 -0.53756177
1.3904394 1.4447882 -0.53547603
1.3892299 1.4566582 -0.53589815
1.415098 1.461648 -0.53853893
1.3880204 1.4685284 -0.53632027
1.4076389 1.4712672 -0.53528059
1.4140565 1.4735315 -0.53902751
1.398487 1.4897668 -0.535779
1.4131072 1.485661 -0.53861845
1.405158 1.4953365 -0.53617698
1.397455 1.5015442 -0.53626317
1.4107072 1.5100822 -0.53862119
1.4031571 1.5171936 -0.53886461
1.4094614 1.5221698 -0.53907138
1.4082155 1.5342574 -0.53952157
1.4069697 1.5463451 -0.53997177
1.4037614 1.6686419 -0.53700894
1.3809198 1.6757202 -0.53544217
1.4027153 1.6805786 -0.53749973
1.4016694 1.6925151 -0.53799045
1.3862343 1.7026445 -0.53851396
1.4006233 1.7044517 -0.53848124
1.3837997 1.7135332 -0.53554499
1.3995774 1.7163883 -0.53897196
1.3825662 1.725569 -0.53598309
1.3867955 1.740175 -0.53502458
1.3855497 1.7522626 -0.53547478
1.3843038 1.7643502 -0.53592497
1.3863686 1.7913749 -0.53506362
1.3851271 1.8034902 -0.53550464
1.3838854 1.8156053 -0.53594565
1.3780745 1.8247883 -0.53817588
1.3780817 1.8377635 -0.53582978
1.384823 1.8539793 -0.53537512
1.3835857 1.8661222 -0.53580695
1.3823484 1.878265 -0.53623873
1.3811111 1.8904079 -0.53667057
1.3766093 1.9036465 -0.53574556
1.3760161 1.9151205 -0.53526437
1.3751087 1.9258826 -0.53653026
1.3766909 1.938571 -0.53764373
1.3777899 1.9455326 -0.53772813
1.3770945 1.9525547 -0.53840983
1.3834603 1.9538074 -0.53933555
1.3736874 1.9632648 -0.53926134
1.3816104 1.964071 -0.5389986
1.3936216 1.9659073 -0.53892976
1.3766031 1.9741946 -0.53787339
1.3923523 1.9782224 -0.53938842
1.3772377 1.9833584 -0.53692293
1.378703 1.991761 -0.53718328
1.3764722 2.0023923 -0.53638285
1.3810371 2.0096405 -0.53851479
1.3780684 2.0291142 -0.53636348
1.3795246 2.0374641 -0.53662217
1.3891962 2.0374856 -0.53540832
1.3809808 2.0458143 -0.53688091
1.382437 2.0541642 -0.53713965
1.3838931 2.0625143 -0.53739834
1.3692051 2.0665407 -0.53695273
1.3697816 2.0762854 -0.53729367
1.3730581 2.0832577 -0.53614831
1.3862188 2.0871592 -0.53766739
1.3860872 2.0943167 -0.5364629
1.3709347 2.0957747 -0.53797567
1.3715112 2.1055193 -0.53831673
1.3836561 2.1080019 -0.53654814
1.3968132 2.1061461 -0.53544748
1.3720877 2.1152637 -0.53865767
1.3829079 2.1154952 -0.53710127
1.3820655 2.1248217 -0.53736538
1.3676676 2.1255465 -0.53766406
1.3732408 2.134753 -0.53933966
1.385162 2.1342061 -0.53651267
1.389439 2.1411619 -0.53757554
1.3796833 2.1480558 -0.53858596
1.3918085 2.1466124 -0.53587031
1.3793082 2.1566715 -0.53527176
1.3923304 2.157742 -0.53808928
1.3937761 2.1660318 -0.53834617
1.3789963 2.170294 -0.53937817
1.3948258 2.171725 -0.53552783
1.3906137 2.1928117 -0.5352813
1.4044112 2.1936285 -0.53604913
1.4156952 2.2126598 -0.53906542
1.4079883 2.2226629 -0.53524137
1.426007 2.273747 -0.53518772
1.4268684 2.2868454 -0.53537363
1.4245348 2.2966006 -0.53616846
1.4289042 2.30409 -0.53722501
1.4318049 2.303921 -0.53765935
1.4341102 2.3151994 -0.5380913
1.4545995 2.3236833 -0.53520495
1.4368943 2.3261099 -0.53785837
1.440115 2.3449552 -0.53959054
2.1068509 0.75895357 -0.53450948
2.2389061 0.75756842 -0.53169978
2.241127 0.75644714 -0.53083855
2.5011427 0.75699764 -0.53066266
2.5215085 0.75755537 -0.53483647
2.1699765 0.76483929 -0.53218198
2.4152584 0.76166737 -0.53253633
2.0475271 0.76836747 -0.53049254
2.1026864 0.7670421 -0.53244245
2.153506 0.76599115 -0.53023708
2.1028337 0.7725932 -0.53335702
2.0871024 0.77778763 -0.53200036
1.9802501 0.7873522 -0.53348309
2.0240793 0.78657538 -0.53487104
2.0274138 0.79080874 -0.53206092
2.7965624 0.79484427 -0.53158891
1.968295 0.79719406 -0.5330776
2.0242252 0.80443347 -0.5343129
1.9344716 0.81127554 -0.53230828
1.9539195 0.81045556 -0.53287643
1.8508251 0.81931585 -0.53312653
1.9049062 0.81676954 -0.53306919
1.9640268 0.81808329 -0.53242707
1.8995934 0.82020354 -0.53458208
1.9424793 0.82152069 -0.53061843
1.746606 0.82555711 -0.53251308
1.7790761 0.83014786 -0.53191018
1.7810229 0.8315239 -0.53201061
1.7337992 0.83855712 -0.53348941
1.5410146 0.84347904 -0.5303086
1.6792052 0.84445512 -0.5327971
1.6815786 0.84266239 -0.53221905
1.557291 0.84866381 -0.53322041
1.6051965 0.84630036 -0.53479201
1.6323707 0.84653038 -0.53102183
1.5760878 0.85179502 -0.53430009
1.5085912 0.85626447 -0.53478718
1.5274048 0.85912192 -0.53379899
1.5485024 0.85834938 -0.53445852
1.5874763 0.8558712 -0.53333753
1.4641669 0.8605113 -0.53055853
1.5077713 0.86046565 -0.5302791
1.5351557 0.86419678 -0.53271633
1.4815236 0.87027496 -0.53392178
1.5256077 0.87111539 -0.53133744
1.4272789 0.87739211 -0.53316087
1.4985898 0.87820709 -0.53456229
1.4478142 0.88413513 -0.53335583
1.4868755 0.88203186 -0.53173089
1.497658 0.88781053 -0.53270531
1.4431896 0.89713287 -0.53346348
1.4091185 0.90391678 -0.53375405
1.4360316 0.90636694 -0.53181881
1.4555298 0.90811944 -0.53246284
1.4075313 0.93755984 -0.53341091
1.4083812 0.94736189 -0.53095704
1.4197898 1.1689893 -0.53241748
1.414964 1.1855763 -0.53217506
1.4177351 1.1924378 -0.53338152
1.4150517 1.2029462 -0.53254741
1.4076952 1.2117579 -0.53271836
1.4438214 1.2145863 -0.53033924
1.4040327 1.2239764 -0.53011143
1.4427755 1.2265229 -0.53083003
