# .PCD v0.7 - Point Cloud Data file format
VERSION 0.7
FIELDS x y z
SIZE 4 4 4
TYPE F F F
COUNT 1 1 1
WIDTH 1272
HEIGHT 1
VIEWPOINT 0 0 0 1 0 0 0
POINTS 1272
DATA ascii
1.2359253 1.8221645 -0.72675055
1.2492024 1.394417 -0.72146821
1.2488953 1.4043565 -0.72182226
1.2411822 1.8123465 -0.71858501
1.2358521 1.8225166 -0.71680659
1.2405657 1.8323015 -0.71929592
1.2491291 1.394769 -0.71152425
1.248822 1.4047085 -0.7118783
1.254573 1.371941 -0.70514452
1.2528088 1.4027301 -0.70622277
1.2411087 1.8126998 -0.70860291
1.2408004 1.8226774 -0.70895833
1.2404921 1.8326548 -0.70931381
1.2553612 1.3533822 -0.70223403
1.255053 1.3633597 -0.70258945
1.2544365 1.3833146 -0.70330036
1.2490559 1.395121 -0.70158029
1.2463671 1.8028097 -0.70032024
1.2570431 1.3713455 -0.6958788
1.2552772 1.4021919 -0.69695902
1.2552876 1.3537356 -0.69225192
1.2543629 1.3836679 -0.69331825
1.2540548 1.3936455 -0.69367373
1.2435094 1.8131166 -0.69463891
1.2432005 1.8231131 -0.69499505
1.2453649 1.8332109 -0.69137061
1.2613368 1.3459454 -0.68589222
1.2612016 1.3603897 -0.68824244
1.256874 1.3827996 -0.68615425
1.2588201 1.3921723 -0.68751407
1.2582295 1.4024773 -0.68787491
1.2584343 1.4122038 -0.68640459
1.2602907 1.3521105 -0.68426371
1.2599814 1.362126 -0.68462056
1.2596719 1.3721416 -0.68497735
1.2459099 1.8135346 -0.68063688
1.2456005 1.8235501 -0.68099374
1.2452911 1.8335657 -0.68135053
1.25 1.8434701 -0.6836915
1.2496893 1.8535237 -0.68404967
1.2493788 1.8635774 -0.68440783
1.2655814 1.314324 -0.67545986
1.2656037 1.3404346 -0.67584139
1.2636527 1.3503225 -0.67672354
1.2611406 1.3607508 -0.67761242
1.259343 1.3822255 -0.67682815
1.2531954 1.3935364 -0.67501396
1.258162 1.4028351 -0.67754984
1.2540087 1.8739914 -0.67665797
1.2536969 1.884083 -0.67701751
1.2533852 1.8941747 -0.67737705
1.2527616 1.9143579 -0.67809612
1.2677778 1.2700593 -0.67333418
1.2674673 1.280113 -0.67369235
1.2671566 1.2901666 -0.67405051
1.2668461 1.3002203 -0.67440867
1.2599075 1.3624806 -0.67460048
1.259598 1.3724964 -0.67495728
1.2529401 1.8051084 -0.67188692
1.245836 1.8138893 -0.67061675
1.2552429 1.815582 -0.6718874
1.2455266 1.8239049 -0.6709736
1.2557741 1.8245589 -0.67220151
1.2502364 1.8337725 -0.67327517
1.2499259 1.8438262 -0.67363334
1.2496152 1.8538798 -0.6739915
1.2493047 1.8639333 -0.67434967
1.2679551 1.3247769 -0.66664428
1.2673621 1.3351235 -0.66700661
1.2655295 1.3407905 -0.66578317
1.265219 1.3508441 -0.66614133
1.2610795 1.3611119 -0.66698265
1.266258 1.371429 -0.66968763
1.2592754 1.3825834 -0.66650319
1.2556639 1.3929811 -0.66569245
1.2580945 1.403193 -0.66722494
1.2539343 1.8743488 -0.66656178
1.2536225 1.8844404 -0.66692132
1.2533108 1.8945321 -0.66728085
1.2529991 1.9046236 -0.66764039
1.2678781 1.2733872 -0.66366971
1.2673931 1.2804689 -0.66363412
1.2670825 1.2905226 -0.66399229
1.2667719 1.3005762 -0.66435045
1.2664614 1.3106298 -0.66470861
1.2558937 1.3508859 -0.66428077
1.2598337 1.3628354 -0.6645804
1.2595242 1.372851 -0.6649372
1.2663726 1.415102 -0.66372162
1.2548172 1.8046749 -0.66315079
1.2457622 1.814244 -0.66059661
1.2551323 1.8159032 -0.66289568
1.2550397 1.8237357 -0.66382414
1.2501622 1.8341286 -0.66321695
1.2498517 1.8441823 -0.66357511
1.249541 1.8542358 -0.66393328
1.2492305 1.8642894 -0.66429144
1.2569964 1.9354914 -0.66050488
1.2714489 1.3079536 -0.65681326
1.2705736 1.3185934 -0.65717971
1.2678874 1.3251362 -0.65627742
1.2672944 1.3354828 -0.6566397
1.2654554 1.3411467 -0.65572494
1.2609797 1.3520267 -0.65509558
1.2670722 1.3611521 -0.65864563
1.2601469 1.3720671 -0.65671754
1.259208 1.3829412 -0.65617812
1.2586175 1.3932459 -0.65653896
1.2580271 1.4035509 -0.65689987
1.2589625 1.8147113 -0.65545219
1.2541717 1.8646145 -0.65610594
1.2538599 1.8747061 -0.65646547
1.2535481 1.8847978 -0.65682501
1.2532364 1.8948895 -0.65718454
1.2529247 1.904981 -0.65754408
1.2576222 1.9152321 -0.65978312
1.2666283 1.2943935 -0.65404868
1.2666978 1.3009323 -0.65429229
1.2663872 1.3109858 -0.65465045
1.2597598 1.3631901 -0.65456021
1.2594503 1.3732057 -0.65491706
1.2654719 1.413079 -0.65495682
1.2679639 1.4202248 -0.65038323
1.2510201 1.8043239 -0.65208435
1.2456884 1.8145987 -0.65057653
1.2549472 1.8240747 -0.654284
1.2500882 1.8344847 -0.65315884
1.2497777 1.8445382 -0.65351701
1.249467 1.8545918 -0.65387517
1.2705121 1.318956 -0.64650416
1.2678196 1.3254956 -0.6459105
1.2656919 1.331449 -0.64530855
1.2738121 1.3398932 -0.6491071
1.2653812 1.3415027 -0.64566672
1.2650707 1.3515563 -0.64602488
1.2729335 1.3505709 -0.64947486
1.2670107 1.3615147 -0.64796996
1.2622676 1.3720458 -0.64641452
1.2592142 1.3830224 -0.64645267
1.2641389 1.381717 -0.64709944
1.2585502 1.393604 -0.64621401
1.2584482 1.4036069 -0.64596736
1.2635093 1.4040734 -0.64943588
1.2622572 1.8044839 -0.64763141
1.2588515 1.8150337 -0.64643002
1.2593844 1.8240409 -0.6467452
1.2549658 1.8339444 -0.64508051
1.2540972 1.8649719 -0.64600974
1.2631513 1.8657397 -0.64570665
1.2537854 1.8750635 -0.64636928
1.2534736 1.8851552 -0.64672875
1.2531619 1.8952469 -0.64708829
1.2528502 1.9053384 -0.64744782
1.2575475 1.9155908 -0.64964873
1.2743583 1.2569382 -0.64446813
1.2675554 1.2711275 -0.64315957
1.2671518 1.2844281 -0.64334315
1.2665607 1.294752 -0.64370465
1.2666236 1.3012884 -0.64423406
1.2663131 1.3113419 -0.64459223
1.259686 1.3635447 -0.64454007
1.2654042 1.413439 -0.64457095
1.2729564 1.4188769 -0.64210004
1.2727532 1.4256334 -0.64354658
1.2509459 1.8046799 -0.64202607
1.2456145 1.8149534 -0.6405564
1.2644501 1.8187882 -0.64402831
1.2453051 1.8249689 -0.64091319
1.2497035 1.8448943 -0.64345872
1.2493929 1.8549479 -0.64381689
1.2631686 1.8550482 -0.64408362
1.256847 1.9362088 -0.6402362
1.2785894 1.2365423 -0.6356042
1.2782764 1.2466722 -0.63596511
1.276233 1.2673607 -0.63535661
1.2722015 1.2980393 -0.6350956
1.2713263 1.308679 -0.63546205
1.2704508 1.3193187 -0.6358285
1.2746291 1.3295796 -0.63802564
1.2656178 1.3318051 -0.63525045
1.2653072 1.3418586 -0.63560861
1.2737505 1.3402572 -0.63839352
1.2664108 1.3515749 -0.63644737
1.2627912 1.3620806 -0.63570899
1.2622001 1.3724045 -0.63607049
1.2591531 1.3833835 -0.63582277
1.2640649 1.382073 -0.63704133
1.2582815 1.3939776 -0.63618767
1.2637542 1.3921266 -0.63739949
1.2578923 1.4042667 -0.6362499
1.2675076 1.7534275 -0.63552207
1.2621458 1.8048073 -0.63857889
1.2587404 1.8153559 -0.6374079
1.2547619 1.8247532 -0.63520366
1.2655898 1.8319582 -0.63519877
1.2546463 1.8451459 -0.63519442
1.2543346 1.8552376 -0.63555396
1.2540228 1.8653293 -0.63591343
1.253711 1.8754209 -0.63627297
1.2533993 1.8855126 -0.6366325
1.2530875 1.8956041 -0.63699204
1.2527758 1.9056958 -0.63735157
1.2524639 1.9157875 -0.63771105
1.2521522 1.9258791 -0.63807058
1.2728777 1.2591158 -0.6345346
1.2739522 1.27676 -0.63436258
1.2671708 1.2815371 -0.63345963
1.273077 1.2873996 -0.63472915
1.2668601 1.2915907 -0.63381779
1.2665496 1.3016443 -0.63417596
1.266239 1.311698 -0.63453412
1.2659284 1.3217516 -0.63489228
1.2653364 1.413799 -0.63418508
1.267815 1.4209396 -0.63019073
1.2726915 1.4259989 -0.63278723
1.2705081 1.7270327 -0.63169968
1.2710485 1.7361692 -0.6320194
1.2674751 1.7646257 -0.63352418
1.2643627 1.776386 -0.63003004
1.2648993 1.7854542 -0.63034737
1.2562052 1.7946877 -0.6333968
1.2635233 1.795146 -0.63446367
1.2508718 1.8050359 -0.6319679
1.2455407 1.8153081 -0.63053626
1.2631038 1.8232061 -0.63015878
1.2499399 1.8351967 -0.6330424
1.2663982 1.8434579 -0.6347937
1.2668468 1.8864701 -0.63237262
1.2614642 1.9469749 -0.63223207
1.2785146 1.236901 -0.62546986
1.2782017 1.2470307 -0.62583077
1.2778888 1.2571604 -0.62619162
1.2718482 1.2991209 -0.62514824
1.2712444 1.3099315 -0.62623596
1.2703896 1.3196813 -0.62515306
1.2745676 1.3299435 -0.62731194
1.2655437 1.3321612 -0.62519217
1.265233 1.3422148 -0.62555033
1.273689 1.3406211 -0.62767982
1.2633147 1.3521153 -0.62500334
1.2627234 1.3624392 -0.6253649
1.265157 1.3726275 -0.62680519
1.264564 1.3829741 -0.62716746
1.2639711 1.3933208 -0.62752974
1.2573488 1.4049329 -0.62592268
1.2633696 1.4025363 -0.62769938
1.2630589 1.4125898 -0.62805754
1.2618355 1.6655722 -0.62766188
1.2623738 1.6746707 -0.62798023
1.2639475 1.8045228 -0.62571263
1.2644831 1.8135757 -0.62602943
1.2713507 1.8141289 -0.626266
1.2685703 1.8412703 -0.62587744
1.2545719 1.8455033 -0.62509817
1.2542602 1.855595 -0.6254577
1.2539485 1.8656867 -0.62581718
1.2536366 1.8757783 -0.62617671
1.2533249 1.88587 -0.62653625
1.258024 1.8960488 -0.62865835
1.2577111 1.9061785 -0.6290192
1.2523896 1.9161448 -0.6276148
1.2520778 1.9262365 -0.62797433
1.2517661 1.9363282 -0.62833387
1.2807169 1.2552003 -0.6247375
1.2761649 1.2677214 -0.6249516
1.2730353 1.2783896 -0.62442231
1.2730155 1.2877623 -0.6240536
1.266786 1.2919469 -0.62375951
1.2651932 1.3095857 -0.62263858
1.2658542 1.3221076 -0.624834
1.2677406 1.421297 -0.62009442
1.2750945 1.427212 -0.62297928
1.2759628 1.5664637 -0.62183082
1.2739756 1.5835962 -0.62195474
1.2683526 1.6247408 -0.62043625
1.2523506 1.7551241 -0.62011886
1.263178 1.7585742 -0.62031233
1.2570661 1.7647703 -0.62222195
1.2662625 1.7663238 -0.62044787
1.2567543 1.7748618 -0.62258148
1.266082 1.7763104 -0.6207943
1.2514187 1.7852849 -0.62119335
1.2647876 1.7857786 -0.62126434
1.2729218 1.7882799 -0.62309718
1.2653241 1.7948468 -0.62158167
1.2511082 1.7953384 -0.62155151
1.2720208 1.7992307 -0.62347436
1.2507976 1.805392 -0.62190968
1.250487 1.8154457 -0.62226784
1.2669336 1.822051 -0.62253368
1.2702191 1.8211324 -0.62422872
1.2501764 1.8254992 -0.62262601
1.2683941 1.8316013 -0.62372839
1.2548838 1.8354117 -0.62473863
1.2648638 1.8551614 -0.62221307
1.2656659 1.868718 -0.62268746
1.2701527 1.8764598 -0.62443757
1.2667353 1.8867935 -0.62331998
1.2629598 1.8964962 -0.62024856
1.269151 1.9004312 -0.62227815
1.2688742 1.9229444 -0.62458503
1.2673949 1.9476695 -0.62413716
1.2670794 1.9578829 -0.62450105
1.27844 1.2372599 -0.61533558
1.2851455 1.2612884 -0.61623979
1.2840316 1.2722192 -0.61662847
1.2750626 1.2838055 -0.61509418
1.2829179 1.28315 -0.61701715
1.27117 1.3102889 -0.61613971
1.2654696 1.3325171 -0.61513406
1.2745059 1.3303075 -0.61659837
1.2685776 1.3413234 -0.61521035
1.2702347 1.3405638 -0.61721826
1.2662752 1.3522937 -0.6157136
1.2645377 1.3626781 -0.61620855
1.2718704 1.3623403 -0.61770171
1.2642272 1.3727316 -0.61656672
1.270992 1.3730179 -0.61806947
1.2639166 1.3827851 -0.61692488
1.2701135 1.3836956 -0.61843729
1.2639034 1.3936802 -0.61716288
1.265826 1.4039716 -0.61840701
1.2652314 1.4143372 -0.61877
1.2626779 1.5831206 -0.61575055
1.2667255 1.59724 -0.61947393
1.2575961 1.6128402 -0.61587131
1.2590318 1.6204052 -0.61695647
1.2664734 1.622547 -0.6189146
1.2630544 1.6347865 -0.61844957
1.2627414 1.6448914 -0.61594486
1.2625204 1.6548928 -0.61629492
1.2564794 1.6662674 -0.61701727
1.2548352 1.6746954 -0.61725354
1.2631816 1.6753709 -0.6159997
1.2545247 1.6847489 -0.61761171
1.2592485 1.6941288 -0.61970532
1.2628301 1.6952837 -0.61669058
1.2539035 1.7048562 -0.61832803
1.2650018 1.7047477 -0.6156165
1.2535928 1.7149097 -0.6186862
1.2532823 1.7249633 -0.61904436
1.2637515 1.7212474 -0.61786807
1.2529718 1.7350168 -0.61940253
1.2754936 1.7359798 -0.61685157
1.2706048 1.7431946 -0.61951476
1.2526611 1.7450705 -0.61976069
1.2623173 1.7451342 -0.61529487
1.266387 1.7564993 -0.61555982
1.2726033 1.8072095 -0.61696571
1.273684 1.8214114 -0.61635292
1.2544975 1.8458607 -0.61500192
1.2541858 1.8559524 -0.61536145
1.2538741 1.866044 -0.61572093
1.2585752 1.8761482 -0.61780226
1.2649488 1.8867226 -0.61707687
1.2576364 1.9065373 -0.61888492
1.2721869 1.9130569 -0.61662382
1.2573235 1.916667 -0.61924577
1.2570106 1.9267967 -0.61960667
1.2566977 1.9369264 -0.61996758
1.2714546 1.9589908 -0.61638755
1.2876832 1.1701434 -0.61108172
1.2868047 1.1808209 -0.61144948
1.2859261 1.1914985 -0.61181724
1.2850478 1.2021761 -0.612185
1.2838836 1.2149907 -0.61254376
1.2852064 1.2255772 -0.61489338
1.2848927 1.2368178 -0.61437535
1.2815337 1.2448866 -0.61365616
1.2730405 1.2497389 -0.61398256
1.2834573 1.2529609 -0.61493748
1.2727288 1.2598306 -0.61434209
1.2760969 1.268082 -0.61454666
1.2788982 1.2769194 -0.61475945
1.2719362 1.2944351 -0.61458254
1.2713426 1.3048007 -0.61494553
1.2657801 1.3224636 -0.6147759
1.2703283 1.320044 -0.6144774
1.2831792 1.3391215 -0.61009586
1.2835151 1.395169 -0.6141777
1.2823921 1.4061908 -0.61456966
1.2673544 1.4317459 -0.6103577
1.2774409 1.4380229 -0.61391681
1.2688776 1.5677691 -0.61069775
1.2694217 1.5769664 -0.61101961
1.2472278 1.5963753 -0.61094439
1.2519646 1.6053364 -0.6130231
1.2709382 1.6658944 -0.6148228
1.2628999 1.6850249 -0.614254
1.2623991 1.7124748 -0.61487633
1.2615126 1.7315321 -0.61481881
1.2522764 1.7554802 -0.61006069
1.2569917 1.7651277 -0.61212569
1.2636027 1.7679667 -0.61154664
1.2516552 1.7755873 -0.61077702
1.2641392 1.777035 -0.61186397
1.2686092 1.7845043 -0.61357397
1.2563682 1.7853109 -0.61284477
1.2738779 1.7866747 -0.61413729
1.2691475 1.7936027 -0.61389232
1.251034 1.7956945 -0.61149335
1.272854 1.7977784 -0.61452603
1.2657487 1.8042393 -0.61281592
1.2507235 1.8057481 -0.61185151
1.2662853 1.8133074 -0.61313325
1.2710569 1.8105547 -0.61286378
1.2504128 1.8158016 -0.61220968
1.2668217 1.8223755 -0.61345059
1.2551211 1.8256775 -0.61428285
1.2673583 1.8314437 -0.61376786
1.2548094 1.8357691 -0.61464238
1.2678949 1.8405118 -0.6140852
1.264485 1.850966 -0.61300242
1.2652872 1.8645226 -0.61347681
1.2628849 1.8968562 -0.61007613
1.2625707 1.907024 -0.61043835
1.2622566 1.9171917 -0.61080056
1.2619425 1.9273595 -0.61116278
1.2676351 1.9378178 -0.61355525
1.2780523 1.2477484 -0.60556215
1.2850242 1.2616668 -0.60525268
1.2839103 1.2725976 -0.60564137
1.2827965 1.2835283 -0.60603005
1.2743995 1.2945508 -0.60505289
1.2738043 1.3049355 -0.60541654
1.2865344 1.3061926 -0.60892493
1.2732093 1.31532 -0.60578024
1.285416 1.317169 -0.60931522
1.2842976 1.3281451 -0.60970557
1.2653954 1.3328732 -0.60507584
1.2744443 1.3306714 -0.60588479
1.2662075 1.352653 -0.60534668
1.2644635 1.363034 -0.60615033
1.2718089 1.3627043 -0.60698807
1.264153 1.3730876 -0.60650849
1.2638425 1.3831412 -0.60686666
1.270052 1.3840595 -0.60772365
1.2663527 1.393966 -0.60765815
1.2657582 1.4043316 -0.60802114
1.2651635 1.4146972 -0.60838407
1.2671022 1.4242122 -0.60959649
1.2656579 1.5884941 -0.60903609
1.2635373 1.5995654 -0.60869622
1.2805872 1.6002854 -0.60527974
1.2632555 1.6089115 -0.60924017
1.2634737 1.6101245 -0.60884297
1.2550957 1.6232264 -0.60577977
1.2634622 1.6240389 -0.60954672
1.2617018 1.6316619 -0.60958475
1.2771764 1.6337597 -0.60647011
1.2579999 1.6368823 -0.60712123
1.2556928 1.6448905 -0.60612082
1.2605345 1.6480262 -0.60879815
1.2500342 1.6657844 -0.60514385
1.2547611 1.6750513 -0.60719538
1.2544506 1.685105 -0.60755354
1.2567253 1.6952902 -0.60845983
1.2538294 1.7052121 -0.60826987
1.2484872 1.715862 -0.60692793
1.2627124 1.7220467 -0.60554457
1.2532082 1.7253194 -0.6089862
1.2714391 1.732661 -0.60819703
1.2528976 1.7353729 -0.60934436
1.274951 1.7418131 -0.60591114
1.252587 1.7454265 -0.60970253
1.2682635 1.7560029 -0.6062268
1.268084 1.7660048 -0.60657382
1.2659388 1.7768209 -0.60624021
1.2695738 1.8030269 -0.60509723
1.2765368 1.8225956 -0.60617554
1.273562 1.8316665 -0.60727942
1.2680513 1.8453703 -0.60516083
1.2541114 1.8563098 -0.6052652
1.2759795 1.8579152 -0.60719407
1.2588135 1.8663772 -0.60730702
1.2733419 1.8667166 -0.60732591
1.2635131 1.8765208 -0.60935163
1.2738802 1.8758152 -0.60764432
1.2744186 1.8849137 -0.60796273
1.263199 1.8866885 -0.60971385
1.2710021 1.8952451 -0.60690618
1.2715386 1.9043132 -0.60722345
1.2720751 1.9133813 -0.60754079
1.2726116 1.9224495 -0.60785812
1.2745574 1.9469607 -0.6059342
1.2867432 1.1811849 -0.6007359
1.2858646 1.1918625 -0.60110366
1.2849863 1.2025402 -0.60147142
1.290593 1.2070127 -0.60330915
1.2867935 1.2155806 -0.60276854
1.2851205 1.2259448 -0.60426903
1.2829016 1.2349026 -0.60472524
1.2814722 1.2452506 -0.60294253
1.2805939 1.2559282 -0.60331035
1.2761848 1.2633969 -0.60396194
1.2755897 1.2737815 -0.60432565
1.2724619 1.2844296 -0.60383362
1.2657059 1.3228197 -0.60471767
1.2668004 1.3423064 -0.6049844
1.287885 1.3514637 -0.60153151
1.2867619 1.3624854 -0.60192347
1.2753162 1.372906 -0.60379487
1.2845157 1.3845289 -0.60270733
1.2833927 1.3955505 -0.60309923
1.2822697 1.4065722 -0.60349119
1.2707417 1.4485418 -0.60124791
1.2698593 1.4592649 -0.60161728
1.2689772 1.469988 -0.60198665
1.260973 1.4739796 -0.60003203
1.2613732 1.4822776 -0.60035509
1.266311 1.4920437 -0.60257196
1.260184 1.5030088 -0.60108101
1.2838019 1.509397 -0.60005039
1.2597306 1.5141939 -0.60146469
1.2654481 1.5128806 -0.60346401
1.25942 1.5242475 -0.60182285
1.2645659 1.5236038 -0.60383332
1.2826695 1.5205096 -0.60044557
1.2591094 1.534301 -0.60218102
1.2636838 1.5343269 -0.60420269
1.2815373 1.5316223 -0.60084075
1.2587988 1.5443547 -0.60253918
1.2804049 1.5427349 -0.60123593
1.2628014 1.54505 -0.60457206
1.2572114 1.5548368 -0.60289586
1.2792726 1.5538474 -0.60163105
1.2581776 1.5644618 -0.60325551
1.2781403 1.5649601 -0.60202622
1.2649007 1.5672972 -0.60339797
1.257867 1.5745155 -0.60361367
1.2627847 1.5783908 -0.60307419
1.2828611 1.5779693 -0.60448623
1.2525096 1.5856601 -0.60228938
1.2817241 1.5891274 -0.60488302
1.2522001 1.5956756 -0.60264617
1.2518908 1.6056912 -0.60300297
1.2515813 1.6157067 -0.60335976
1.2503437 1.6557689 -0.60478705
1.2626175 1.6563536 -0.60355216
1.2626797 1.6660241 -0.60388857
1.2780279 1.6749532 -0.6036123
1.2627419 1.6756945 -0.60422498
1.2628627 1.685837 -0.60180628
1.2656548 1.6963441 -0.60316253
1.2654771 1.7063234 -0.60350877
1.2641907 1.7120416 -0.60191333
1.2655364 1.7347879 -0.60270929
1.266344 1.7484357 -0.60318691
1.2782131 1.7513164 -0.6036498
1.2522024 1.7558361 -0.60000247
1.2758319 1.7648489 -0.60220867
1.2518917 1.7658898 -0.60036063
1.2515812 1.7759433 -0.60071886
1.2748079 1.7759526 -0.60259742
1.2684971 1.7848299 -0.60446048
1.2512705 1.7859969 -0.60107702
1.2727957 1.7890264 -0.60112166
1.2690355 1.7939284 -0.60477883
1.25096 1.7960505 -0.60143518
1.2756424 1.7995408 -0.6043998
1.2556703 1.8058516 -0.60346758
1.2661735 1.8136319 -0.60405022
1.274616 1.8106673 -0.60478938
1.2553585 1.8159432 -0.60382706
1.2667099 1.8227 -0.60436755
1.2550467 1.8260348 -0.60418659
1.254735 1.8361264 -0.60454613
1.2544231 1.8462181 -0.60490566
1.2697685 1.8666856 -0.60079014
1.268822 1.8973259 -0.60188174
1.2685064 1.9075392 -0.60224563
1.2681909 1.9177527 -0.60260946
1.2678753 1.9279661 -0.60297334
1.2675598 1.9381795 -0.60333717
1.2753422 1.935674 -0.60446751
1.292347 1.1556045 -0.5952732
1.2782906 1.2379773 -0.59506691
1.2779777 1.248107 -0.59542781
1.2920046 1.2516912 -0.59594047
1.2897677 1.2736437 -0.59672105
1.2886493 1.28462 -0.5971114
1.2737364 1.3052962 -0.59501159
1.2864125 1.3065726 -0.59789205
1.2710212 1.3110037 -0.59594721
1.2852941 1.3175489 -0.59828234
1.2729855 1.3207265 -0.59555507
1.2723902 1.3311112 -0.59591866
1.2830572 1.3395014 -0.59906298
1.2650106 1.3432829 -0.59537584
1.2735045 1.341713 -0.59553891
1.2647001 1.3533365 -0.595734
1.2726259 1.3523906 -0.59590667
1.2643894 1.36339 -0.59609216
1.2717474 1.3630682 -0.5962745
1.2640789 1.3734436 -0.59645033
1.270869 1.3737458 -0.59664226
1.2668793 1.3839604 -0.59690928
1.2663026 1.3934919 -0.59725749
1.2656903 1.4046916 -0.59763515
1.2650957 1.4150572 -0.59799814
1.2645013 1.4254227 -0.59836113
1.2858146 1.430303 -0.59524041
1.2639067 1.4357884 -0.59872413
1.2619047 1.4438188 -0.59895748
1.284687 1.4413701 -0.59563398
1.2615942 1.4538723 -0.59931564
1.2835593 1.4524373 -0.59602749
1.2612835 1.463926 -0.59967387
1.2824316 1.4635044 -0.59642106
1.2813039 1.4745716 -0.59681463
1.2860665 1.4871718 -0.59926009
1.2849342 1.4982845 -0.59965521
1.2674614 1.587888 -0.5951063
1.2642486 1.5963041 -0.59634799
1.2628163 1.6048336 -0.59535295
1.2548883 1.6140096 -0.59587538
1.2550027 1.6235666 -0.59621298
1.2583865 1.6348671 -0.59803951
1.2631459 1.6345019 -0.59533799
1.2642303 1.644812 -0.59567022
1.2556188 1.6452466 -0.59606266
1.282711 1.6478367 -0.59801835
1.2549977 1.6653538 -0.59677899
1.2546871 1.6754074 -0.59713715
1.2543765 1.685461 -0.59749532
1.2540659 1.6955146 -0.59785348
1.2740679 1.7003169 -0.59612811
1.2537553 1.7055682 -0.59821165
1.2731707 1.7112222 -0.59650373
1.2722735 1.7221274 -0.59687936
1.255301 1.7356482 -0.59507036
1.2709873 1.7352548 -0.59633404
1.2549896 1.7457209 -0.59542918
1.2708089 1.7452757 -0.59668171
1.2735889 1.7559619 -0.59802127
1.2678467 1.7760568 -0.59502858
1.2733009 1.7831595 -0.59701169
1.2738414 1.7922961 -0.5973314
1.2599906 1.8262172 -0.59572917
1.2596776 1.8363469 -0.59609008
1.2713456 1.8351972 -0.59709811
1.2593647 1.8464766 -0.59645092
1.2721531 1.848845 -0.59757566
1.2640663 1.8565453 -0.59845477
1.2732297 1.8670421 -0.59821248
1.266408 1.8770707 -0.59505761
1.2737681 1.8761406 -0.59853083
1.263124 1.8870486 -0.59954149
1.2741898 1.886384 -0.59587896
1.2743006 1.8960589 -0.59622073
1.2744114 1.9057339 -0.59656256
1.2745223 1.9154088 -0.5969044
1.2771767 1.9493204 -0.59671712
1.2768589 1.95961 -0.59708369
1.295444 1.1482936 -0.59090626
1.2936795 1.16974 -0.59164488
1.2927483 1.1829963 -0.59177947
1.2858031 1.1922264 -0.59038997
1.2915856 1.1964601 -0.59193337
1.2849247 1.2029041 -0.59075779
1.2927552 1.2156975 -0.59394586
1.2864826 1.2233882 -0.59489822
1.2822893 1.234937 -0.59186113
1.2814107 1.2456145 -0.59222889
1.2805324 1.2562921 -0.59259665
1.2761168 1.2637575 -0.593557
1.2849028 1.262045 -0.59426552
1.2755218 1.2741423 -0.59392071
1.2749267 1.2845268 -0.5942843
1.2743316 1.2949114 -0.594648
1.2888857 1.3408234 -0.59006113
1.2866396 1.3628669 -0.59084499
1.2855165 1.3738886 -0.59123695
1.2843934 1.3849103 -0.59162885
1.2832704 1.395932 -0.59202081
1.2880701 1.4081686 -0.59445333
1.2869424 1.4192357 -0.5948469
1.2605883 1.4843892 -0.59033197
1.2602777 1.4944427 -0.59069014
1.2599671 1.5044963 -0.5910483
1.2602656 1.5022411 -0.59034193
1.259522 1.5137343 -0.59105808
1.2589273 1.5240999 -0.59142101
1.2583327 1.5344656 -0.591784
1.2577384 1.5448313 -0.59214699
1.2802815 1.5431195 -0.59006608
1.2791492 1.5542321 -0.59046125
1.2571437 1.5551968 -0.59250998
1.2565491 1.5655624 -0.59287298
1.2686509 1.5684272 -0.59227276
1.2780169 1.5653447 -0.59085643
1.2559546 1.575928 -0.59323597
1.269195 1.5776246 -0.59259462
1.2827371 1.5783556 -0.59327066
1.2574824 1.5849251 -0.59391367
1.2816001 1.5895135 -0.59366745
1.2571719 1.5949787 -0.59427184
1.2518169 1.6060458 -0.59298289
1.2634913 1.6145966 -0.59464735
1.2633185 1.6245494 -0.59499264
1.2502698 1.6561235 -0.59476691
1.2657446 1.655051 -0.59161091
1.2655702 1.6650264 -0.59195703
1.2653954 1.6750019 -0.59230316
1.2835419 1.6785259 -0.59440809
1.2712678 1.6807265 -0.5948149
1.263087 1.6872969 -0.59180367
1.2678952 1.6917942 -0.59381449
1.2635401 1.7032685 -0.59248149
1.2640785 1.7123671 -0.59279984
1.2559233 1.715503 -0.59435272
1.2646168 1.7214656 -0.59311825
1.2556121 1.7255756 -0.59471154
1.2651551 1.7305641 -0.5934366
1.2571547 1.7557508 -0.59157366
1.256843 1.7658424 -0.59193319
1.2673084 1.7669582 -0.59471017
1.2815831 1.7672327 -0.59302706
1.280509 1.7710979 -0.59014094
1.2565311 1.775934 -0.59229273
1.2795422 1.7798722 -0.59169793
1.2562194 1.7860256 -0.59265226
1.2559077 1.7961173 -0.59301174
1.2555959 1.806209 -0.59337127
1.2765648 1.8054121 -0.59388745
1.2771063 1.8145638 -0.5942077
1.2552841 1.8163006 -0.59373081
1.2751853 1.8246374 -0.5936929
1.2713501 1.8573887 -0.59405112
1.2696931 1.8670473 -0.59057206
1.2728064 1.9285346 -0.59436959
1.2724897 1.938786 -0.59473479
1.277903 1.2484658 -0.58529347
1.2907643 1.2630475 -0.58529806
1.2896459 1.2740237 -0.58568835
1.2712586 1.3012694 -0.58549142
1.2922548 1.3077583 -0.58888531
1.2911319 1.3187799 -0.58927727
1.2729175 1.3210871 -0.58515006
1.2723223 1.3314719 -0.58551371
1.2717273 1.3418565 -0.58587742
1.2696998 1.3517276 -0.58728904
1.2725644 1.3527546 -0.58519304
1.269388 1.3618193 -0.58764857
1.2716858 1.3634322 -0.5855608
1.2690762 1.3719108 -0.58800811
1.2708075 1.3741097 -0.58592856
1.2668283 1.3834863 -0.58650857
1.2662348 1.3938519 -0.58687156
1.2656412 1.4042175 -0.58723456
1.2650477 1.4145832 -0.58759755
1.2644541 1.4249489 -0.58796054
1.2613282 1.4361447 -0.58751154
1.2904724 1.4431059 -0.58650959
1.25964 1.448808 -0.58684838
1.264014 1.453615 -0.58502269
1.2587645 1.4594476 -0.58721483
1.2637026 1.4636875 -0.58538157
1.2823087 1.4638875 -0.58529687
1.2618999 1.4722719 -0.58960617
1.281181 1.4749546 -0.58569044
1.2859432 1.4875565 -0.58809024
1.2632024 1.4924657 -0.5861001
1.2848108 1.498669 -0.58848542
1.2836785 1.5097817 -0.5888806
1.2842875 1.5330582 -0.58506954
1.2673738 1.5882361 -0.58509755
1.2642357 1.6000899 -0.58686197
1.265354 1.6138723 -0.58531016
1.2684255 1.6224115 -0.58956879
1.2561659 1.6254956 -0.58528811
1.2675357 1.6332257 -0.58994126
1.2558553 1.6355491 -0.58564627
1.2555447 1.6456027 -0.58600444
1.2552341 1.6556563 -0.5863626
1.2549236 1.6657099 -0.58672082
1.2750664 1.6662098 -0.58564621
1.2546129 1.6757635 -0.58707899
1.2754334 1.6790013 -0.58567864
1.2849702 1.6841668 -0.58993357
1.2543024 1.685817 -0.58743715
1.2752569 1.6890526 -0.58602738
1.2539917 1.6958706 -0.58779532
1.2722394 1.6993884 -0.58627439
1.2536812 1.7059243 -0.58815348
1.276361 1.7051742 -0.58685577
1.2781415 1.7143289 -0.5878517
1.2779632 1.7244029 -0.58820122
1.2777848 1.734477 -0.58855075
1.2756438 1.7454097 -0.58825171
1.2754645 1.7554686 -0.58860064
1.2799648 1.7619005 -0.58981907
1.2665045 1.7755634 -0.58538449
1.2771207 1.7818909 -0.58916146
1.2776631 1.7910578 -0.58948219
1.2652479 1.8162344 -0.58683342
1.2649338 1.8264022 -0.58719569
1.2646197 1.8365699 -0.58755791
1.2643056 1.8467376 -0.58792013
1.2780546 1.9188163 -0.58532321
1.2777368 1.9291058 -0.58568978
1.2774189 1.9393953 -0.58605635
1.2953823 1.1486591 -0.58014691
1.2945001 1.1593822 -0.58051628
1.2966647 1.1726713 -0.58153057
1.2956644 1.183521 -0.58191037
1.2946641 1.1943707 -0.58229023
1.2936637 1.2052205 -0.58267009
1.2839847 1.2139456 -0.58041191
1.295238 1.2191423 -0.58373678
1.2833614 1.225204 -0.58347416
1.2782159 1.2383361 -0.58493257
1.2822278 1.2353008 -0.58114743
1.2813492 1.2459785 -0.58151519
1.2918828 1.2520711 -0.58490771
1.2804708 1.2566561 -0.58188301
1.2735133 1.2644181 -0.58233583
1.2754538 1.2745029 -0.58351576
1.2748587 1.2848876 -0.58387935
1.2717326 1.2955152 -0.58342481
1.2709832 1.3109267 -0.58396757
1.2934887 1.324908 -0.58492494
1.2947133 1.3421487 -0.58096784
1.2935855 1.3532158 -0.58136141
1.2924579 1.364283 -0.58175492
1.2913302 1.3753502 -0.58214849
1.2902025 1.3864174 -0.58254206
1.2890748 1.3974845 -0.58293557
1.2879472 1.4085517 -0.58332914
1.2868195 1.4196188 -0.58372271
1.2856917 1.430686 -0.58411622
1.2643251 1.4435422 -0.58466387
1.2834364 1.4528203 -0.5849033
1.2612684 1.4828156 -0.58494008
1.2649488 1.5034597 -0.58258557
1.2595824 1.5149059 -0.5813483
1.2592719 1.5249596 -0.58170646
1.2644424 1.5243348 -0.58231473
1.2854221 1.5219228 -0.58467352
1.2589612 1.5350132 -0.58206463
1.2635601 1.5350579 -0.58268404
1.2576704 1.5451913 -0.58176112
1.25834 1.5551203 -0.58278096
1.2617958 1.5565042 -0.58342278
1.2580295 1.5651739 -0.58313912
1.2609134 1.5672274 -0.58379209
1.2724286 1.5664613 -0.58433717
1.2577188 1.5752275 -0.58349729
1.2645564 1.577952 -0.58377182
1.2574083 1.5852811 -0.58385545
1.2882984 1.5921692 -0.5847562
1.2570977 1.5953348 -0.58421361
1.27017 1.5963483 -0.58402586
1.2567871 1.6053883 -0.58457178
1.2707142 1.6055458 -0.58434772
1.2752178 1.6127062 -0.58026338
1.2564765 1.6154419 -0.58492994
1.2730634 1.6237531 -0.58281446
1.2728887 1.6337817 -0.58316237
1.275691 1.6442487 -0.58447152
1.2755145 1.6543 -0.58482027
1.2852364 1.6637506 -0.58467597
1.2837567 1.6751134 -0.58054316
1.2636712 1.7050195 -0.58126432
1.2810502 1.7144356 -0.58026081
1.2633582 1.7151492 -0.58162522
1.2630453 1.7252789 -0.58198607
1.2857629 1.7250628 -0.58062106
1.2577039 1.7359248 -0.58075839
1.2848681 1.7364323 -0.58185971
1.2624193 1.7455384 -0.58270782
1.2621064 1.755668 -0.58306873
1.2617935 1.7657977 -0.58342957
1.284326 1.7698021 -0.58219826
1.2848719 1.7790298 -0.5825212
1.2611676 1.7860571 -0.58415139
1.2854178 1.7882576 -0.58284408
1.2608547 1.7961868 -0.58451223
1.2605418 1.8063165 -0.58487314
1.2752645 1.8468859 -0.58119172
1.2799619 1.8570791 -0.5831238
1.274631 1.8673888 -0.58192217
1.2793261 1.8776581 -0.58385694
1.2790083 1.8879477 -0.58422351
1.2786903 1.8982372 -0.58459008
1.2783725 1.9085268 -0.58495665
1.2971468 1.1272128 -0.57940823
1.2962644 1.137936 -0.5797776
1.2778283 1.2488245 -0.57515913
1.2943785 1.2860963 -0.57702297
1.2932554 1.2971181 -0.57741487
1.2711842 1.3016268 -0.57539511
1.2722543 1.3318325 -0.57510877
1.2699372 1.3419933 -0.57683325
1.2696254 1.352085 -0.57719272
1.2693136 1.3621767 -0.57755226
1.2690018 1.3722682 -0.57791179
1.2707458 1.3744738 -0.57521486
1.2667605 1.3838463 -0.57612264
1.2661668 1.3942119 -0.57648563
1.2680883 1.4045249 -0.5776543
1.2674934 1.4149096 -0.57801795
1.2643862 1.4253089 -0.57757461
1.2612605 1.4365041 -0.57714462
1.2903489 1.4434906 -0.57533973
1.2892166 1.4546032 -0.57573491
1.2880843 1.4657159 -0.57613003
1.2631581 1.4729353 -0.57661712
1.2869519 1.4768285 -0.57652521
1.2858196 1.487941 -0.57692039
1.2631344 1.4928265 -0.57569516
1.2593255 1.5132828 -0.57999599
1.2894349 1.5117934 -0.57967448
1.2643189 1.5766891 -0.57516056
1.2728609 1.5760193 -0.57541716
1.2623804 1.5845501 -0.57536554
1.2782747 1.5824559 -0.57730073
1.2620686 1.5946418 -0.57572502
1.2724924 1.5924062 -0.57683182
1.2617568 1.6047335 -0.57608455
1.2723206 1.6024271 -0.57717949
1.261445 1.6148251 -0.57644409
1.2750447 1.6129303 -0.57670879
1.2611333 1.6249167 -0.57680362
1.2755907 1.6221581 -0.57703173
1.2608215 1.6350083 -0.57716316
1.2748079 1.6447325 -0.57539362
1.2605097 1.6451 -0.57752264
1.260198 1.6551917 -0.57788217
1.2860454 1.6579344 -0.57819641
1.2598863 1.6652833 -0.57824171
1.2885258 1.6702834 -0.57687688
1.2595744 1.675375 -0.57860124
1.2876213 1.6812798 -0.57725567
1.2592627 1.6854666 -0.57896078
1.2794123 1.6867523 -0.57929206
1.2589509 1.6955583 -0.57932025
1.2799582 1.6959801 -0.579615
1.2805042 1.7052078 -0.57993793
1.2790649 1.7238683 -0.57680911
1.2737198 1.7346346 -0.57562375
1.2734044 1.744848 -0.57598764
1.2821929 1.7472579 -0.57952821
1.2724577 1.7754883 -0.57707924
1.2771647 1.7853771 -0.57900041
1.2718266 1.7959151 -0.57780695
1.2715111 1.8061285 -0.57817078
1.2711957 1.816342 -0.57853466
1.2708801 1.8265554 -0.57889855
1.2705646 1.8367687 -0.57926238
1.3007082 1.1646409 -0.57075238
1.2965729 1.1730441 -0.57063448
1.2955725 1.1838937 -0.57101429
1.2945721 1.1947434 -0.57139421
1.2909093 1.2026403 -0.57123435
1.2900269 1.2133635 -0.57160366
1.2863432 1.2251158 -0.57398462
1.2882626 1.2348098 -0.5723424
1.2939976 1.2304986 -0.57309425
1.2781413 1.2386947 -0.57479823
1.2928792 1.2414747 -0.5734846
1.2812877 1.2463424 -0.57080156
1.2917608 1.2524511 -0.57387489
1.2804091 1.25702 -0.57116938
1.2759809 1.2644789 -0.57274711
1.2906424 1.2634273 -0.57426524
1.2753859 1.2748635 -0.5731107
1.289524 1.2744036 -0.57465553
1.2747908 1.2852482 -0.57347441
1.2741957 1.2956328 -0.573838
1.2734447 1.3110633 -0.57438147
1.2728493 1.3214478 -0.57474506
1.2733812 1.342441 -0.57411158
1.2725027 1.3531185 -0.57447934
1.2934626 1.3535988 -0.57023728
1.2716243 1.3637961 -0.5748471
1.292335 1.364666 -0.57063079
1.2912073 1.3757333 -0.57102436
1.2900796 1.3868004 -0.57141793
1.2889519 1.3978676 -0.57181144
1.2730595 1.4011286 -0.57043797
1.2878243 1.4089347 -0.57220501
1.2727464 1.4112582 -0.57079887
1.2926135 1.4212654 -0.57454938
1.2914813 1.4323779 -0.57494456
1.2656708 1.4462421 -0.5740608
1.2650757 1.4566267 -0.57442439
1.2661215 1.4634504 -0.57105124
1.2651229 1.4822305 -0.57358032
1.2730334 1.4927702 -0.57234776
1.2637411 1.5032253 -0.57431144
1.2649128 1.513943 -0.57201743
1.264251 1.5240003 -0.57320839
1.2703755 1.5250763 -0.57346058
1.2637187 1.5347576 -0.57274628
1.2631218 1.5451651 -0.57311082
1.2655166 1.5558288 -0.57443011
1.2619277 1.5659798 -0.5738396
1.2832327 1.5653137 -0.57401407
1.2859484 1.5783236 -0.57045591
1.2865002 1.5876501 -0.57078224
1.2849832 1.5944921 -0.57079816
1.2828608 1.6056784 -0.57053852
1.2846377 1.6147239 -0.57150018
1.2861838 1.6255107 -0.57348824
1.2715302 1.6335208 -0.57312083
1.287271 1.6353722 -0.57313973
1.2870965 1.6455109 -0.57349151
1.2701989 1.6539105 -0.57086527
1.2698848 1.6640782 -0.57122755
1.2695707 1.674246 -0.57158977
1.2642224 1.6851189 -0.57040823
1.2689425 1.6945815 -0.5723142
1.2746664 1.7039944 -0.57453221
1.2743509 1.7142079 -0.57489604
1.2864158 1.7348074 -0.57469749
1.2670578 1.7555879 -0.57448763
1.2667437 1.7657558 -0.57484984
1.2970848 1.1275783 -0.56864893
1.2962027 1.1383015 -0.56901824
1.2953205 1.1490246 -0.56938761
1.3021648 1.1454303 -0.56522512
1.295118 1.1566207 -0.56908065
1.2774407 1.2593129 -0.5653857
1.2965022 1.2644343 -0.56516063
1.2771277 1.2694426 -0.56574655
1.2953792 1.2754561 -0.56555253
1.2765018 1.2897019 -0.5664683
1.2942561 1.2864778 -0.56594449
1.2761889 1.2998316 -0.5668292
1.293133 1.2974995 -0.56633639
1.2758759 1.3099613 -0.56719005
1.2920099 1.3085213 -0.56672835
1.290887 1.319543 -0.56712025
1.2753198 1.3207703 -0.56510663
1.2957181 1.3314645 -0.56945014
1.2698628 1.3423507 -0.566737
1.2793784 1.3424067 -0.5652765
1.2945904 1.3425317 -0.56984371
1.2769731 1.3645588 -0.56524414
1.2723413 1.3727887 -0.56692827
1.2692108 1.3841163 -0.56652206
1.2686156 1.394501 -0.56688571
1.274085 1.4067457 -0.5674926
1.2732029 1.4174688 -0.56786191
1.2668302 1.4256549 -0.56797665
1.2662351 1.4360394 -0.5683403
1.2736758 1.445013 -0.56611419
1.2696741 1.4603614 -0.56933928
1.2687917 1.4710846 -0.56970865
1.2752248 1.4912264 -0.56506956
1.2849834 1.4936191 -0.56525242
1.2736542 1.5420653 -0.5668807
1.2682906 1.5534328 -0.5657168
1.2796226 1.5587776 -0.56749672
1.2848448 1.5596703 -0.56980312
1.2679777 1.5635625 -0.56607771
1.2727492 1.5690777 -0.56600499
1.2727119 1.5725684 -0.56796741
1.2751167 1.5816166 -0.56828725
1.2670389 1.5939516 -0.56716031
1.2717695 1.6030717 -0.56905413
1.2714554 1.6132395 -0.56941634
1.2711413 1.6234072 -0.56977856
1.2859257 1.6619427 -0.56586462
1.2856079 1.6722322 -0.56623119
1.2906919 1.7023475 -0.56914097
1.2994679 1.1759971 -0.56010991
1.2983495 1.1869733 -0.5605002
1.3032405 1.1983041 -0.56280905
1.2908475 1.2030058 -0.56047499
1.3021175 1.2093258 -0.56320095
1.2899652 1.213729 -0.5608443
1.2949942 1.2199022 -0.56167114
1.2862749 1.2254785 -0.56351876
1.2998713 1.2313693 -0.56398481
1.2780665 1.2390535 -0.56466389
1.2882009 1.2351754 -0.56158304
1.2987484 1.242391 -0.56437677
1.2820324 1.2467735 -0.56331813
1.2976253 1.2534127 -0.56476867
1.2864363 1.2566216 -0.56232172
1.2855542 1.2673447 -0.56269109
1.2777027 1.2791557 -0.56364936
1.2837896 1.2887911 -0.56342971
1.2829075 1.2995142 -0.56379914
1.286972 1.3056712 -0.5603416
1.2759552 1.3107721 -0.5622946
1.2866565 1.3158847 -0.56070548
1.2721864 1.3321931 -0.56470382
1.3015487 1.332749 -0.56021821
1.3004164 1.3438616 -0.56061339
1.2774762 1.3542186 -0.56487995
1.2992841 1.3549743 -0.56100857
1.2981517 1.366087 -0.56140375
1.2847633 1.3771651 -0.56288862
1.2970195 1.3771995 -0.56179887
1.278366 1.389549 -0.5614472
1.2958871 1.3883121 -0.56219405
1.2841322 1.3975921 -0.56361634
1.2947547 1.3994248 -0.56258923
1.2838168 1.4078054 -0.56398022
1.2835013 1.4180188 -0.56434411
1.2771095 1.4302199 -0.56289613
1.2764983 1.450309 -0.56183988
1.2758982 1.4607772 -0.56220645
1.275853 1.470891 -0.56434506
1.2807567 1.4717498 -0.56265259
1.2755389 1.4810587 -0.56470728
1.285877 1.4827594 -0.56487834
1.2764992 1.5027933 -0.56460094
1.2758973 1.5132843 -0.56496829
1.2692295 1.5230436 -0.5646342
1.2763081 1.5258209 -0.56451505
1.2900583 1.5281789 -0.56109923
1.2689166 1.5331734 -0.56499505
1.2754185 1.536635 -0.56488752
1.2824447 1.5489371 -0.56373346
1.2840565 1.5602078 -0.56070948
1.2915263 1.5601791 -0.56023741
1.2837399 1.5704594 -0.56107467
1.2906253 1.5711299 -0.56061459
1.2834232 1.5807109 -0.56143993
1.2831064 1.5909624 -0.56180513
1.2952504 1.593056 -0.56381786
1.2878331 1.6002055 -0.56366521
1.2875152 1.6104951 -0.56403178
1.2871974 1.6207845 -0.56439835
1.2868794 1.6310741 -0.56476492
1.281523 1.6422197 -0.56363124
1.2812063 1.6524711 -0.56399643
1.3049285 1.1050978 -0.55899489
1.2979054 1.1172206 -0.55752021
1.3031566 1.1266351 -0.55973673
1.3039416 1.132092 -0.55854863
1.2961409 1.138667 -0.55825889
1.3051357 1.1451958 -0.55520856
1.2943764 1.1601133 -0.55899763
1.2926118 1.1815596 -0.55973625
1.2856185 1.1933184 -0.558249
1.2891808 1.2341774 -0.55779457
1.3046166 1.2433102 -0.55517757
1.3012335 1.2765118 -0.55635822
1.3001059 1.2875789 -0.55675179
1.2764271 1.2900608 -0.55633396
1.2820193 1.2989595 -0.5556134
1.2978505 1.3097132 -0.55753887
1.2775559 1.3346449 -0.55870676
1.2853751 1.3423758 -0.55634999
1.2796224 1.348878 -0.55999827
1.2775521 1.3642186 -0.55525589
1.27667 1.3749417 -0.5556252
1.2757878 1.3856648 -0.55599451
1.2850344 1.3962018 -0.55653524
1.2819003 1.4075775 -0.55616879
1.2731411 1.4178343 -0.55710256
1.2884904 1.4166874 -0.55559647
1.2722588 1.4285575 -0.55747193
1.2881738 1.4269388 -0.55596167
1.2774012 1.4392939 -0.55968821
1.2875403 1.4474418 -0.55669212
1.2872237 1.4576933 -0.55705732
1.293618 1.4615159 -0.55503827
1.286907 1.4679446 -0.55742252
1.2927208 1.4724212 -0.55541384
1.2865902 1.4781961 -0.55778778
1.2918236 1.4833264 -0.55578947
1.2812172 1.4898745 -0.55667305
1.2909265 1.4942317 -0.5561651
1.2832708 1.5045192 -0.55796015
1.2900293 1.5051371 -0.55654073
1.2872277 1.5176222 -0.55808246
1.2882347 1.5269476 -0.55729198
1.2860138 1.538779 -0.55882335
1.2924273 1.5492283 -0.55986017
1.2837486 1.5814739 -0.55917007
1.3032507 1.1559838 -0.55317885
1.3064873 1.1656204 -0.55055481
1.2965225 1.1704566 -0.55489111
1.3053643 1.1766422 -0.55094671
1.3042412 1.1876638 -0.55133867
1.3031181 1.1986855 -0.55173057
1.301995 1.2097073 -0.55212253
1.2899034 1.2140945 -0.55008501
1.2892587 1.2243907 -0.55394256
1.300872 1.220729 -0.55251443
1.2942348 1.234689 -0.5526408
1.2850101 1.2467322 -0.55378449
1.2975029 1.2537942 -0.55369025
1.284412 1.2571777 -0.55415028
1.2948104 1.2638656 -0.55210018
1.2838137 1.2676231 -0.55451608
1.2929243 1.2731669 -0.55048341
1.2832156 1.2780685 -0.55488181
1.2837279 1.2891566 -0.55267048
1.2868967 1.3060329 -0.55012351
1.2842722 1.3134247 -0.55194825
1.2867063 1.3236492 -0.55322969
1.2830744 1.3343612 -0.55268145
1.2907073 1.3449271 -0.55303991
1.2784345 1.3534955 -0.55488652
1.2903907 1.3551786 -0.55340517
1.2850035 1.3673135 -0.55230671
1.2897573 1.3756815 -0.55413556
1.2894406 1.3859329 -0.55450082
1.2929621 1.3962516 -0.55098951
1.2920685 1.4071113 -0.55136359
1.2911751 1.417971 -0.55173767
1.2902815 1.4288307 -0.55211169
1.2886226 1.4384404 -0.55440629
1.2945154 1.4506106 -0.55466264
1.3039806 1.1162335 -0.54856074
1.3030946 1.1270021 -0.54893172
1.3060325 1.1351631 -0.54934078
1.3087333 1.143577 -0.54977095
1.2925501 1.1819251 -0.54897696
1.2938081 1.2030606 -0.54521936
1.2945079 1.2219095 -0.54865736
1.2887899 1.2447526 -0.54794037
1.2968706 1.2530748 -0.54500425
1.3011106 1.2768948 -0.54523408
1.2875278 1.2856061 -0.5493958
1.3059546 1.2886832 -0.54746771
1.2872123 1.2958196 -0.54975969
1.3001099 1.3093736 -0.54799712
1.2931507 1.3207194 -0.54658717
1.3048066 1.3244812 -0.5460726
1.2861989 1.3319741 -0.54517406
1.3014253 1.3331337 -0.54904836
1.2913711 1.3423477 -0.54733217
1.301791 1.3409822 -0.54591411
1.2959611 1.353217 -0.54703331
1.2956424 1.3636723 -0.54986739
1.288702 1.3747904 -0.54844958
1.2878122 1.3856046 -0.54882205
1.2937969 1.4050691 -0.54640609
1.293479 1.4153585 -0.54677266
1.3056066 1.1693203 -0.54137242
1.3101321 1.1883575 -0.54208571
1.2946923 1.1923149 -0.54484928
1.3090044 1.1994246 -0.54247928
1.2959447 1.2135186 -0.54109401
1.3078768 1.2104918 -0.54287279
1.3039535 1.2224752 -0.54325056
1.2966959 1.231154 -0.54459846
1.3029449 1.233416 -0.54363358
1.2991308 1.2427284 -0.54226035
1.3044937 1.2436934 -0.54405344
1.3033661 1.2547605 -0.544447
1.2979231 1.2638321 -0.54299939
1.3022383 1.2658277 -0.54484057
1.2973194 1.2743839 -0.54336894
1.2967156 1.2849357 -0.54373848
1.2961118 1.2954876 -0.54410803
1.2969756 1.3021739 -0.5427404
1.2966578 1.3124633 -0.54310697
1.3044164 1.3625453 -0.54455531
1.3040767 1.407241 -0.54396898
1.3031759 1.4181918 -0.54434615
1.2986026 1.1812127 -0.53998125
1.2995187 1.2198577 -0.5398078
1.3068714 1.2555875 -0.53517151
1.3036211 1.2663047 -0.53560454
1.3027277 1.2771645 -0.53597856
1.3079107 1.2874031 -0.53808624
1.3070135 1.2983084 -0.53846186
1.2982602 1.3314632 -0.53784883
1.3034246 1.3419296 -0.53996432
1.3098752 1.1902865 -0.53298616
1.3089819 1.2011462 -0.53336024
1.3080885 1.212006 -0.53373432
1.3099914 1.235659 -0.53326344
