# .PCD v0.7 - Point Cloud Data file format
VERSION 0.7
FIELDS x y z
SIZE 4 4 4
TYPE F F F
COUNT 1 1 1
WIDTH 1115
HEIGHT 1
VIEWPOINT 0 0 0 1 0 0 0
POINTS 1115
DATA ascii
5.5339093 3.4101799 1.328524
5.4404211 3.4603403 1.3280082
5.2700696 3.551842 1.32735
5.1921206 3.5937257 1.3270906
5.048501 3.670855 1.3264965
5.0298996 3.6819782 1.329599
5.5083814 3.4253778 1.3325936
5.0988779 3.6450028 1.3300774
5.0154681 3.6723611 1.3307317
4.9979372 3.6832206 1.3343843
5.0122738 3.6927743 1.333259
5.3098874 3.1631048 1.3381823
5.3275957 3.1749058 1.3367923
5.6829667 3.3335192 1.3386447
5.4838786 3.4401512 1.3370204
5.3081512 3.534265 1.3355697
5.1334944 3.629467 1.3387876
4.9836011 3.673667 1.3355095
5.2865062 3.1803117 1.3429476
5.4366441 3.226006 1.3441788
5.5827456 3.2314551 1.3440512
5.6103611 3.2851348 1.3443438
5.6285129 3.297231 1.342919
5.6466641 3.3093271 1.3414942
5.6648154 3.3214231 1.3400695
5.4927368 3.3298998 1.3449428
5.5103059 3.341608 1.3435637
5.6551447 3.3500452 1.3429742
5.5191417 3.3809202 1.344655
5.5365658 3.3925314 1.3432875
5.4425597 3.4435339 1.3424922
5.3377185 3.4805915 1.3429694
5.3704782 3.5024226 1.3403981
5.3482413 3.5159237 1.3446784
5.265934 3.5600114 1.3440174
5.1881008 3.6016662 1.3432907
5.0156298 3.6590042 1.3441166
5.4804783 3.1278172 1.3493042
5.5095329 3.1826658 1.349798
5.5278358 3.1948633 1.3483613
5.5461388 3.2070603 1.3469247
5.5644426 3.2192578 1.345488
5.5922098 3.2730386 1.3457685
5.3197117 3.2996483 1.3474026
5.6191459 3.3260555 1.3457998
5.0923448 3.3341441 1.3479369
5.4668703 3.3460863 1.348758
5.610508 3.3542218 1.3490092
5.4842939 3.3576975 1.3473903
5.5017176 3.3693089 1.3460227
5.6283617 3.3661199 1.3476079
5.4947987 3.3960798 1.3494884
5.5120897 3.4076025 1.3481313
5.3857536 3.4355049 1.3496438
5.402513 3.4466734 1.3483284
5.4192724 3.4578421 1.3470128
5.4360323 3.4690106 1.3456973
5.2832022 3.4725819 1.3497834
5.2994623 3.483417 1.3485072
5.4126844 3.4831033 1.3499609
5.315722 3.4942527 1.3472309
5.3319817 3.5050881 1.3459547
5.3099275 3.5185449 1.3499718
5.244915 3.5727077 1.3478806
5.1574035 3.5812094 1.3457001
5.1377378 3.5934017 1.3494496
5.1529789 3.6035583 1.3482534
5.16822 3.6137152 1.3470571
4.9720325 3.6299508 1.3475386
4.9865646 3.6396353 1.346398
4.9683943 3.6509757 1.3493618
5.0949955 3.6526716 1.3457233
4.9828253 3.660593 1.3482289
5.4620228 3.1155188 1.3507528
5.311666 3.1427202 1.3539885
5.4729261 3.1582713 1.3526713
5.4912295 3.1704686 1.3512346
5.537756 3.2367504 1.3500427
5.2339535 3.2424986 1.354134
5.5111485 3.254086 1.3542768
5.5291481 3.2660809 1.3528639
5.4048901 3.2713585 1.351838
5.5651474 3.2900705 1.3500383
5.5390921 3.3066301 1.3546147
5.5569458 3.3185282 1.3532134
5.4494467 3.334475 1.3501257
5.5748 3.3304262 1.351812
5.5926538 3.342324 1.3504106
5.4256353 3.3499889 1.3549172
5.5662384 3.3584423 1.3547143
5.4429259 3.3615115 1.3535601
5.4602165 3.3730342 1.3522028
5.5839472 3.3702431 1.3533243
5.4775076 3.384557 1.3508457
5.601656 3.3820441 1.3519343
4.982501 3.3869879 1.3522531
5.4524336 3.3999615 1.3547355
5.335475 3.4019992 1.3535903
5.4695854 3.4113913 1.3533893
5.4867373 3.4228213 1.3520429
5.3627853 3.4498508 1.3538774
5.3794184 3.4609351 1.3525718
5.2776484 3.4970341 1.3525054
5.2719173 3.5212021 1.3549925
5.2879362 3.5318773 1.3537351
5.1224966 3.5832448 1.350646
5.1332622 3.6155674 1.3517845
5.2938118 3.1308222 1.35539
5.2698321 3.148664 1.3596531
5.2875404 3.160465 1.3582631
5.3229575 3.184067 1.3554832
5.1653461 3.1967788 1.3595191
5.182498 3.2082086 1.3581729
5.4391508 3.2061062 1.359928
5.1996498 3.2196388 1.3568265
5.2168016 3.2310686 1.3554803
5.4751496 3.2300959 1.3571024
5.0677485 3.2417297 1.359822
5.4931493 3.2420907 1.3556896
5.1945572 3.2473471 1.3597298
5.0843816 3.2528138 1.3585165
5.2115765 3.2586884 1.3583939
5.1010141 3.2638981 1.3572109
5.3449039 3.2648077 1.3583314
5.4855299 3.2709365 1.358819
5.5033836 3.2828343 1.3574176
5.3797512 3.2880301 1.3555962
5.096611 3.2905278 1.3598566
5.5212379 3.2947321 1.3560162
5.1131172 3.3015275 1.3585609
5.1296234 3.3125277 1.3572654
5.0236435 3.3165984 1.3557398
5.3737621 3.3154206 1.3589889
5.0037851 3.331435 1.3594602
5.6600618 3.3308134 1.3592278
5.4083443 3.3384662 1.3562745
5.5485301 3.3466411 1.3561043
5.2684374 3.3573251 1.3588523
5.0518427 3.3634608 1.355688
5.4181299 3.3771014 1.3574281
5.4352818 3.3885312 1.3560818
5.169385 3.3967333 1.3587172
5.2962542 3.4055138 1.3590997
5.4283648 3.4149315 1.3589908
5.3128862 3.4165978 1.3577942
5.4453831 3.4262729 1.3576549
5.3461523 3.4387665 1.355183
5.1969509 3.4432573 1.3588396
5.3233776 3.4530659 1.3591398
5.2292299 3.4647679 1.356306
5.3398843 3.4640658 1.3578442
5.3728971 3.4860656 1.3552529
5.255898 3.5105267 1.3562498
5.2510362 3.5342269 1.3591985
5.2669415 3.5448263 1.35795
5.1576214 3.566602 1.3592502
5.1885338 3.5872021 1.3568238
5.0949192 3.6390162 1.3589174
5.2167063 3.1132612 1.3638231
5.2344151 3.1250622 1.3624331
5.2521238 3.1368632 1.3610431
5.2467661 3.1659846 1.3642495
5.1310425 3.1739187 1.3622117
5.2643356 3.1776929 1.3628705
5.1481943 3.185349 1.3608654
5.2819047 3.1894009 1.3614914
5.2994742 3.2011094 1.3601123
5.1435008 3.2133226 1.3637373
5.2752085 3.2183626 1.363802
5.414114 3.2233443 1.3644246
5.0511155 3.2306454 1.3611275
5.1775384 3.2360055 1.3610656
5.4319677 3.2352424 1.3630232
5.5779519 3.2409239 1.3633697
5.4498219 3.2471404 1.3616219
5.5962548 3.2531214 1.3619331
5.4676757 3.2590384 1.3602204
5.1723833 3.2634878 1.3636991
5.3045988 3.2693298 1.3644177
5.0801044 3.2795277 1.3611522
5.4422789 3.2758353 1.3644441
5.3218894 3.2808526 1.3630606
5.4599876 3.2876363 1.3630542
5.6056075 3.2945251 1.363502
5.4776964 3.299437 1.3616642
5.3564711 3.3038979 1.3603462
5.6237593 3.3066213 1.3620772
5.2013988 3.3126507 1.3641142
5.4954042 3.3112383 1.3602742
5.09202 3.3168576 1.3622549
5.2349181 3.3349879 1.3614832
5.3495231 3.3313816 1.3628132
5.2516775 3.3461566 1.3601677
5.3943272 3.3922486 1.3616625
5.4113455 3.4035902 1.3603266
5.3874788 3.4185112 1.3642912
5.2842889 3.4563186 1.364115
5.20784 3.4785008 1.3600221
5.3114634 3.5026646 1.3643925
5.2351308 3.5236278 1.3604469
5.2144232 3.5366106 1.3644034
5.2302146 3.5471339 1.3631639
5.1421652 3.5563021 1.3604633
5.246006 3.5576577 1.3619244
5.1226864 3.5686932 1.3643097
5.0202956 3.5892868 1.3647746
5.0352201 3.5992327 1.3636032
5.0501451 3.6091783 1.3624316
4.9708004 3.6165073 1.3601955
5.0650697 3.6191242 1.3612603
4.9536934 3.6277845 1.364018
5.0799947 3.62907 1.3600887
5.0466428 3.6307049 1.3648596
4.968226 3.6374691 1.3628772
5.0614662 3.6405835 1.363696
5.0762897 3.6504617 1.3625325
5.1635809 3.0778582 1.367993
5.198998 3.10146 1.365213
5.1764889 3.1191516 1.3697658
5.1940584 3.1308599 1.3683867
5.4756446 3.1373649 1.368783
5.211628 3.1425681 1.3670076
5.229197 3.1542764 1.3656286
5.205513 3.1719174 1.3692725
5.2229371 3.1835287 1.3679048
5.3605518 3.1876507 1.3686289
5.2403612 3.1951401 1.3665372
5.3784056 3.1995487 1.3672274
5.2577848 3.2067513 1.3651695
5.3962598 3.2114468 1.365826
5.1048393 3.2184763 1.3690006
5.5413451 3.2165294 1.3662431
5.1217251 3.2297292 1.3676752
5.1386113 3.2409821 1.3663498
5.3891535 3.2404323 1.3686141
5.0305853 3.2465281 1.3650391
5.2700167 3.2462845 1.3671321
5.1554976 3.2522349 1.3650244
5.4068623 3.2522333 1.3672241
5.2873077 3.2578073 1.365775
5.1343613 3.2679765 1.3693762
5.2637644 3.2742319 1.3695446
5.5693045 3.2703328 1.3663515
5.1511207 3.279145 1.3680606
5.1678801 3.2903137 1.3667451
5.4178581 3.292156 1.3690029
5.298068 3.2970917 1.366852
5.1846399 3.3014822 1.3654296
5.4354272 3.3038645 1.3676239
5.3152199 3.3085217 1.3655057
5.1631899 3.3168399 1.3695441
5.4529963 3.3155725 1.3662447
5.0555668 3.3208849 1.367651
5.2922134 3.3242002 1.3696777
5.1798229 3.3279243 1.3682386
5.0718269 3.3317204 1.3663747
5.3092327 3.3355415 1.3683418
5.0880861 3.342556 1.3650985
5.326251 3.3468828 1.3670059
5.0839748 3.3679695 1.3677074
4.9816866 3.3705885 1.3663286
5.3199348 3.3734996 1.3695929
5.3368206 3.3847525 1.3682674
4.9783955 3.3950987 1.3688004
4.9940729 3.4055462 1.3675698
5.3705931 3.4072583 1.3656166
5.2187691 3.4126563 1.3692577
5.2351489 3.4235721 1.367972
5.3478451 3.421838 1.369964
5.2626839 3.4701581 1.3682213
5.278944 3.4809935 1.366945
5.1512575 3.4945166 1.3693614
5.1670485 3.5050402 1.368122
5.1828403 3.5155635 1.3668824
5.1986313 3.5260868 1.3656429
5.0766406 3.5380082 1.3679239
5.1780977 3.5390279 1.3693503
5.0919895 3.5482364 1.3667191
5.1937761 3.5494757 1.3681196
4.9755211 3.559449 1.3682891
5.107338 3.5584648 1.3655144
5.2094536 3.5599232 1.3668891
5.225131 3.5703707 1.3656584
5.0053711 3.5793407 1.3659462
5.118505 3.5911298 1.3667325
5.1337461 3.6012864 1.3655361
5.1141653 3.6133115 1.3689454
4.9391608 3.6181002 1.3651587
5.0318193 3.6208267 1.3660231
5.1292982 3.6233964 1.3677574
5.0282688 3.6421809 1.368245
5.2591553 3.0861568 1.3740563
5.2771549 3.0981517 1.3726435
5.2951546 3.110147 1.3712307
5.00735 3.1225915 1.3744241
5.4571896 3.1250663 1.3702316
5.4315262 3.1433456 1.374863
5.1706657 3.148695 1.3720077
5.4498291 3.1555429 1.3734263
5.1880894 3.1603062 1.3706402
5.4681325 3.1677403 1.3719897
5.4864359 3.1799374 1.370553
5.0541811 3.1847177 1.3729769
4.9480529 3.1915283 1.3715172
5.0710669 3.1959705 1.3716515
5.3360281 3.2050295 1.372784
5.3714447 3.2286315 1.3700041
5.3475809 3.2453232 1.374519
5.2466125 3.2628016 1.3708909
4.9742684 3.2667074 1.3740323
5.382719 3.2687397 1.371761
4.9905281 3.2775431 1.372756
5.0067878 3.2883785 1.3714797
5.2411566 3.2901759 1.3736851
5.0230474 3.2992139 1.3702035
5.0032773 3.3141928 1.3740414
5.2751942 3.3128586 1.3710135
4.902729 3.3179712 1.3725262
5.4100356 3.3202665 1.3712512
5.1418071 3.3320668 1.3733917
5.0355563 3.3357034 1.3715078
4.9000072 3.3428605 1.3749533
5.0516958 3.3464589 1.3702409
5.4038153 3.3474116 1.3745245
4.9156847 3.3533082 1.3737227
4.8197336 3.3561854 1.3722047
5.4211063 3.3589342 1.3731673
4.9313622 3.3637557 1.3724921
5.0316281 3.361073 1.3738533
5.3030491 3.3622468 1.3709183
5.1532497 3.3689938 1.3744005
4.9470396 3.3742032 1.3712615
5.0476475 3.3717482 1.3725959
5.1696296 3.3799095 1.3731148
4.8176751 3.3801112 1.3745722
4.9627171 3.3846509 1.3700309
5.2975664 3.3883324 1.3739103
4.9438076 3.3985956 1.3734927
5.2023892 3.4017406 1.3705435
4.9593716 3.4089673 1.3722711
4.9749351 3.4193389 1.3710494
5.181386 3.4159806 1.3746026
5.0919824 3.4282331 1.371683
5.1976452 3.426816 1.3733263
5.3251634 3.4362872 1.3740443
5.2301645 3.448487 1.3707738
5.0880909 3.4524226 1.3743194
5.1038828 3.4629459 1.37308
5.2088633 3.4623623 1.3746074
5.2411423 3.4838729 1.3720738
4.999897 3.4868662 1.3739477
5.2572818 3.4946284 1.3708069
5.0152464 3.4970946 1.3727428
5.1153879 3.4972377 1.3742725
5.0305948 3.507323 1.371538
5.1310654 3.5076852 1.373042
5.235683 3.5081389 1.374415
5.0459433 3.5175514 1.3703333
5.1467428 3.5181327 1.3718113
5.1624203 3.5285802 1.3705808
5.1420598 3.5414796 1.3740386
5.0575409 3.550503 1.3715178
5.072782 3.5606596 1.3703214
5.0687647 3.5830564 1.3725089
5.0838976 3.5931416 1.3713211
5.0990314 3.6032267 1.3701332
5.1871572 3.0381775 1.3797076
5.2051568 3.0501723 1.3782948
5.0886426 3.0606105 1.3766611
5.2231565 3.0621672 1.376882
5.1062117 3.0723188 1.3752819
5.2411556 3.074162 1.3754691
5.1183944 3.1138613 1.3761107
4.9866371 3.1397061 1.3782786
5.114398 3.14258 1.379347
5.0035229 3.150959 1.3769532
5.1316891 3.1541028 1.3779896
5.4240942 3.173564 1.3777494
5.4422455 3.1856601 1.3763247
5.1437025 3.194222 1.3789685
5.0338044 3.2009652 1.377269
5.0505638 3.2121339 1.3759536
5.1780057 3.217082 1.376276
5.3124418 3.2219067 1.3772773
5.0301266 3.2281661 1.3799886
5.3300114 3.2336149 1.3758982
4.9417491 3.2450366 1.3765849
5.0633926 3.2503345 1.3773776
4.9580088 3.255872 1.3753085
5.0800257 3.2614188 1.376072
5.207119 3.267493 1.3763568
4.9387197 3.2711711 1.3791088
5.0592747 3.2770672 1.3798698
5.2241383 3.2788343 1.375021
4.9548588 3.2819266 1.3778419
5.0757813 3.2880671 1.3785743
4.9709983 3.2926819 1.3765751
5.092288 3.299067 1.3772787
4.8372965 3.3010702 1.3798755
4.9871378 3.3034372 1.3753083
5.3519425 3.3128433 1.3785962
4.9675512 3.3183718 1.3788829
5.2355051 3.3172352 1.37622
4.8686514 3.3219652 1.3774143
4.9835701 3.3290472 1.3776255
4.8843293 3.332413 1.3761837
4.9995894 3.3397224 1.376368
5.3865242 3.3358889 1.3758817
5.2305288 3.3436582 1.3791724
4.8659887 3.3467371 1.3796009
5.1204901 3.3471627 1.376972
5.0156088 3.3503976 1.3751107
5.2472878 3.3548269 1.3778569
5.3621826 3.3516848 1.37957
4.7871933 3.359798 1.3769647
5.3793344 3.3631148 1.3782238
4.802434 3.3699546 1.3757684
4.8971167 3.3674805 1.3771576
5.2640476 3.3659954 1.3765415
5.1163473 3.3726387 1.3797076
5.3964863 3.3745446 1.3768774
4.9126797 3.3778522 1.375936
5.2808075 3.3771639 1.3752259
4.7851915 3.3836122 1.3791053
5.1326065 3.3834741 1.3784313
5.0283608 3.3858356 1.3766768
4.8003249 3.3936973 1.3779175
4.894866 3.3915014 1.3798743
5.1488667 3.3943095 1.3771551
5.2586317 3.3919504 1.3792666
5.0442662 3.3964348 1.3754283
4.8154583 3.4037824 1.3767296
4.9103222 3.4018016 1.378661
5.2752647 3.4030344 1.377961
5.1651258 3.4051452 1.3758788
4.9257784 3.4121015 1.377448
5.0249252 3.4103289 1.3792775
5.2918978 3.4141188 1.3766555
5.1443052 3.4193406 1.3796747
4.9412346 3.4224017 1.3762347
5.0407166 3.4208522 1.378038
4.813879 3.4268751 1.379432
5.3085299 3.4252028 1.3753499
5.1604452 3.4300961 1.3784078
4.8289113 3.4368927 1.378252
4.9231539 3.4357245 1.3799714
5.2860413 3.4396055 1.3791531
5.0723 3.4418991 1.375559
5.1765842 3.4408514 1.377141
4.9385033 3.4459529 1.3787667
5.1927238 3.4516068 1.3758743
5.0526772 3.4554472 1.3791949
4.8411984 3.4699359 1.3788325
5.0683546 3.4658947 1.3779641
5.1716061 3.4654379 1.3794447
4.8561234 3.479882 1.3776609
4.9508533 3.4794064 1.3798918
5.1876249 3.4761131 1.3781873
4.871048 3.4898279 1.3764895
5.2036443 3.4867883 1.3769299
4.885973 3.4997737 1.3753179
5.0798049 3.4999926 1.3789251
5.2196636 3.4974637 1.3756725
4.8539371 3.5022855 1.3799855
4.8687606 3.5121641 1.378822
5.0953689 3.5103643 1.3777034
5.1109324 3.520736 1.3764818
4.9930968 3.5326314 1.3784482
5.1264963 3.5311077 1.3752602
5.0082302 3.5427165 1.3772603
4.9377151 3.6045792 1.3779305
5.031311 3.6069536 1.3793558
5.1641579 3.0567732 1.3840442
5.1998653 3.0805693 1.3812414
5.0452347 3.0964892 1.3847758
5.0625253 3.1080117 1.3834184
5.0798163 3.1195345 1.3820614
5.0971069 3.1310573 1.380704
5.0750952 3.1485023 1.3843536
5.092247 3.1599321 1.3830074
4.9835258 3.1674595 1.3812156
5.1093988 3.1713624 1.3816611
5.1265507 3.1827922 1.3803148
4.9802275 3.1949134 1.3839053
5.1050057 3.1994445 1.384372
4.8767104 3.2016945 1.3816899
5.0134935 3.217082 1.3812941
4.8741617 3.2281499 1.384176
4.8903012 3.238905 1.3829092
5.0097556 3.2440674 1.3837568
5.0262623 3.2550673 1.3824612
4.9225798 3.260416 1.3803756
5.0427685 3.2660673 1.3811654
4.9034739 3.2756708 1.3839124
5.3000698 3.278275 1.3826678
4.9194932 3.286346 1.382655
4.821619 3.2906225 1.381106
4.9355125 3.2970214 1.3813976
4.9515319 3.3076966 1.3801402
4.9329286 3.3222394 1.3841674
4.9488339 3.3328385 1.382919
5.213769 3.3324895 1.3804878
4.8504248 3.3363652 1.3808225
4.9647393 3.3434381 1.3816706
5.1920996 3.3476133 1.3844887
4.9806447 3.3540373 1.3804221
5.2087326 3.3586977 1.3831831
4.8484974 3.3606014 1.3835138
5.2253656 3.3697817 1.3818775
4.7700577 3.3735271 1.3802933
5.0797477 3.3763192 1.384742
4.8794098 3.3812015 1.3810874
5.2419987 3.3808661 1.3805722
4.6640673 3.3892906 1.3815957
4.7537498 3.3868051 1.3841517
5.0958872 3.3870745 1.3834752
4.8617597 3.3948112 1.3847903
4.7687821 3.3968225 1.3829718
5.1120267 3.39783 1.3822083
4.8771081 3.4050395 1.3835856
5.1281662 3.4085853 1.3809415
4.892457 3.4152677 1.3823808
5.0056443 3.4241042 1.3828865
4.9078054 3.4254961 1.3811761
5.2695351 3.4286056 1.3804487
4.7814999 3.4301524 1.3835183
5.0213223 3.434552 1.3816558
5.123548 3.4334121 1.3832167
4.8898888 3.4387794 1.3846771
4.7964244 3.4400983 1.3823467
5.0369997 3.4449997 1.3804253
5.1395674 3.4440873 1.3819596
4.9051299 3.448936 1.3834807
4.8113489 3.4500442 1.3811754
5.1555867 3.4547625 1.3807021
4.9203711 3.4590929 1.3822845
4.7946429 3.4627719 1.3846396
4.9356122 3.4692497 1.3810881
5.033114 3.4688776 1.3825899
5.1355329 3.4682598 1.3847252
4.8094664 3.4726505 1.383476
5.0486774 3.4792492 1.3813684
5.1514382 3.4788589 1.3834769
5.0642414 3.4896209 1.3801467
4.8391132 3.4924073 1.3811489
4.9325628 3.4922915 1.3831997
4.8368788 3.5146384 1.3832678
4.8516011 3.5244493 1.3821121
5.076292 3.523098 1.3816296
4.975297 3.5448451 1.3823191
4.971612 3.5671701 1.3840419
5.1033177 3.5664053 1.3817142
4.986537 3.577116 1.3828703
5.1186666 3.5766335 1.3805095
5.001462 3.5870619 1.3816987
5.0163865 3.5970078 1.3805274
5.1284494 3.0329771 1.386847
5.1463037 3.0448751 1.3854456
5.0106525 3.0734437 1.3874902
5.1412344 3.0752187 1.3880738
5.0279436 3.0849664 1.3861331
5.1589432 3.0870194 1.3866838
5.176652 3.0988207 1.3852938
5.0064883 3.1027822 1.3897388
5.1543183 3.1165328 1.3896886
5.0407915 3.1256423 1.3870462
5.1718874 3.1282411 1.3883096
5.0579433 3.1370721 1.3857
4.9136958 3.1505766 1.3891276
5.0369301 3.1540787 1.3897154
4.9303288 3.1616607 1.387822
5.0539494 3.1654203 1.3883796
4.9469614 3.1727448 1.3865165
4.9437299 3.2000678 1.3889393
5.3737297 3.2087851 1.3860718
4.9602365 3.2110677 1.3876437
4.9767427 3.2220676 1.3863479
4.7275534 3.227937 1.3884895
4.9932494 3.2330675 1.3850523
4.7432308 3.2383845 1.3872589
4.8554163 3.243645 1.3876846
4.8874545 3.2649956 1.3851697
4.869307 3.2798419 1.3891612
5.2764239 3.2945352 1.3863014
4.9011178 3.3010406 1.3866644
5.1754665 3.336529 1.3857943
5.1539898 3.3516061 1.3895181
4.8464108 3.3845828 1.385995
4.942934 3.382314 1.3878087
5.07549 3.4013863 1.386989
4.8441658 3.4083095 1.388266
5.0915098 3.4120615 1.3857316
4.8594065 3.4184661 1.3870698
4.8746481 3.4286227 1.3858734
4.9708586 3.4273906 1.3874764
5.0719113 3.4258623 1.389719
4.7501726 3.4331365 1.3881302
4.7649961 3.4430151 1.3869666
4.8568954 3.4418664 1.3891391
4.7798195 3.4528933 1.3858031
4.8720284 3.4519515 1.3879511
4.8871622 3.4620366 1.3867633
4.9835548 3.4612978 1.3889087
4.7632675 3.4655838 1.3890456
4.9022961 3.4721212 1.3855754
4.999011 3.4715977 1.3876954
5.0997467 3.4711156 1.3897475
4.7779899 3.4753947 1.38789
5.1155386 3.4816391 1.388508
4.9151678 3.5047748 1.3870386
4.791441 3.507102 1.3894118
5.0112262 3.5050352 1.3889428
5.0265751 3.5152636 1.3877381
4.8206959 3.5265975 1.3871156
4.9119134 3.5273867 1.3887278
5.0419235 3.5254917 1.3865334
4.8353233 3.536345 1.3859674
5.057272 3.5357201 1.3853287
4.9417629 3.5472784 1.3863848
5.0383081 3.5482311 1.3888005
4.9241724 3.5593464 1.3898135
4.9566875 3.5572243 1.3852133
5.0535488 3.5583878 1.3876042
4.9389958 3.5692248 1.3886501
5.0687904 3.5685444 1.386408
4.9538193 3.5791032 1.3874866
4.9686427 3.5889816 1.3863231
4.9834661 3.5988603 1.3851594
4.9414887 3.0273528 1.3929189
5.088109 3.0398157 1.3922437
4.9550333 3.0684924 1.3937776
4.9721847 3.0799224 1.3924314
5.1016102 3.081408 1.3938259
4.9893365 3.0913525 1.391085
5.1191797 3.0931163 1.3924469
4.8471637 3.1062393 1.3943497
4.8637967 3.1173239 1.3930441
4.8804297 3.128408 1.3917388
4.8970628 3.139492 1.3904332
4.8777041 3.1560681 1.3941218
4.7773247 3.1636176 1.3917769
4.8942108 3.167068 1.3928262
4.7934642 3.1743727 1.3905102
5.0159864 3.1709478 1.3934505
4.910717 3.1780679 1.3915304
5.0328722 3.1822007 1.392125
4.9272237 3.1890678 1.3902348
4.7753201 3.1902685 1.3939714
4.9075513 3.20526 1.3936859
4.9239311 3.2161756 1.3924003
4.8233776 3.2222943 1.3901993
4.940311 3.2270913 1.3911146
4.8056855 3.2374444 1.394155
4.8534017 3.2692423 1.3904097
4.6184592 3.2966471 1.394771
4.8670101 3.3050938 1.3916726
4.7389708 3.3129842 1.3944284
4.7696676 3.333441 1.3920189
4.6471767 3.3406396 1.3940617
4.7850165 3.3436692 1.3908142
4.6621017 3.3505855 1.3928901
4.8959007 3.3509712 1.3915006
4.7679605 3.3575258 1.3942477
4.6770263 3.3605313 1.3917187
4.8774767 3.3651605 1.3948063
4.6919513 3.3704772 1.3905472
4.6908784 3.3936229 1.3927842
4.7057018 3.4035015 1.3916208
4.796361 3.4015265 1.3938905
4.7205257 3.4133797 1.3904573
4.8114948 3.4116116 1.3927026
4.719101 3.4361508 1.3925124
4.7338228 3.4459617 1.3913568
4.8400068 3.4546871 1.3929383
4.9680986 3.4509976 1.3901218
4.7485452 3.4557729 1.3902012
4.8372898 3.4776571 1.394585
4.9805288 3.4845784 1.3913523
4.9958773 3.4948068 1.3901476
4.9621029 3.4974475 1.3947821
4.9773436 3.5076044 1.3935858
4.9925842 3.517761 1.3923894
4.8797016 3.5297112 1.3933042
4.8945255 3.5395894 1.3921407
4.9093485 3.549468 1.390977
4.8919125 3.5614986 1.3941842
5.0194006 3.5606306 1.3920455
4.9066343 3.5713096 1.3930286
4.9213567 3.5811207 1.3918732
4.936079 3.5909319 1.3907176
4.9035778 3.0342026 1.3978164
5.031333 3.0345752 1.3993422
4.9207296 3.0456326 1.3964702
5.0489025 3.0462835 1.3979629
4.9378815 3.0570626 1.3951238
5.0664721 3.0579917 1.3965839
4.780632 3.0619025 1.399572
5.0840411 3.0696998 1.3952049
4.917798 3.0746889 1.3990663
4.9348168 3.0860302 1.3977305
4.8305306 3.0951552 1.3956553
4.9518356 3.0973716 1.3963946
4.9688549 3.1087132 1.3950588
4.8116784 3.1120684 1.3993043
4.8281851 3.1230683 1.3980087
4.9484425 3.125936 1.3987521
4.8446913 3.1340683 1.3967129
4.9653282 3.1371891 1.3974267
4.8611979 3.1450682 1.3954173
4.982214 3.1484418 1.3961014
4.7593007 3.1795933 1.3952289
4.8747916 3.1834288 1.3962573
4.742064 3.1950469 1.3991488
5.0126553 3.198467 1.3962737
4.7579694 3.205646 1.3979003
4.8724518 3.2101064 1.3988515
4.7738748 3.2162457 1.396652
4.7722611 3.2419529 1.3991097
4.9212308 3.2426128 1.3950227
4.8860741 3.2472546 1.3999438
4.788053 3.2524762 1.3978702
4.8038445 3.263 1.3966306
4.6775761 3.2720706 1.3992473
4.8196359 3.2735233 1.3953911
4.6929245 3.282299 1.3980426
4.8018351 3.2882857 1.3988839
4.8175125 3.2987332 1.3976532
4.7236218 3.3027558 1.3956331
4.8331904 3.3091807 1.3964227
4.706996 3.3168993 1.3990327
4.8488679 3.3196282 1.3951923
4.6173277 3.3207479 1.3964046
4.8152213 3.3236735 1.3996928
4.7222371 3.3270559 1.3978366
4.6019373 3.3343525 1.3997655
4.8307848 3.3340452 1.3984712
4.7374783 3.3372126 1.3966402
4.6167607 3.3442307 1.398602
4.7527194 3.3473692 1.3954438
4.6315842 3.3541093 1.3974384
4.7206936 3.3511014 1.3998297
4.6464081 3.3639877 1.3962749
4.735827 3.3611865 1.3986419
4.6612315 3.3738661 1.3951113
4.7509604 3.3712714 1.397454
4.6307669 3.377285 1.3994459
4.6454892 3.3870959 1.3982903
4.6602116 3.3969069 1.3971347
4.7648449 3.4045992 1.3988379
4.6749339 3.406718 1.395979
4.7798777 3.4146168 1.397658
5.0015383 3.432215 1.3994337
5.0172157 3.4426627 1.398203
5.0328932 3.4531102 1.3969725
4.9316206 3.4771342 1.3971747
4.805584 3.480319 1.3991219
4.8204079 3.4901977 1.3979584
4.8352308 3.5000758 1.3967947
4.8183007 3.512444 1.3999623
4.9437332 3.5102055 1.3979847
4.9588661 3.5202906 1.3967969
4.974 3.5303755 1.395609
4.8624678 3.5418768 1.3964955
4.8771896 3.5516877 1.3953398
4.8497224 3.0293231 1.4044098
4.8667412 3.0406647 1.4030739
4.9918642 3.0415964 1.4040743
4.88376 3.052006 1.401738
5.0092883 3.0532076 1.4027067
4.9007788 3.0633473 1.4004022
4.7456527 3.0680687 1.4044868
4.8808985 3.0809245 1.4040538
4.8977842 3.0921776 1.4027284
4.91467 3.1034305 1.401403
4.9315562 3.1146834 1.4000776
4.792892 3.1288509 1.4026858
4.8092723 3.1397665 1.4014001
4.8256521 3.150682 1.4001144
4.8236728 3.1775999 1.4026803
4.7261586 3.1844473 1.4003973
4.8399324 3.1884356 1.401404
4.8561921 3.1992707 1.4001278
4.7248869 3.2103825 1.4028282
4.8537951 3.2257438 1.4024775
4.7391248 3.2464952 1.4038061
4.6468787 3.2516141 1.4016567
4.8512206 3.2519324 1.4045924
4.7548022 3.2569427 1.4025756
4.6622276 3.2618425 1.400452
4.7704797 3.2673903 1.4013451
4.6460314 3.2762725 1.403818
4.7861576 3.277838 1.4001144
4.7529664 3.2821867 1.4045794
4.8992786 3.2839582 1.4008204
4.661273 3.2864292 1.4026216
4.7685299 3.2925584 1.4033577
4.6765137 3.296586 1.4014255
4.7840939 3.3029301 1.4021361
4.6917553 3.3067427 1.4002291
4.6601591 3.3107615 1.4045812
4.7996578 3.3133018 1.4009144
4.5871139 3.3244739 1.400929
4.675293 3.3208463 1.4033934
4.6904263 3.3309312 1.4022055
4.5718775 3.3380413 1.4040684
4.7055597 3.3410163 1.4010177
4.5866003 3.3478522 1.4029127
4.6013222 3.3576632 1.4017571
4.616045 3.3674741 1.4006015
4.719748 3.3745465 1.4023777
4.7347803 3.3845642 1.4011978
4.7498131 3.3945818 1.4000179
4.7477412 3.4179819 1.4016138
4.911231 3.5125515 1.4029049
4.9412956 3.5325866 1.400545
4.813354 3.035913 1.4093555
4.8640118 3.0696716 1.4053793
5.001996 3.1116557 1.4078419
4.7423744 3.1234226 1.4090616
4.7586341 3.1342578 1.4077853
4.7748938 3.1450934 1.406509
4.6459293 3.1577649 1.4090258
4.6775122 3.178812 1.4065467
4.6607366 3.1942573 1.409959
4.8053765 3.1934776 1.406278
4.676414 3.2047048 1.4087285
4.821516 3.2042332 1.4050112
4.5854845 3.2107005 1.4064759
4.6920919 3.2151523 1.407498
4.8031626 3.2199066 1.4083647
4.6008329 3.2209289 1.4052712
4.5698261 3.2254891 1.4097995
4.7077694 3.2256 1.4062673
4.5850677 3.2356458 1.4086033
4.7234468 3.2360477 1.4050368
4.6907115 3.2407 1.4094659
4.8352013 3.2412572 1.4058498
4.6003084 3.2458024 1.4074069
4.706275 3.2510717 1.4082443
4.6155496 3.255959 1.4062105
4.721839 3.2614434 1.4070226
4.6307907 3.2661157 1.4050144
4.5996256 3.2704213 1.4093326
4.7374029 3.2718151 1.4058009
4.5278196 3.2849603 1.4055831
4.6147585 3.2805061 1.4081448
4.4982662 3.2889864 1.4098462
4.7207999 3.2861972 1.4095329
4.5129886 3.2987974 1.4086906
4.6450262 3.3006763 1.4057691
4.7671685 3.3170972 1.4058934
4.6445866 3.3244588 1.4082772
4.7018194 3.41117 1.4072665
4.7166433 3.4210486 1.406103
4.7964678 3.0246601 1.4106809
4.7780223 3.0421071 1.4146906
4.8115416 3.0644441 1.4120597
4.8283005 3.0756128 1.4107441
4.6773357 3.0800805 1.4141666
4.8095417 3.0926759 1.4145166
4.7098551 3.1017516 1.4116141
4.7261147 3.112587 1.4103378
4.70854 3.1289454 1.4138789
4.724679 3.1397009 1.4126121
4.6301379 3.1472416 1.4102653
4.5980263 3.1524668 1.4148813
4.740819 3.1504562 1.4113452
4.8568745 3.1536076 1.4128395
4.6137037 3.1629143 1.4136509
4.756958 3.1612115 1.4100784
4.8733807 3.1646075 1.4115437
4.7230663 3.1665301 1.4146515
4.6293812 3.173362 1.4124202
4.508862 3.1848624 1.4145848
4.6450591 3.1838098 1.4111897
4.5241032 3.1950192 1.4133884
4.6284566 3.199213 1.4143524
4.5393438 3.2051759 1.4121922
4.6440201 3.2095847 1.4131308
4.5545855 3.2153325 1.4109958
4.659584 3.2199566 1.4119091
4.5390911 3.2300811 1.4140842
4.675148 3.2303283 1.4106876
4.453702 3.235568 1.4114008
4.554225 3.2401662 1.4128963
4.5693583 3.2502513 1.4117085
4.5844917 3.2603364 1.4105206
4.5694251 3.2743711 1.4141768
4.5844574 3.2843885 1.4129969
4.5994897 3.2944062 1.411817
4.614522 3.3044238 1.410637
4.583569 3.3085773 1.4145001
4.7612629 3.0309386 1.416006
4.6122971 3.0367386 1.4192716
4.6285567 3.047574 1.4179953
4.7430096 3.0483389 1.4197389
4.6448164 3.0584097 1.4167191
4.6610761 3.0692451 1.4154428
4.5195971 3.0735769 1.4189419
4.7762756 3.0705075 1.4171277
4.5353889 3.0841005 1.4177023
4.7929087 3.0815916 1.4158221
4.6439819 3.0859239 1.4189463
4.6601214 3.0966792 1.4176794
4.7743425 3.098608 1.4193176
4.6762609 3.1074347 1.4164126
4.7908487 3.1096079 1.418022
4.5353155 3.1106763 1.4198037
4.6924 3.1181901 1.4151458
4.550993 3.1211238 1.418573
4.6589894 3.1238291 1.4196812
4.5666709 3.1315718 1.4173425
4.6750088 3.1345043 1.4184238
4.4478979 3.1442356 1.4193701
4.6910276 3.1451797 1.4171664
4.4631386 3.1543922 1.4181737
4.5662017 3.1577263 1.4192389
4.7070475 3.1558549 1.4159089
4.4783797 3.1645489 1.4169773
4.5817652 3.168098 1.4180173
4.4936209 3.1747055 1.4157811
4.5973291 3.1784697 1.4167957
4.7060876 3.1820765 1.4184334
4.6128931 3.1888413 1.4155741
4.721993 3.1926758 1.4171849
4.5088243 3.2099113 1.4164599
4.5239577 3.2199962 1.415272
4.6280627 3.2243969 1.4168121
4.5092959 3.2343009 1.4188966
4.6435189 3.2346969 1.415599
4.5393605 3.2543359 1.4165367
4.5543928 3.2643535 1.4153568
4.52387 3.2687938 1.419186
4.5537195 3.2886856 1.4168431
4.5686445 3.2986314 1.4156717
4.5535841 3.312386 1.4189018
4.568408 3.3222642 1.4177383
4.5960374 3.0259032 1.4205478
4.709744 3.0261705 1.42235
4.726377 3.0372548 1.4210445
4.8452649 3.0381277 1.4223727
4.5794239 3.0429025 1.4240135
4.8622837 3.0494692 1.4210368
4.5955634 3.0536578 1.4227467
4.7083168 3.0546083 1.4245001
4.6117029 3.0644131 1.4214798
4.724823 3.0656083 1.4232045
4.6278424 3.0751686 1.420213
4.7413297 3.0766082 1.4219087
4.5949125 3.0811281 1.4247106
4.5039601 3.0897813 1.4222647
4.7578363 3.0876081 1.4206132
4.6109314 3.0918033 1.4234532
4.5196381 3.1002288 1.4210342
4.6269507 3.1024785 1.4221958
4.6429701 3.1131539 1.4209384
4.5039463 3.1162393 1.4241254
4.5195103 3.1266112 1.4229039
4.6265607 3.1290796 1.4246756
4.4326563 3.134079 1.4205662
4.5350742 3.1369829 1.4216822
4.5506382 3.1473546 1.4204606
4.535326 3.1625967 1.4240912
4.6742768 3.1608777 1.4209303
4.5507822 3.1728969 1.4228781
4.5816946 3.1934967 1.4204518
4.4790959 3.2389562 1.4227005
4.4940205 3.2489021 1.4215289
4.5089455 3.258848 1.4203576
4.4794669 3.2629938 1.4247195
4.4942904 3.2728722 1.423556
4.5387611 3.3025074 1.4200655
4.5471449 3.0213916 1.4265472
4.5632844 3.0321469 1.4252803
4.6753039 3.0326085 1.4270912
4.5308352 3.0384269 1.4297401
4.6918106 3.0436084 1.4257957
4.5468545 3.0491023 1.4284829
4.5628738 3.0597775 1.4272255
4.5788932 3.0704527 1.4259681
4.7067027 3.0827467 1.4264027
4.4572554 3.0851243 1.4277904
4.5629392 3.0866821 1.4296694
4.5788445 3.0972815 1.428421
4.4883828 3.1058676 1.4253471
4.5947499 3.1078808 1.4271725
4.6106553 3.1184802 1.4259241
4.4735012 3.1213965 1.428944
4.5944185 3.1343641 1.4294118
4.3895473 3.1792808 1.4297293
4.4044724 3.1892266 1.428558
4.4193969 3.1991725 1.4273864
4.4343219 3.2091184 1.4262151
4.4492464 3.2190642 1.4250435
4.4201727 3.2234802 1.4293736
4.4349966 3.2333584 1.4282101
4.4498196 3.243237 1.4270467
4.4646435 3.2531152 1.4258832
4.5148163 3.0277517 1.4309975
4.2954869 3.0426688 1.4313329
4.4105644 3.0540092 1.4314553
4.515223 3.054884 1.4334148
4.4261279 3.0643809 1.4302336
4.458045 3.1110966 1.4301573
4.427978 3.1163573 1.4347233
4.3298483 3.1394973 1.4344152
4.3447733 3.1494431 1.4332439
4.3596983 3.159389 1.4320723
4.459147 3.1622772 1.4342601
4.3746228 3.1693349 1.4309009
4.4743881 3.1724339 1.4330639
4.5776892 3.1761498 1.4344443
4.3608789 3.1839664 1.4340278
4.4896293 3.1825905 1.4318676
4.3757024 3.1938448 1.4328643
4.5048704 3.1927471 1.4306712
4.4745936 3.1975703 1.4348086
4.3905258 3.2037234 1.4317008
4.489727 3.2076552 1.4336207
4.4053493 3.2136016 1.4305371
4.5048604 3.2177403 1.4324329
4.5351276 3.2379103 1.4300572
4.3483095 3.0125225 1.4363418
4.4680867 3.0501761 1.4393278
4.4838781 3.0606997 1.4380883
4.49967 3.071223 1.4368488
4.3665838 3.075444 1.4395422
4.3819323 3.0856724 1.4383374
4.3972807 3.0959008 1.4371327
4.4126291 3.1061289 1.435928
4.3981829 3.1216502 1.4390454
4.2867613 3.1345744 1.4398454
4.4134235 3.1318069 1.437849
4.5154343 3.1346629 1.4393309
4.3015847 3.1444528 1.438682
4.4286647 3.1419635 1.4366528
4.5309978 3.1450346 1.4381093
4.3164082 3.1543312 1.4375185
4.4439058 3.1521204 1.4354565
4.4140596 3.1572301 1.4395601
4.3312316 3.1642096 1.4363548
4.429193 3.1673152 1.4383721
4.346055 3.174088 1.4351913
4.4443264 3.1774001 1.4371843
4.4594603 3.1874852 1.4359964
4.4207125 3.0186057 1.4430465
4.4365039 3.029129 1.4418069
4.4522953 3.0396526 1.4405674
4.3205376 3.0447588 1.4431566
4.335886 3.0549872 1.4419519
4.2253752 3.0698762 1.4426156
4.3512349 3.0652156 1.4407469
4.4528213 3.0665491 1.4425036
4.2403002 3.0798221 1.441444
4.3372183 3.0810237 1.4438306
4.4841766 3.0874443 1.4400426
4.3524594 3.0911803 1.4426343
4.4531794 3.0931759 1.4442174
4.2274671 3.0950608 1.4444996
4.2422905 3.104939 1.4433361
4.3677006 3.101337 1.441438
4.2571144 3.1148176 1.4421724
4.3829417 3.1114936 1.4402417
4.3535252 3.1168902 1.4443115
4.2719374 3.1246958 1.4410089
4.4998703 3.1242909 1.4405525
4.368659 3.1269751 1.4431236
4.3837924 3.1370602 1.4419358
4.3989258 3.1471453 1.4407479
4.2744918 3.0140738 1.4467708
4.2898407 3.0243022 1.4455661
4.390111 3.0247586 1.447426
4.4946012 3.0253639 1.4491628
4.261013 3.0302401 1.4498122
4.4057884 3.0352063 1.4461955
4.5106206 3.0360391 1.4479054
4.1806011 3.0400386 1.4461299
4.2762542 3.0403967 1.4486159
4.2914953 3.0505533 1.4474195
4.3909245 3.0516891 1.449104
4.1681728 3.055547 1.4491538
4.306736 3.0607102 1.4462233
4.4064879 3.0620608 1.4478823
4.1829967 3.0654254 1.4479901
4.3219771 3.0708668 1.4450269
4.4220514 3.0724325 1.4466606
4.2929912 3.0765502 1.4490629
4.4376154 3.0828042 1.4454391
4.2126436 3.0851822 1.4456631
4.3081245 3.0866351 1.447875
4.3232584 3.0967202 1.4466872
4.3383918 3.1068051 1.4454993
4.3249712 3.1218669 1.4489216
4.1088791 3.0160332 1.4538077
4.2457719 3.0200834 1.4510084
4.344233 3.0205741 1.4527688
4.3597965 3.0309458 1.4515473
4.2324572 3.0362101 1.4538144
4.3753605 3.0413175 1.4503256
4.1533494 3.0456686 1.4503173
4.2475905 3.0462952 1.4526266
4.2627239 3.05638 1.4514387
4.2778578 3.0664651 1.4502509
4.264842 3.0817969 1.4536413
4.2798748 3.0918143 1.4524614
4.2949066 3.1018319 1.4512814
4.3099394 3.1118495 1.4501015
4.2021899 3.0160401 1.4561901
4.2173238 3.026125 1.4550023
4.2047129 3.0417266 1.458361
4.2197456 3.0517442 1.4571811
4.2065415 3.0676513 1.4595397
4.1746483 3.0216916 1.4607209
4.146843 3.0278678 1.4642256
4.131918 3.0179219 1.4653971
