# .PCD v0.7 - Point Cloud Data file format
VERSION 0.7
FIELDS x y z
SIZE 4 4 4
TYPE F F F
COUNT 1 1 1
WIDTH 135
HEIGHT 1
VIEWPOINT 0 0 0 1 0 0 0
POINTS 135
DATA ascii
5.0509105 2.5102839 -1.5182669
5.0247598 2.5331025 -1.5187027
5.0657654 2.5335033 -1.5194173
5.0406437 2.5505466 -1.5199747
5.05408 2.552026 -1.5115459
5.0285478 2.4967527 -1.5094404
4.9926915 2.5002038 -1.4926181
5.0085754 2.5176477 -1.4938899
5.0162725 2.5387645 -1.4907981
4.9692869 2.501431 -1.4877164
4.9849486 2.5138755 -1.4887437
5.0006108 2.52632 -1.4897709
5.071599 2.5319991 -1.4875022
4.9962974 2.546752 -1.4853456
5.0407443 2.5258112 -1.4800708
5.0535107 2.553448 -1.4811234
5.0118561 2.5235052 -1.4788513
5.0265555 2.5464809 -1.4799895
5.0161438 2.5405731 -1.4708498
4.9812636 2.5079522 -1.4655671
5.0795074 2.5601625 -1.4655092
4.9652815 2.5264773 -1.4610062
4.9802599 2.5314369 -1.4607568
5.0646524 2.5369432 -1.4643588
4.9960003 2.5487237 -1.4620173
4.9341955 2.5017774 -1.4589673
4.9497385 2.5141273 -1.4599867
4.964519 2.5141506 -1.4594964
4.9966063 2.5022316 -1.4504726
4.9611659 2.5495257 -1.4542285
5.0529408 2.5548699 -1.450701
5.0397439 2.5565152 -1.449352
4.9738269 2.5363884 -1.4403188
4.9807005 2.5093579 -1.4354947
4.9933195 2.5366766 -1.4365351
4.9147682 2.5145411 -1.4315492
4.9373465 2.5276346 -1.4271345
5.071207 2.5375071 -1.4267468
4.952949 2.5447695 -1.4283838
5.025454 2.5498848 -1.425509
4.9685512 2.561904 -1.4296333
5.0107546 2.5269091 -1.4243705
5.0523715 2.5562918 -1.4202785
4.8932962 2.5474572 -1.4180645
4.8992176 2.5040669 -1.4108927
4.9146414 2.5163221 -1.4119043
4.9116182 2.5388947 -1.405812
4.9214492 2.5124545 -1.4027619
5.0102043 2.5286109 -1.3971303
4.9101796 2.5410845 -1.3951826
5.0249033 2.5515866 -1.3982685
4.9256434 2.5580673 -1.3964208
4.914515 2.5181031 -1.3922597
4.9344521 2.5202968 -1.3929486
4.9469275 2.5473046 -1.3939774
4.9951086 2.5546384 -1.3920324
4.9114923 2.5406623 -1.3863114
4.9268036 2.5528278 -1.3873156
4.9102964 2.5339191 -1.3750951
4.960659 2.5566497 -1.3756496
4.8806419 2.5149627 -1.3735209
4.8954692 2.5244408 -1.374308
5.0243526 2.5532885 -1.3710282
4.8960562 2.5302651 -1.3658067
4.9110508 2.5527608 -1.3699713
4.9948115 2.5566101 -1.3687043
4.9338956 2.5216863 -1.3632185
4.9463711 2.5486941 -1.3642473
4.8840127 2.5540743 -1.3639598
4.8805842 2.5165105 -1.3559738
4.9208603 2.5163629 -1.3565152
4.9576445 2.518703 -1.358315
4.9721918 2.5414412 -1.3594415
4.8929214 2.552722 -1.3599952
4.8815308 2.5354652 -1.3509742
4.8962622 2.5448818 -1.3517561
4.9109926 2.5542986 -1.3525381
4.8520694 2.5166316 -1.3494102
4.8959308 2.532033 -1.3463062
4.892797 2.5544767 -1.3406389
4.9109354 2.5558364 -1.3351051
4.9333386 2.5230758 -1.3334887
4.8667431 2.5275862 -1.332759
4.8962045 2.5464196 -1.334323
4.9458141 2.5500836 -1.3345175
4.8804941 2.5216355 -1.3258014
4.8938394 2.5299127 -1.3251891
4.8598738 2.5322695 -1.327487
4.8958054 2.5338011 -1.3268056
4.8666682 2.5471005 -1.3274897
4.9093037 2.5468955 -1.3264275
4.8341932 2.5332358 -1.3217533
4.9208035 2.5314283 -1.321475
4.8666849 2.529124 -1.3153257
4.8814158 2.5385408 -1.3161077
4.8961468 2.5479574 -1.3168898
4.8455276 2.525579 -1.3105279
4.9358735 2.5374062 -1.311518
4.8483715 2.5424988 -1.3061053
4.8625898 2.5504553 -1.3067095
4.8803892 2.522279 -1.3048168
4.8946133 2.533709 -1.304788
4.9452577 2.5514731 -1.3047876
4.846221 2.5243268 -1.2965564
4.8813581 2.5400786 -1.2986746
4.8960891 2.5494952 -1.2994566
4.8625498 2.5517619 -1.2904572
4.848331 2.5438054 -1.289853
4.8772249 2.5476661 -1.2815729
4.9087195 2.5507693 -1.2805909
4.8932552 2.5337865 -1.2793525
4.8664966 2.5516818 -1.2755545
4.9447012 2.5528626 -1.2750576
4.8340716 2.5371552 -1.2729964
4.8518686 2.5423307 -1.274778
4.9352841 2.5413146 -1.2652713
4.8619032 2.5373454 -1.2612197
4.8771005 2.5494208 -1.2622164
4.8356071 2.5364842 -1.256717
4.8482499 2.5464182 -1.2573485
4.8940134 2.5354998 -1.2539566
4.9700122 2.5481784 -1.2516052
4.9441447 2.5542524 -1.2453275
4.9349895 2.5432692 -1.242148
4.8482094 2.5477247 -1.2410961
4.8517542 2.5453849 -1.2401545
4.8769755 2.5511756 -1.2428601
4.8811278 2.5462298 -1.228942
4.844419 2.5453107 -1.223732
4.851697 2.546912 -1.2228429
4.9346952 2.5452232 -1.2190247
4.83391 2.5423813 -1.2079873
4.8516397 2.548439 -1.2055311
4.8338695 2.5436876 -1.191735
4.8338289 2.5449941 -1.1754827
