# .PCD v0.7 - Point Cloud Data file format
VERSION 0.7
FIELDS x y z
SIZE 4 4 4
TYPE F F F
COUNT 1 1 1
WIDTH 1015
HEIGHT 1
VIEWPOINT 0 0 0 1 0 0 0
POINTS 1015
DATA ascii
4.2832174 2.365447 1.4460541
4.2671599 2.3900225 1.4497746
4.2853117 2.4021187 1.4483498
4.303463 2.4142148 1.4469252
4.3216143 2.4263108 1.4455004
4.2490087 2.3779263 1.4511994
4.1047611 2.4049497 1.4538881
4.233182 2.4024463 1.4545872
4.2511816 2.4144411 1.4531744
4.1223307 2.4166579 1.452509
4.1398997 2.4283662 1.4511299
4.2691813 2.4264364 1.4517616
4.1401005 2.3053498 1.4597478
4.1582518 2.317446 1.4583231
4.176403 2.3295419 1.4568983
4.1945543 2.3416381 1.4554735
4.0520535 2.3698254 1.4580252
4.1791835 2.3664618 1.4588257
4.1971831 2.3784566 1.4574128
4.0696225 2.3815336 1.4566462
4.0871916 2.3932419 1.4552671
4.2151828 2.3904514 1.4560001
3.9181411 2.3967404 1.4599186
4.2000408 2.4142838 1.4597199
4.217895 2.4261818 1.4583185
4.0856466 2.2690613 1.464022
4.1219492 2.2932537 1.4611726
4.2576113 2.3256648 1.4643892
3.9993453 2.3347006 1.4621624
4.2760663 2.3379631 1.4629407
4.1431847 2.3424716 1.4616513
4.1611843 2.3544664 1.4602386
4.1464791 2.3785901 1.4639242
4.0381193 2.3939636 1.4609039
4.1643329 2.3904881 1.4625227
4.1821871 2.4023857 1.4611213
4.013041 2.2206769 1.469721
4.0674949 2.2569654 1.4654468
3.9290681 2.2878675 1.4676787
4.2022462 2.2887692 1.468735
4.0711865 2.2944922 1.4673027
3.9466372 2.2995758 1.4662995
4.2207012 2.3010678 1.4672863
4.2391562 2.3133662 1.4658378
4.0750628 2.3309979 1.4695297
4.2235141 2.3383241 1.4696826
4.092917 2.342896 1.4681283
4.1107712 2.354794 1.4667269
4.2418175 2.3505213 1.468246
4.1286249 2.3666921 1.4653255
3.9585867 2.1843886 1.4739952
3.976738 2.1964848 1.4725705
3.9948895 2.208581 1.4711457
4.1284261 2.2395754 1.4745293
4.1468811 2.2518737 1.4730806
4.1653361 2.2641723 1.4716321
4.1837912 2.2764709 1.4701835
4.0433078 2.3435578 1.4742523
3.9430799 2.394125 1.4732081
4.0825901 2.4023311 1.473811
3.9602318 2.4055548 1.4718618
4.1177287 2.4257474 1.471053
3.9404354 2.1722925 1.47542
4.073061 2.2026799 1.478875
4.0915155 2.2149785 1.4774264
4.109971 2.2272768 1.4759779
3.9500849 2.2477126 1.4793395
3.9679389 2.2596107 1.4779382
4.1136951 2.2651403 1.4783026
3.9857929 2.2715082 1.4765368
4.0036469 2.2834063 1.4751353
3.9724736 2.2963538 1.4798123
3.9901824 2.3081551 1.4784223
4.1353464 2.3147402 1.478906
4.0255995 2.3317566 1.4756423
4.0123129 2.3554981 1.4793273
4.0298824 2.3672063 1.4779483
3.9087765 2.3712649 1.4759007
3.8966649 2.3942037 1.4792174
4.065021 2.3906229 1.47519
4.0335555 2.4029775 1.4792942
3.9136837 2.405545 1.4778816
4.0509796 2.4145887 1.4779265
3.9307024 2.4168863 1.4765457
3.7358055 2.1590772 1.4828482
3.7533748 2.1707854 1.4814692
4.0546055 2.1903813 1.4803236
3.896523 2.2120185 1.4835438
4.040482 2.216351 1.4840492
3.9143767 2.2239165 1.4821423
4.0587854 2.2285483 1.4826125
3.9193482 2.260951 1.4839822
4.0627408 2.2663558 1.4846051
4.0990438 2.2905478 1.4817555
3.805866 2.3026853 1.4839783
4.1171951 2.302644 1.4803308
3.9420357 2.3086653 1.4848434
3.8230176 2.314115 1.482632
3.959605 2.3203733 1.4834644
3.8401694 2.3255453 1.4812857
3.9771743 2.3320816 1.4820853
3.9947438 2.3437898 1.4807063
3.8285892 2.3488379 1.4845607
3.9638605 2.3565323 1.4847647
3.8456082 2.3601794 1.4832249
3.9812841 2.3681436 1.483397
3.862627 2.3715208 1.481889
3.998708 2.3797548 1.4820294
3.8508506 2.3944988 1.4849045
4.0161319 2.3913662 1.4806617
3.7387609 2.397074 1.4835199
3.8677368 2.4057517 1.4835792
3.7589216 2.0513315 1.4896674
3.7831941 2.1025732 1.4899079
3.8011937 2.114568 1.488495
3.8485143 2.213747 1.4895421
3.8662229 2.2255478 1.4881521
4.008287 2.2300673 1.4888792
3.8839312 2.237349 1.4867622
4.0264382 2.2421634 1.4874545
3.9016397 2.2491498 1.4853722
4.0445895 2.2542596 1.4860297
3.8893278 2.2735405 1.4889807
4.0304732 2.279814 1.4891263
3.9068971 2.2852488 1.4876016
4.0484724 2.2918088 1.4877135
3.9244664 2.296957 1.4862226
4.0664721 2.3038039 1.4863006
3.7775326 2.3148136 1.4885683
3.9115891 2.3216987 1.4888676
3.7945516 2.3261552 1.4872324
3.9290128 2.3333099 1.4875
3.8115704 2.3374965 1.4858966
3.656229 2.3420744 1.489998
3.9464366 2.3449211 1.4861324
3.6727352 2.3530743 1.4887024
3.8001926 2.3607402 1.4888809
3.8170786 2.3719931 1.4875554
3.8339646 2.3832459 1.48623
3.9859588 2.4025488 1.4858153
3.8227315 2.4054992 1.4896735
3.7407703 2.0392354 1.4910921
3.7715447 2.1287332 1.4933535
3.9123597 2.13097 1.4941058
3.9306629 2.1431673 1.4926691
3.9356813 2.1816828 1.4945782
3.8130972 2.190145 1.4923221
3.9538326 2.193779 1.4931535
3.8308058 2.2019463 1.4909321
3.9719839 2.2058752 1.4917288
3.9901354 2.2179713 1.490304
3.6858037 2.2226753 1.4934022
3.8190506 2.2267077 1.4944969
3.8366199 2.238416 1.4931177
3.8541892 2.250124 1.4917387
3.8717585 2.2618322 1.4903597
3.7094569 2.269448 1.4939117
3.8418939 2.2752535 1.4943382
3.8593175 2.2868648 1.4929705
3.8767414 2.2984762 1.4916029
3.8941653 2.3100874 1.4902352
3.8822131 2.3334126 1.4939585
3.8995042 2.3449354 1.4926013
3.7833066 2.3494873 1.4902062
3.7556934 2.3608251 1.4949354
3.7724528 2.3719935 1.49362
3.7892125 2.383162 1.4923044
3.8059719 2.3943307 1.4909891
3.8391469 2.0821807 1.4998524
3.85745 2.094378 1.4984158
3.8757534 2.1065753 1.4969791
3.8940563 2.1187725 1.4955425
3.7245548 2.13114 1.499272
3.8812273 2.1453946 1.4988525
3.8993788 2.1574907 1.4974277
3.7776804 2.166543 1.495102
3.9175301 2.1695869 1.4960029
3.7663426 2.1915829 1.498634
3.7839119 2.2032912 1.497255
3.8014812 2.2149994 1.495876
3.9404755 2.2198393 1.4961904
3.7721987 2.2288086 1.4998087
3.6584003 2.2354238 1.4979193
3.7896225 2.2404199 1.498441
3.8070462 2.2520311 1.4970734
3.82447 2.2636423 1.4957057
3.6819904 2.28197 1.4981588
3.6988764 2.2932229 1.4968333
3.7157626 2.3044758 1.495508
3.864922 2.3218899 1.4953157
3.705415 2.3273194 1.4988819
3.7221744 2.3384879 1.4975663
3.738934 2.3496563 1.496251
3.8871326 2.3687081 1.49535
3.7283995 2.3722005 1.4993778
3.7616653 2.3943689 1.4967667
3.7782984 2.4054532 1.4954611
3.7842371 2.0455887 1.5041624
3.8025403 2.0577862 1.5027257
3.8208437 2.0699835 1.5012891
3.6714292 2.095737 1.5034419
3.8267732 2.1091063 1.5031266
3.7068462 2.119339 1.500662
3.8449247 2.1212025 1.501702
3.863076 2.1332984 1.5002772
3.6960654 2.1447501 1.5041503
3.8324785 2.1478698 1.5046674
3.7136347 2.1564584 1.5027713
3.8504779 2.1598649 1.5032545
3.731204 2.1681664 1.501392
3.8684773 2.1718597 1.5018417
3.7487733 2.1798747 1.500013
3.886477 2.1838546 1.5004288
3.7199273 2.1939747 1.5039116
3.7373509 2.2055862 1.5025439
3.7547748 2.2171974 1.5011762
3.7438858 2.241231 1.5048161
3.7611766 2.2527537 1.5034589
3.7784677 2.2642765 1.5021017
3.7957585 2.2757988 1.5007445
3.7670703 2.2886987 1.504774
3.671896 2.3049822 1.5015129
3.6886554 2.3161507 1.5001975
3.6951337 2.3500321 1.501989
3.6849186 2.3726137 1.5048288
3.7014251 2.3836136 1.5035332
3.5949163 2.3868244 1.5012897
3.7179315 2.3946135 1.5022377
3.6110559 2.3975799 1.5000229
3.7344379 2.4056134 1.5009421
3.7293277 2.008997 1.5084724
3.7541678 2.0607219 1.5088257
3.7723191 2.0728178 1.5074009
3.6433575 2.1096253 1.5082873
3.6609268 2.1213336 1.5069083
3.7964792 2.1238799 1.5074929
3.6784961 2.1330419 1.5055293
3.8144789 2.135875 1.50608
3.6502321 2.1475298 1.5093821
3.6676559 2.1591411 1.5080144
3.8025765 2.1617656 1.5093951
3.6850796 2.1707523 1.5066469
3.7025034 2.1823635 1.5052792
3.7093039 2.2181854 1.5075306
3.7327666 2.2658386 1.5074666
3.7499185 2.2772684 1.5061202
3.7390375 2.3009355 1.5092028
3.6286018 2.3056951 1.5072113
3.7560563 2.3122768 1.507867
3.6452346 2.3167794 1.5059057
3.7730751 2.3236182 1.5065311
3.6353993 2.3396139 1.5087157
3.6519058 2.3506138 1.5074202
3.6684122 2.3616138 1.5061246
3.5216217 2.365885 1.5089556
3.64201 2.3732336 1.5099728
3.537641 2.3765602 1.5076982
3.6583898 2.3841491 1.5086871
3.5536602 2.3872354 1.5064408
3.7488449 2.3885982 1.5090016
3.5696795 2.3979108 1.5051836
3.6747699 2.3950646 1.5074015
3.6815622 2.0123374 1.5145246
3.6997137 2.0244336 1.5130999
3.717865 2.0365295 1.5116751
3.7360163 2.0486257 1.5102503
3.5730803 2.0627925 1.5138036
3.7064817 2.0639055 1.514557
3.5906496 2.0745008 1.5124246
3.7244811 2.0759003 1.5131441
3.6082189 2.0862088 1.5110456
3.7424808 2.0878952 1.5117315
3.7604804 2.0998902 1.5103186
3.5979607 2.1126959 1.513485
3.6153846 2.1243074 1.5121174
3.6228492 2.1605718 1.5143166
3.6401401 2.1720943 1.5129594
3.6574311 2.1836171 1.5116022
3.674722 2.1951399 1.510245
3.6470079 2.2086887 1.5141979
3.6813116 2.2315488 1.5115054
3.6984632 2.2429786 1.5101591
3.6709619 2.2555697 1.5145463
3.5620699 2.261358 1.5124334
3.5787029 2.2724423 1.5111278
3.5693736 2.2956145 1.5138983
3.58588 2.3066142 1.5126027
3.6023865 2.3176141 1.5113071
3.6188929 2.328614 1.5100113
3.5928705 2.3404868 1.5138299
3.6092503 2.3514023 1.5125442
3.6256301 2.3623178 1.5112585
3.6271081 1.9760489 1.5187988
3.6452594 1.9881451 1.517374
3.6634109 2.0002413 1.5159494
3.652483 2.0279207 1.5187956
3.6704826 2.0399156 1.5173827
3.555511 2.0510843 1.5151826
3.688482 2.0519104 1.5159699
3.5456893 2.0778623 1.5175879
3.6954527 2.0903778 1.5178035
3.5882673 2.1375263 1.517031
3.5784011 2.1629691 1.519583
3.5955527 2.1743989 1.5182368
3.6127045 2.1858289 1.5168905
3.6298561 2.1972589 1.5155442
3.6028862 2.2102041 1.5198897
3.6199052 2.2215455 1.5185539
3.636924 2.2328868 1.517218
3.6539431 2.2442284 1.5158821
3.6269097 2.256947 1.5199578
3.5198545 2.2626147 1.5177852
3.6437957 2.2681999 1.5186324
3.5363607 2.2736144 1.5164896
3.6606817 2.2794528 1.5173069
3.5528672 2.2846143 1.5151938
3.5273509 2.2968245 1.5189726
3.5511594 2.3408439 1.51939
3.7177849 2.3471582 1.5152556
3.5836787 2.362515 1.5168375
3.5906892 2.395174 1.5183245
3.5908053 1.9518569 1.5216483
3.6089568 1.963953 1.5202236
3.5804849 1.9799409 1.5244468
3.5984845 1.9919357 1.523034
3.6164842 2.0039308 1.5216211
3.6344836 2.0159256 1.5202085
3.6061826 2.0308881 1.5248106
3.6240366 2.0427861 1.5234091
3.6418905 2.0546839 1.5220077
3.6597445 2.066582 1.5206063
3.6313744 2.0812964 1.5249127
3.5269458 2.1286793 1.5236219
3.5440974 2.1401091 1.5222756
3.5612493 2.1515391 1.5209293
3.5518298 2.1761796 1.5238973
3.5688486 2.1875212 1.5225614
3.5858674 2.1988626 1.5212256
3.7327876 2.2146003 1.5209342
3.5762517 2.2231884 1.523934
3.470335 2.229615 1.5216721
3.5931377 2.2344413 1.5226086
3.6100237 2.2456942 1.5212833
3.6004686 2.2689784 1.524464
3.617228 2.2801468 1.5231485
3.4861207 2.297502 1.524495
3.5099916 2.3413973 1.5246586
3.5334454 2.3848476 1.5246061
3.4337759 2.387455 1.5224909
3.5494647 2.3955228 1.5233487
3.5624855 1.9679461 1.5258597
3.5704744 2.0070922 1.5276133
3.5883284 2.0189903 1.526212
3.6387558 2.1187146 1.5268313
3.4837542 2.1308141 1.5292407
3.500773 2.1421554 1.5279049
3.517792 2.153497 1.526569
3.5348108 2.1648383 1.5252331
3.5255935 2.18943 1.5279104
3.5424795 2.2006826 1.5265849
3.5593657 2.2119355 1.5252595
3.55019 2.2354727 1.5284106
3.0962603 2.2926509 1.5298089
3.4454341 2.2983756 1.5297259
3.1112926 2.3026683 1.5286289
3.4615736 2.3091311 1.5284591
3.4777129 2.3198864 1.5271922
3.1209445 2.3338811 1.5293049
3.4693682 2.3421466 1.5296357
3.4853876 2.3528218 1.5283782
3.5014067 2.363497 1.5271208
3.3637173 2.3671565 1.5297318
3.517426 2.3741724 1.5258635
3.3948448 2.3878999 1.5272884
3.5090179 2.3953514 1.5288547
3.4904873 1.9199662 1.5315109
3.5084867 1.9319613 1.5300981
3.4812043 1.9476025 1.5346203
3.5428319 2.0222917 1.5318626
3.5684786 2.0718818 1.5323476
3.5860479 2.08359 1.5309684
3.5585496 2.0984876 1.5346105
3.5759735 2.1100988 1.5332429
3.4667354 2.1194727 1.5305766
3.4411635 2.1331656 1.5345374
3.610821 2.1333215 1.5305077
3.4749355 2.1556714 1.5318866
3.4918215 2.1669242 1.5305612
3.4663925 2.1796298 1.5349879
3.5166712 2.2131355 1.5310415
3.1288128 2.2252936 1.5344917
3.144269 2.2355936 1.5332783
3.5078146 2.2367101 1.5339056
3.0361311 2.2525806 1.5345286
3.4292946 2.2876203 1.5309927
3.0612454 2.2940977 1.5339907
3.5485439 2.2931538 1.5326158
3.4052913 2.2994454 1.5346652
3.5650506 2.3041539 1.5313202
3.4213104 2.3101208 1.5334078
3.5394406 2.3162138 1.5349755
3.5815568 2.3151536 1.5300246
3.4373298 2.320796 1.5321504
3.4533491 2.3314712 1.5308931
3.3170261 2.3360415 1.5333966
3.5722003 2.3380449 1.5324042
3.3325899 2.3464131 1.5321749
3.1157036 2.3541789 1.5317644
3.2033775 2.3504293 1.5345892
3.4453964 2.3529539 1.5338485
3.3481536 2.3567848 1.5309533
3.4613018 2.3635533 1.5326
3.1105156 2.3743725 1.5340101
3.4772072 2.3741527 1.5313516
3.4931126 2.384752 1.5301032
3.4719977 1.9750876 1.5374225
3.4897063 1.9868889 1.5360326
3.4806321 2.0133405 1.5392427
3.4982014 2.0250487 1.5378637
3.5157707 2.036757 1.5364847
3.53334 2.0484653 1.5351056
3.5062783 2.0636539 1.5387135
3.5237021 2.0752652 1.5373458
3.5411258 2.0868764 1.5359782
3.1531787 2.1203537 1.5378755
3.1691978 2.1310289 1.5366181
3.1632652 2.1539364 1.5395329
3.441283 2.1923735 1.5391279
3.4579158 2.2034574 1.5378224
3.1133566 2.2149937 1.5357047
3.3163183 2.2123327 1.5398605
3.0926471 2.22649 1.5395364
3.4911819 2.225626 1.5352112
3.107996 2.2367184 1.5383316
3.466012 2.2381544 1.5390941
3.1233444 2.2469468 1.5371269
3.4825184 2.2491541 1.5377983
3.1386931 2.257175 1.5359222
3.3412142 2.2567444 1.5396948
3.4990249 2.2601542 1.5365027
3.1179321 2.2684884 1.5395352
3.3572335 2.2674196 1.5384374
3.5155313 2.2711542 1.5352072
3.1331735 2.2786455 1.5383388
3.3732529 2.278095 1.5371799
3.2392075 2.2841825 1.5395048
3.389272 2.2887702 1.5359226
3.2547712 2.2945547 1.5382831
3.506681 2.2943826 1.537547
3.270335 2.3049259 1.5370615
3.5230608 2.3052983 1.5362612
3.0564096 2.3146653 1.5364186
3.3976803 2.3211558 1.5375938
3.4135857 2.3317552 1.5363454
3.0516267 2.3351288 1.5386325
3.2793264 2.3362901 1.5386732
3.0663488 2.3449392 1.5374769
3.429491 2.3423545 1.535097
3.1674848 2.3505154 1.5397755
3.4059203 2.353272 1.5390425
3.3102388 2.35689 1.5362468
3.0957932 2.3645616 1.5351657
3.4217119 2.3637955 1.5378029
3.303508 2.3776276 1.5388699
3.2125816 2.380568 1.5362357
3.4532948 2.3848424 1.5353239
3.0909796 1.8881192 1.5445485
3.1188328 1.9364197 1.5449241
3.5497487 1.9370549 1.543656
3.5577712 1.977258 1.5448576
3.436583 2.0172088 1.544184
3.4540069 2.02882 1.5428164
3.4714308 2.0404313 1.5414487
3.4888544 2.0520427 1.540081
3.462702 2.0658126 1.5447813
3.514575 2.1003809 1.5407099
3.0996437 2.1115389 1.5445267
3.1155491 2.1221383 1.5432783
3.1314545 2.1327376 1.5420299
3.1473598 2.1433372 1.5407814
3.3747511 2.1480365 1.5443501
3.0206196 2.1531932 1.5429839
3.1258092 2.1556795 1.5446862
3.0360756 2.1634934 1.5417708
3.5133345 2.1623015 1.5445319
3.1416006 2.166203 1.5434467
3.4080169 2.1702049 1.541739
3.1573923 2.1767266 1.5422071
3.42465 2.1812892 1.5404334
3.3999863 2.1941547 1.5442766
3.06195 2.2060332 1.5419458
3.4164927 2.2051544 1.5429808
3.5380571 2.2094185 1.5444075
3.0772984 2.2162616 1.5407411
3.4329991 2.2161546 1.5416852
3.182934 2.2202935 1.5421799
3.2931564 2.2247186 1.5434669
3.056968 2.2278619 1.5443203
3.4495056 2.2271545 1.5403897
3.3091757 2.2353938 1.5422095
3.4247813 2.2398047 1.5439754
3.1769526 2.2426958 1.5443913
3.3251948 2.2460692 1.5409521
3.1925163 2.2530675 1.5431697
3.4411614 2.2507203 1.5426897
3.1026912 2.2583318 1.5407314
3.2080801 2.2634392 1.5419481
3.4575412 2.2616358 1.541404
3.0823092 2.2697492 1.5440921
3.2236438 2.2738109 1.5407264
3.4739211 2.2725515 1.5401183
3.2020457 2.2847898 1.5447391
3.3499641 2.2893577 1.5413392
3.2175019 2.29509 1.5435259
3.3658695 2.299957 1.5400908
3.1277099 2.3000042 1.5405284
3.2329578 2.3053899 1.5423127
3.1073556 2.3104451 1.544495
3.3427544 2.311178 1.5440005
3.4981217 2.3167491 1.5403804
3.3585458 2.3217015 1.542761
3.3901289 2.3427484 1.5402819
3.2728107 2.3571708 1.5412794
3.382637 2.364223 1.54273
3.1618097 2.3714399 1.541543
3.4139924 2.385118 1.5402688
3.2564936 1.7640324 1.5498778
3.4771433 1.8886704 1.5493549
3.5315971 1.9249589 1.5450808
3.3576469 1.9313831 1.5488962
3.3752162 1.9430912 1.5475171
3.5037727 1.9412732 1.5490961
3.5217721 1.9532681 1.5476832
3.5397716 1.9652631 1.5462705
3.1296132 1.9731679 1.546378
3.3668878 1.9707639 1.5496545
3.146246 1.9842522 1.5450724
3.3843117 1.9823751 1.5482869
3.5300903 1.9925327 1.5492605
3.1237004 1.9986167 1.5488802
3.1402068 2.0096166 1.5475844
3.156713 2.0206165 1.5462888
3.0250244 2.0349514 1.5479347
3.1342335 2.0348501 1.5498294
3.4108293 2.0312443 1.548853
3.4281201 2.042767 1.5474957
3.1506135 2.0457656 1.5485437
3.4454112 2.0542898 1.5461386
3.1669934 2.0566814 1.5472579
3.0360222 2.0691414 1.5495205
3.1833732 2.0675969 1.5459722
3.419543 2.0689726 1.5498027
3.0519276 2.0797408 1.5482721
3.4366949 2.0804026 1.5484565
3.0678329 2.0903401 1.5470237
3.1771867 2.0916278 1.5487441
3.4538465 2.0918326 1.5471102
3.0837383 2.1009398 1.5457752
3.3082192 2.1036997 1.5495723
3.0626431 2.1135855 1.5496441
3.3248522 2.1147838 1.5482668
3.0784345 2.124109 1.5484048
3.4622779 2.1282773 1.5485395
3.0942261 2.1346323 1.5471653
3.3581181 2.1369524 1.5456557
3.1100178 2.1451559 1.5459257
3.3339605 2.1501551 1.5494591
3.0888684 2.157608 1.5495635
3.350467 2.161155 1.5481633
3.1045461 2.1680555 1.5483328
3.2130601 2.1713421 1.5497539
3.3669734 2.1721549 1.5468677
3.1202235 2.178503 1.5471023
3.4873989 2.1756599 1.5483838
3.2290792 2.1820176 1.5484965
3.3834798 2.1831548 1.5455722
3.1359012 2.1889508 1.5458716
3.5042849 2.1869128 1.5470585
3.2450986 2.1926928 1.5472391
3.359262 2.1961424 1.5491182
3.3756418 2.207058 1.5478325
3.3920217 2.2179735 1.5465468
3.0217752 2.2294092 1.5488435
3.2545319 2.2257614 1.5488299
3.4084015 2.2288892 1.5452611
3.1613886 2.2323241 1.5456129
3.0520422 2.2495792 1.5464678
3.2863426 2.2469602 1.546333
3.1556771 2.2538898 1.5483787
3.4005637 2.2517362 1.5480381
3.0671759 2.2596641 1.54528
3.1711333 2.2641897 1.5471655
3.4168234 2.2625718 1.5467619
3.2795882 2.269084 1.5489585
3.0472264 2.270375 1.5492147
3.1865895 2.2744899 1.5459523
3.2953796 2.2796075 1.547719
3.1653705 2.2855723 1.5497127
3.077291 2.29041 1.5468549
3.0923233 2.3004277 1.5456749
3.1960676 2.3060291 1.5473032
3.0722613 2.3117647 1.5485719
3.3042488 2.311985 1.5488828
3.0871861 2.3217106 1.5474005
3.190146 2.327157 1.5496401
3.1021109 2.3316565 1.5462289
3.0821741 2.3420911 1.5497371
3.220628 2.3474703 1.5472474
3.3285136 2.3544648 1.548602
3.2358689 2.3576272 1.5460511
3.3440773 2.3648365 1.5473803
3.1266446 2.3717265 1.5462465
3.229681 2.3784285 1.5481864
3.3596411 2.3752081 1.5461589
3.2024949 1.7280476 1.5541161
3.2312481 1.7810311 1.55424
3.1100945 1.787581 1.5517787
3.1275182 1.7991922 1.5504111
3.422689 1.8523822 1.5536293
3.4408402 1.8644781 1.5522045
3.4589918 1.8765745 1.5507797
3.0630813 1.9288311 1.5516001
3.1944332 1.93801 1.5519501
3.211452 1.9493513 1.5506142
3.0576746 1.954617 1.5540627
3.1878731 1.9643724 1.5544188
3.0741811 1.9656169 1.5527669
3.0906875 1.9766169 1.5514714
3.2047591 1.9756253 1.5530933
3.5122364 1.9806347 1.5506619
3.1071939 1.9876168 1.5501758
3.0687139 1.9911878 1.5549722
3.3589563 1.9966764 1.5529248
3.085094 2.0021033 1.5536864
3.1014738 2.0130188 1.5524007
3.1178536 2.0239346 1.551115
3.3680878 2.0346828 1.5538415
3.1121478 2.0482857 1.5538491
3.3852396 2.0461128 1.5524954
3.0201168 2.058542 1.550769
3.1284075 2.0591214 1.5525728
3.2416875 2.0593626 1.5547945
3.4023914 2.0575426 1.551149
3.1446671 2.0699568 1.5512966
3.1609268 2.0807922 1.5500203
3.3942022 2.0829115 1.5538827
3.1387839 2.0940235 1.5537956
3.2915864 2.0926154 1.5508779
3.411221 2.0942531 1.5525471
3.0468516 2.1030619 1.5508837
3.2679348 2.1061554 1.5546416
3.4282401 2.1055944 1.5512112
3.2844412 2.1171553 1.5533458
3.3009477 2.1281552 1.5520502
3.4198549 2.1306484 1.5536855
3.4367409 2.1419013 1.5523602
3.0731907 2.1471603 1.550794
3.1810215 2.1499918 1.5522686
3.2937424 2.1524799 1.554261
3.4536269 2.1531541 1.5510348
3.0524426 2.1597223 1.5541644
3.3101223 2.1633956 1.5529753
3.0680063 2.1700943 1.5529428
3.3265021 2.1743112 1.5516896
3.08357 2.1804659 1.5517211
3.3428822 2.1852267 1.5504038
3.099134 2.1908376 1.5504994
3.2068157 2.1939633 1.5525752
3.2227211 2.2045624 1.5513268
3.3355248 2.2083945 1.5531431
3.2386265 2.215162 1.5500784
3.3517845 2.2192297 1.5518669
3.3680441 2.2300653 1.5505906
3.2322137 2.2375135 1.552677
3.0021293 2.2403221 1.5527545
3.2480052 2.2480371 1.5514375
3.0171618 2.2503397 1.5515746
3.2637968 2.2585604 1.550198
3.0321941 2.2603574 1.5503947
3.1500218 2.2753441 1.5509174
3.0424118 2.291873 1.5509149
3.1444225 2.2966869 1.553229
3.3850765 2.2970576 1.5528305
3.0228801 2.3025775 1.5543913
3.250695 2.3026063 1.5547103
3.2885714 2.3015375 1.5501133
3.1596637 2.3068438 1.5520327
3.0377038 2.3124559 1.5532277
3.2662587 2.3129778 1.5534886
3.1749048 2.3170004 1.5508363
3.1540134 2.3280034 1.5541257
3.2973862 2.3337214 1.5510453
3.1842806 2.3481734 1.5517499
3.2907348 2.3545861 1.5537735
3.199414 2.3582585 1.5505621
3.1785798 2.36831 1.5544616
3.3216469 2.3751862 1.5513471
3.130497 1.680068 1.5597674
3.1484964 1.6920629 1.5583545
3.1664958 1.7040577 1.5569419
3.1844954 1.7160525 1.555529
3.0229754 1.7295246 1.5586169
3.0695391 1.7918448 1.5577471
3.0868301 1.8033676 1.5563899
3.3500836 1.8039978 1.5593282
3.104121 1.8148904 1.5550326
3.0638485 1.8200703 1.5599715
3.2417874 1.8216748 1.5554923
3.0810003 1.8315001 1.5586251
3.2170925 1.8377173 1.5599285
3.0981522 1.8429303 1.5572789
3.2346616 1.8494253 1.5585495
3.1153038 1.8543601 1.5559325
3.3777759 1.8573086 1.5589858
3.1093388 1.8813028 1.5586294
3.1263576 1.8926442 1.5572935
3.1372151 1.9306138 1.558395
3.1541011 1.9418666 1.5570697
3.1709871 1.9531195 1.5557442
3.4319429 1.9606471 1.5588933
3.0359542 1.9693568 1.5575435
3.4496512 1.9724481 1.5575033
3.1647217 1.9785957 1.5586668
3.0523341 1.9802723 1.5562578
3.4673598 1.9842491 1.5561134
3.1814811 1.9897642 1.5573514
3.0471091 2.0049438 1.5589541
3.1982408 2.0009329 1.5560359
3.3337843 2.0118227 1.5565342
3.3509362 2.0232527 1.5551878
3.0796285 2.0266149 1.5564016
3.1917887 2.0261099 1.5587113
3.0958884 2.0374506 1.5551254
3.3261268 2.0375459 1.5592262
3.2250545 2.0482783 1.5561001
3.3431456 2.0488873 1.5578903
3.0742261 2.051002 1.5588628
3.0903656 2.0617576 1.557596
3.2019093 2.0621557 1.5598241
3.3601646 2.0602288 1.5565544
3.4842911 2.0610566 1.5584713
3.1065052 2.0725126 1.5563293
3.2184157 2.0731556 1.5585283
3.3771834 2.0715702 1.5552186
3.5017147 2.0726678 1.5571038
3.1226444 2.0832682 1.5550624
3.2349222 2.0841556 1.5572327
3.3523107 2.0856369 1.5589873
3.2514286 2.0951555 1.5559372
3.3691969 2.0968897 1.5576619
3.3860826 2.1081426 1.5563363
3.2446027 2.1197331 1.558118
3.4029689 2.1193955 1.5550109
3.0057514 2.1286073 1.5578293
3.2609825 2.1306489 1.5568323
3.2773623 2.1415644 1.5555466
3.3949652 2.143626 1.5579391
3.2542264 2.154217 1.5595244
3.0165715 2.1611893 1.5592974
3.2704861 2.1650527 1.5582482
3.0320275 2.1714895 1.5580842
3.1750047 2.1727645 1.5550722
3.2867458 2.1758881 1.5569719
3.0474837 2.1817896 1.5568711
3.1532564 2.1848962 1.5588746
3.3030055 2.1867235 1.5556957
3.1690476 2.1954195 1.5576351
3.2798121 2.1991715 1.5594288
3.0425813 2.2037456 1.5593506
3.2006307 2.2164667 1.5551561
3.0732784 2.2242022 1.5569412
3.0886273 2.2344306 1.5557364
3.30498 2.243681 1.5591173
3.3209994 2.2543564 1.5578599
3.3370185 2.2650318 1.5566026
3.3298929 2.2869868 1.5593753
3.2134538 2.303086 1.5598395
3.22891 2.313386 1.5586263
3.13888 2.3179183 1.5553136
3.377609 2.3187847 1.55563
3.2443662 2.3236859 1.5574131
3.2598224 2.333986 1.5561999
3.1334829 2.3382568 1.5580014
3.1485152 2.3482747 1.5568215
3.2534423 2.3548827 1.5586842
3.2687907 2.3651114 1.5574795
3.0764983 1.644083 1.564006
3.0944979 1.6560781 1.5625931
3.1124973 1.6680729 1.5611802
3.1062701 1.6977456 1.5640497
3.1241241 1.7096434 1.5626484
3.1419783 1.7215414 1.561247
3.1355362 1.7508693 1.5638322
3.0176663 1.7572768 1.5618187
3.0123935 1.7857804 1.5640103
3.3319323 1.7919016 1.5607527
3.1643844 1.8025925 1.5640658
3.0466967 1.8086402 1.5613177
3.1819539 1.8143008 1.5626867
3.199523 1.8260088 1.5613077
3.3417768 1.8333189 1.5618114
3.0412631 1.8359373 1.5639728
3.175226 1.84304 1.5646985
3.0582819 1.8472786 1.562637
3.1926498 1.8546512 1.5633309
3.0753007 1.8586199 1.5613011
3.3336961 1.8616552 1.5646759
3.2100737 1.8662627 1.5619632
3.2274976 1.8778739 1.5605955
3.0696709 1.8856022 1.5636967
3.0865569 1.8968551 1.5623713
3.220629 1.9044948 1.5637823
3.1034429 1.9081078 1.5610459
3.0976837 1.9339213 1.5639287
3.3965259 1.9370451 1.5616733
3.2308741 1.943243 1.5646118
3.1144433 1.9450901 1.5626132
3.4142342 1.9488461 1.5602833
3.2480257 1.9546731 1.5632654
3.2651772 1.9661031 1.5619193
3.4057534 1.9755969 1.5633029
3.0145898 1.9832728 1.5615066
3.4233227 1.9873052 1.5619239
3.0308495 1.9941084 1.5602304
3.2580512 1.9921801 1.5645696
3.27507 2.0035214 1.5632337
3.292089 2.014863 1.5618979
3.1751556 2.0150256 1.5600169
3.0419471 2.0294914 1.5613965
3.3091078 2.0262043 1.560562
3.2847667 2.0406253 1.564289
3.3016527 2.0518782 1.5629636
3.3185387 2.0631311 1.561638
3.3354247 2.074384 1.5603126
3.1954632 2.0869863 1.5619751
3.211843 2.0979021 1.5606894
3.1891878 2.1108751 1.5646294
3.3446867 2.1101203 1.5618855
3.2054472 2.1217105 1.5633532
3.2217071 2.1325462 1.5620769
3.2379668 2.1433816 1.5608007
3.0011153 2.1508894 1.5605106
2.9965353 2.1730604 1.5629649
3.0118842 2.1832888 1.5617601
3.2636728 2.188416 1.5606958
3.0272326 2.1935172 1.5605553
3.2729416 2.2223306 1.5616322
3.3877316 2.2264476 1.5638353
3.3139875 2.2763872 1.5606238
3.1825414 2.282486 1.5622659
3.0404992 1.6200933 1.5668315
3.0584989 1.6320882 1.5654186
3.0348539 1.6501536 1.5696554
3.0527081 1.6620517 1.568254
3.0705621 1.6739497 1.5668526
3.0884161 1.6858475 1.5654511
3.0647023 1.7036653 1.5693921
3.0824108 1.715466 1.5680021
3.2230239 1.7193251 1.5693012
3.1001194 1.7272673 1.5666121
3.2411754 1.731421 1.5678765
3.1178279 1.739068 1.5652221
3.0941072 1.7557595 1.569582
3.2517791 1.7733443 1.5688757
3.1468153 1.7908843 1.5654448
3.1229548 1.8082063 1.5688014
3.0072253 1.8132544 1.5666445
3.1403785 1.8198175 1.5674337
3.0242443 1.8245957 1.5653087
3.1578023 1.8314288 1.5660661
3.0021269 1.8405907 1.5689985
3.0190127 1.8518434 1.567673
3.1514652 1.8584037 1.5692111
3.0358989 1.8630962 1.5663476
3.1687562 1.8699265 1.5678538
3.0527849 1.8743494 1.5650221
3.3079834 1.8780401 1.5686232
3.1860471 1.8814492 1.5664967
3.0306458 1.8892474 1.5691907
3.3256917 1.8898411 1.5672332
3.2033381 1.892972 1.5651394
3.1622667 1.8975232 1.569997
3.0474052 1.9004159 1.5678753
3.3434005 1.9016421 1.5658432
3.1794186 1.9089532 1.5686506
3.0809243 1.9227529 1.5652442
3.3354759 1.9287641 1.5688192
3.3530455 1.9404724 1.5674402
3.2240133 1.9694972 1.5672413
3.3449006 1.9681664 1.5694125
3.2410324 1.9808388 1.5659055
3.3797483 1.991389 1.5666772
3.2172225 1.9956138 1.5695907
3.397172 2.0030003 1.5653095
3.2341084 2.0068667 1.5682651
3.2509947 2.0181196 1.5669397
3.2678804 2.0293725 1.5656143
3.0048096 2.0325637 1.5660999
3.2608893 2.0542774 1.568463
3.0000458 2.0561712 1.5688051
3.0159509 2.0667706 1.5675566
3.2776489 2.0654459 1.5671475
3.0318565 2.0773699 1.5663081
3.0269244 2.1007082 1.5687907
3.0427155 2.1112316 1.5675511
3.0585072 2.1217551 1.5663116
3.3204961 2.1233885 1.5658222
3.1991148 2.1453943 1.5657629
3.1928453 2.1689544 1.567919
3.2185552 2.212791 1.5681144
2.9875448 2.2170682 1.5671922
2.98316 2.2380815 1.5698005
2.9981923 2.2480989 1.5686206
3.0132246 2.2581167 1.5674406
3.0282569 2.2681341 1.5662609
3.0086534 2.2797024 1.5690104
3.0413992 1.7206349 1.5737191
3.179781 1.7253644 1.5745269
3.0589685 1.7323432 1.5723401
3.1977806 1.7373595 1.573114
3.0765381 1.7440515 1.570961
3.2157803 1.7493544 1.5717013
3.0532594 1.7617612 1.5742719
3.2087181 1.7783694 1.5744858
3.226572 1.7902675 1.5730844
3.371979 1.796186 1.574406
3.3902822 1.8083835 1.5729693
3.4085855 1.820581 1.5715326
3.2548578 1.8426373 1.5727931
3.1341743 1.8468809 1.5705682
3.3997836 1.8496766 1.5742122
3.2725663 1.8544383 1.5714031
3.4179349 1.8617725 1.5727874
2.9971268 1.8669102 1.5718217
3.2902749 1.8662393 1.5700132
3.0138865 1.8780787 1.5705062
3.2651987 1.8819311 1.5743355
3.1451151 1.8860934 1.5713433
3.2827682 1.8936393 1.5729562
3.3003373 1.9053476 1.5715772
3.0254591 1.9152675 1.5717669
3.3179069 1.9170558 1.5701982
3.2752054 1.9217215 1.574883
3.0420921 1.9263518 1.5704613
3.2926292 1.9333327 1.5735153
3.0203385 1.9411566 1.5740758
3.3100531 1.9449439 1.5721477
3.327477 1.9565554 1.57078
3.3198459 1.9825764 1.5738891
3.064424 1.9996617 1.5722607
3.0591104 2.0241914 1.5748395
3.2106109 2.0207717 1.5724094
2.968235 2.0349724 1.5713019
2.9841402 2.0455718 1.5700536
2.9795496 2.0691378 1.5725092
2.9953413 2.0796611 1.5712696
2.975019 2.0925856 1.5747248
3.0111327 2.0901847 1.5700302
3.2305989 2.092695 1.5746547
2.9937289 2.2697566 1.570182
3.1617815 1.7133696 1.5759398
3.1551561 1.7426758 1.5786899
3.0358357 1.75015 1.5756395
3.1730101 1.7545738 1.5772885
3.1908641 1.7664719 1.5758871
3.0304286 1.7777448 1.5787116
3.3271782 1.8012919 1.5799111
3.3634808 1.8254843 1.5770615
3.3550622 1.8546257 1.5793966
3.3730617 1.8666205 1.5779837
3.2476296 1.8702228 1.5757145
3.2403579 1.898499 1.5776182
3.2577815 1.9101102 1.5762506
2.9873259 1.9191568 1.5766672
3.0038321 1.9301567 1.5753716
2.9825244 1.9450839 1.5786891
2.9989042 1.9559994 1.5774034
3.285264 1.9595308 1.5766035
3.3025551 1.9710536 1.5752465
2.9940715 1.9808493 1.5799445
3.0103312 1.9916847 1.5786682
2.9705477 2.1159155 1.5766996
2.9861114 2.1262872 1.575478
2.9661548 2.1382854 1.5792506
2.981611 2.1485856 1.5780374
2.9925156 2.1810007 1.579165
3.0078642 2.1912293 1.5779601
3.2727239 1.7650037 1.5841852
3.2908754 1.7771001 1.5827607
3.3090267 1.789196 1.5813359
2.9778121 1.9700139 1.5812207
2.9731622 1.9948192 1.5834986
2.9893017 2.0055747 1.5822316
2.9618182 2.1605444 1.5815744
2.9771669 2.1707726 1.5803697
2.972779 2.192848 1.5824748
2.9684477 2.2148125 1.5843531
3.0301778 1.65939 1.5884997
3.048032 1.671288 1.5870982
2.9927373 1.8755805 1.5895108
3.0094969 1.886749 1.5881954
2.9640691 2.043201 1.5880896
2.9912052 2.0878305 1.587937
2.9533138 2.2047274 1.5855409
2.9491584 2.2258234 1.5880266
2.9641907 2.2358408 1.5868467
2.979223 2.2458582 1.5856668
2.9596224 2.0667837 1.5904161
2.9552352 2.0902483 1.5925025
2.9509077 2.1135955 1.5943483
2.9466505 2.1359813 1.5967773
2.9577985 2.1684847 1.5977744
2.9426024 2.1439774 1.6130909
2.9384296 2.1661966 1.6151792
2.9343133 2.1883044 1.6170403
