# .PCD v0.7 - Point Cloud Data file format
VERSION 0.7
FIELDS x y z rgb
SIZE 4 4 4 4
TYPE F F F F
COUNT 1 1 1 1
WIDTH 1035
HEIGHT 1
VIEWPOINT 0 0 0 1 0 0 0
POINTS 1035
DATA ascii
1.5743754 0.65265965 -0.56942403 1.8367239e-40
1.5306008 0.66758162 -0.56375003 7.361231e-40
1.5539279 0.66873157 -0.56614637 5.5209198e-40
1.5644121 0.66231394 -0.56493509 4.5989915e-40
1.5234797 0.67917597 -0.56132495 6.4392747e-40
1.5561302 0.6774568 -0.56174338 4.5989775e-40
1.5673485 0.67474055 -0.56701797 2.7586802e-40
1.5556574 0.68634075 -0.56860465 9.219563e-41
1.560936 0.68489158 -0.5639348 3.6770212e-40
1.5303953 0.69103038 -0.56403732 5.5281084e-40
1.5497458 0.69034648 -0.5601477 2.7586802e-40
1.5556819 0.69817305 -0.56859976 9.219563e-41
1.5609517 0.69661629 -0.56406778 4.5989775e-40
1.5232751 0.70251811 -0.56161082 4.6025928e-40
1.5464151 0.70638263 -0.56695664 2.7586662e-40
1.5567635 0.7031123 -0.56276429 2.7586802e-40
1.5609676 0.70834106 -0.56420076 4.5989775e-40
1.53019 0.71447915 -0.5643245 6.4393028e-40
1.5457251 0.71463752 -0.56191325 1.8403113e-40
1.5616566 0.71985888 -0.56393129 1.1034637e-39
1.5230708 0.72586024 -0.5618968 6.4393028e-40
1.5347328 0.72381043 -0.56089562 9.219563e-41
1.5497284 0.72568214 -0.56047052 2.7586802e-40
1.5603099 0.72027266 -0.56473607 2.7586802e-40
1.5229685 0.7375313 -0.56203985 6.4393028e-40
1.5427887 0.73666424 -0.56924146 7.3648464e-40
1.5532892 0.73004138 -0.5622648 9.219563e-41
1.5253216 0.74648452 -0.56606233 3.6806085e-40
1.5347812 0.74715519 -0.56088603 9.219563e-41
1.5446503 0.74487013 -0.56831872 4.6025788e-40
1.5365133 0.75599033 -0.5636732 3.6806225e-40
1.5297792 0.76137668 -0.56489909 7.3612591e-40
1.5382509 0.76472479 -0.56665957 7.3612591e-40
1.5252556 0.7755841 -0.56619811 2.7586802e-40
1.5382805 0.7762965 -0.56685394 6.4393028e-40
1.5488009 0.77376544 -0.56300497 3.6770212e-40
1.5225596 0.78421551 -0.5626117 6.4393028e-40
1.5352895 0.78639483 -0.56683028 3.6806365e-40
1.5436736 0.78511435 -0.56432313 3.6806365e-40
1.5154438 0.7952233 -0.56017947 6.4392747e-40
1.5392971 0.79588592 -0.5692398 9.219563e-41
1.5445952 0.79640782 -0.56489879 6.4429041e-40
1.5223553 0.80755764 -0.56289768 6.4393028e-40
1.5313054 0.80009437 -0.56467611 5.5173184e-40
1.5429884 0.8059569 -0.56989479 7.3612591e-40
1.5605909 0.80446672 -0.56668282 4.6025928e-40
1.522253 0.81922865 -0.56304073 4.6061521e-40
1.533666 0.81541193 -0.56617874 6.4392887e-40
1.5462331 0.81005675 -0.56016558 1.8367239e-40
1.560671 0.81583148 -0.56692159 6.4393028e-40
1.5335525 0.8257829 -0.56657231 4.5989635e-40
1.5462272 0.82178229 -0.56022769 1.8367239e-40
1.5151384 0.83007646 -0.56060648 3.6841958e-40
1.5253639 0.83507329 -0.56305426 4.6025928e-40
1.5376568 0.83076644 -0.56855643 2.7658549e-40
1.5439763 0.83520889 -0.56016469 4.5989775e-40
1.5253934 0.84654593 -0.56324703 6.4392747e-40
1.5370264 0.84157699 -0.56852084 2.7586662e-40
1.5488182 0.84460473 -0.56289995 7.361231e-40
1.5254228 0.85801858 -0.56343973 6.4392747e-40
1.5370349 0.85316473 -0.56864363 3.6806225e-40
1.5549046 0.85290211 -0.56538743 6.4393028e-40
1.5254521 0.86949122 -0.56363243 6.4392747e-40
1.5347048 0.86385149 -0.56790274 2.7586802e-40
1.5609916 0.86129087 -0.56787688 7.3612591e-40
1.5226736 0.87180424 -0.56373578 2.7586802e-40
1.5377185 0.87694919 -0.56907964 4.5989775e-40
1.5550643 0.87554032 -0.56586319 3.6841958e-40
1.5240748 0.88217044 -0.56383336 3.6770212e-40
1.537734 0.88849485 -0.56921041 3.6806085e-40
1.5270967 0.89450467 -0.56508422 4.5989915e-40
1.534242 0.89860892 -0.56804538 3.6806085e-40
1.5421269 0.8930105 -0.56121838 6.4392747e-40
1.5014963 0.90903807 -0.56832683 3.6841958e-40
1.5185047 0.90408373 -0.56163591 5.5173184e-40
1.5226566 0.90652275 -0.564053 2.7586802e-40
1.5322239 0.90969163 -0.56726617 1.8439126e-40
1.5492158 0.90097183 -0.56408441 7.361231e-40
1.5258274 0.91513228 -0.56501096 3.6806225e-40
1.5422852 0.91545075 -0.56168991 6.4392747e-40
1.5258474 0.92660266 -0.56517673 4.5989775e-40
1.5322181 0.92131048 -0.56732774 1.8439126e-40
1.5423644 0.92667079 -0.56192571 6.4392747e-40
1.5185926 0.93834162 -0.56221139 6.4392747e-40
1.5247545 0.93302977 -0.56489635 4.6025648e-40
1.5494543 0.93479204 -0.56479514 6.4392747e-40
1.5186218 0.94976091 -0.5624032 6.4393028e-40
1.5226395 0.94124126 -0.56437021 1.8439126e-40
1.5343039 0.94468504 -0.56856799 3.6806085e-40
1.5010927 0.95511281 -0.56889129 6.4392747e-40
1.5226338 0.95281416 -0.56447589 1.8439126e-40
1.5350507 0.95470983 -0.56584543 3.6806085e-40
1.5186511 0.96118021 -0.56259501 6.4393028e-40
1.526083 0.96700788 -0.56578606 3.6806225e-40
1.5336521 0.9640609 -0.56480825 6.4392887e-40
1.500891 0.97815025 -0.56917346 6.4392747e-40
1.511644 0.97245419 -0.56020677 6.4392747e-40
1.5243994 0.97629535 -0.56504995 1.8403253e-40
1.5307906 0.97635454 -0.56947654 1.1041868e-39
1.5426809 0.97155118 -0.56286883 5.5173184e-40
1.5007901 0.98966897 -0.5693146 6.4392747e-40
1.5131435 0.98209435 -0.56065673 1.8439126e-40
1.5259479 0.98395491 -0.56600541 4.5989635e-40
1.54276 0.98277128 -0.56310463 6.4392747e-40
1.5077088 0.99137914 -0.56038225 4.6061521e-40
1.5187389 0.99543816 -0.56317043 6.4392747e-40
1.5295178 0.99148035 -0.56786257 6.4392747e-40
1.5498518 0.9911592 -0.5659796 6.4392747e-40
1.5076075 1.0029511 -0.56052399 5.5173184e-40
1.5159501 1.00595 -0.56207025 4.6025648e-40
1.5260795 1.002391 -0.56645977 4.5989635e-40
1.5429183 1.0052115 -0.56357616 7.361231e-40
1.5075061 1.0145231 -0.56066573 6.4392747e-40
1.5171869 1.019024 -0.56304407 4.6025648e-40
1.5230848 1.0128202 -0.56550807 3.6770212e-40
1.5429974 1.0164316 -0.56381196 6.4392747e-40
1.5039462 1.0251601 -0.56527269 6.4392747e-40
1.524877 1.0246029 -0.5659337 3.6806085e-40
1.5430765 1.0276517 -0.56404769 4.6061521e-40
1.5003865 1.0357437 -0.56987906 7.361231e-40
1.519133 1.0309935 -0.56312406 3.6806365e-40
1.5240316 1.0338448 -0.56598467 4.5989635e-40
1.5431557 1.0388718 -0.56428349 6.4393028e-40
1.5072019 1.0492393 -0.56109107 6.4392747e-40
1.5260607 1.0450956 -0.56690049 4.5989775e-40
1.5155593 1.0543299 -0.56284994 2.7586802e-40
1.5259225 1.0530533 -0.56671578 6.4392747e-40
1.5372226 1.052291 -0.5622524 8.2831873e-40
1.5155537 1.0658493 -0.56295514 2.7586802e-40
1.5252639 1.0646616 -0.56653833 4.5989775e-40
1.5312886 1.0656189 -0.56021923 6.4392747e-40
1.5026134 1.0721636 -0.56969184 3.6806365e-40
1.524864 1.0737808 -0.56705141 5.5173324e-40
1.5373802 1.0746398 -0.56272203 7.3540424e-40
1.4939809 1.0801078 -0.56817651 8.2760267e-40
1.5095223 1.0864882 -0.56095523 1.8439126e-40
1.5253061 1.0837145 -0.56681931 4.5989775e-40
1.537459 1.0858142 -0.56295681 5.5173465e-40
1.4938805 1.0915807 -0.56831706 8.2759987e-40
1.5183969 1.0964227 -0.56502002 6.4392887e-40
1.5375378 1.0969887 -0.56319165 7.361231e-40
1.5174655 1.1053157 -0.56456667 4.5989775e-40
1.5436305 1.1061925 -0.56569815 7.361231e-40
1.4936795 1.1145267 -0.56859815 8.2760267e-40
1.5155311 1.1119274 -0.56337613 2.7586802e-40
1.5238923 1.1168433 -0.56779373 6.4392747e-40
1.5437096 1.1174126 -0.56593394 7.3540424e-40
1.4935789 1.1259997 -0.5687387 8.2759987e-40
1.5095054 1.1209097 -0.5612697 1.8367239e-40
1.5179006 1.1284566 -0.56573498 5.5173465e-40
1.526099 1.1218891 -0.56787199 6.4393028e-40
1.5437887 1.1286327 -0.56616968 6.4392747e-40
1.5094997 1.1323836 -0.56137449 2.7586802e-40
1.5179368 1.139731 -0.56593221 6.4392467e-40
1.5261283 1.1333617 -0.56806475 8.2760267e-40
1.5438678 1.1398528 -0.56640548 6.4393028e-40
1.5063913 1.1418154 -0.56222522 7.3612591e-40
1.5173166 1.1451875 -0.56467795 4.5989775e-40
1.5078893 1.1543593 -0.5619756 3.6806365e-40
1.5191486 1.1553084 -0.5658558 8.2759987e-40
1.5240016 1.1508037 -0.56838781 6.4392747e-40
1.5359483 1.1563506 -0.56824934 9.219563e-41
1.543947 1.1510729 -0.56664127 6.4393028e-40
1.5173402 1.1681263 -0.56497502 4.5953902e-40
1.524038 1.1621238 -0.56858581 7.361231e-40
1.5371916 1.1656616 -0.56655216 3.6806225e-40
1.5060871 1.1765316 -0.56265056 6.4393028e-40
1.5121682 1.1770418 -0.56364328 7.3540424e-40
1.5240744 1.1734439 -0.56878388 6.4392747e-40
1.5374432 1.1767173 -0.56679684 3.6806225e-40
1.4930766 1.1833646 -0.56944144 6.4393028e-40
1.5077286 1.188928 -0.5623455 4.5989915e-40
1.5173666 1.1853055 -0.5652194 5.5173324e-40
1.5241109 1.184764 -0.56898189 7.3540424e-40
1.5381683 1.1863838 -0.56507015 7.361231e-40
1.4988871 1.1971458 -0.56033587 6.4393028e-40
1.5241473 1.1960841 -0.56917989 8.279558e-40
1.5347764 1.194901 -0.56599236 3.6806085e-40
1.4987862 1.2086644 -0.56047702 6.4393028e-40
1.5241838 1.2074043 -0.5693779 8.279558e-40
1.5317285 1.2031354 -0.5669331 1.8439126e-40
1.5443426 1.2071733 -0.56782013 6.4392747e-40
1.4927752 1.2177836 -0.56986308 1.3807736e-39
1.525226 1.2178705 -0.56721359 5.5173184e-40
1.5311583 1.2169722 -0.56029904 7.361231e-40
1.5444218 1.2183934 -0.56805593 6.4392747e-40
1.5094546 1.224174 -0.56221312 2.7586802e-40
1.5324066 1.2256927 -0.56387866 3.6806085e-40
1.5445009 1.2296135 -0.56829166 8.2831873e-40
1.5242567 1.2300445 -0.56977397 7.3540424e-40
1.5315697 1.2330861 -0.56418312 3.6841958e-40
1.5254693 1.2465928 -0.56757307 3.6770212e-40
1.5336803 1.2444957 -0.56260675 7.361245e-40
1.4983826 1.2547393 -0.56104147 7.361203e-40
1.5320289 1.2553437 -0.56463528 3.6842098e-40
1.5446591 1.2520537 -0.56876326 7.361231e-40
1.5312905 1.2627406 -0.56108356 6.4428761e-40
1.5447383 1.2632738 -0.56899899 7.3540704e-40
1.5348408 1.2743587 -0.56257558 8.2831733e-40
1.5448174 1.2744939 -0.56923479 8.2759987e-40
1.5051749 1.2806797 -0.56392646 6.4393028e-40
1.534874 1.2858274 -0.56277215 7.361217e-40
1.5448966 1.2857141 -0.56947058 1.1031078e-39
1.5050735 1.2922516 -0.5640682 9.197983e-40
1.5349745 1.2949538 -0.56496602 4.6025648e-40
1.5431566 1.2978652 -0.56515956 5.5173324e-40
1.4979792 1.300814 -0.56160593 8.2760547e-40
1.5355318 1.3011608 -0.56921387 1.8438846e-40
1.5434083 1.308944 -0.56540465 5.5173184e-40
1.4978783 1.3123326 -0.56174707 8.2760267e-40
1.5324757 1.3186134 -0.56186527 8.2760267e-40
1.544469 1.3109467 -0.56725341 7.361231e-40
1.5047696 1.3269677 -0.56449354 6.4393028e-40
1.5505362 1.3229039 -0.56967872 7.361231e-40
1.4976764 1.3353701 -0.56202924 6.4393028e-40
1.5325053 1.3301318 -0.56205875 7.3612591e-40
1.5505732 1.334422 -0.56988019 9.197983e-40
1.4975755 1.3468888 -0.56217039 6.4393028e-40
1.5325347 1.3416501 -0.56225222 8.2831873e-40
1.4914825 1.3555992 -0.56007671 5.5281084e-40
1.5325643 1.3531685 -0.5624457 7.3612591e-40
1.5446167 1.3568367 -0.56805617 8.2832154e-40
1.5325937 1.3646867 -0.56263918 7.361231e-40
1.5438834 1.3644204 -0.56213969 1.8438846e-40
1.5523438 1.3634199 -0.56252426 8.2760267e-40
1.5396639 1.3782177 -0.56539071 8.2759987e-40
1.5513382 1.3738738 -0.56373042 5.5209198e-40
1.551591 1.3850021 -0.56397665 5.5209338e-40
1.545228 1.3914073 -0.56821835 8.2760127e-40
1.5548184 1.3950242 -0.5653767 5.5209478e-40
1.5397232 1.401361 -0.56577945 8.2831873e-40
1.5447645 1.4027265 -0.56885892 9.197983e-40
1.5520966 1.4072585 -0.5644691 4.5989775e-40
1.5397528 1.4129328 -0.56597382 8.2831873e-40
1.5448014 1.414199 -0.56905961 8.2760267e-40
1.5553608 1.4180417 -0.56584179 4.6025788e-40
1.5397825 1.4245044 -0.56616819 7.3612591e-40
1.5448383 1.4256715 -0.5692603 1.1953034e-39
1.5523838 1.4279696 -0.56597739 1.8438846e-40
1.5398121 1.436076 -0.56636256 6.4500647e-40
1.5541385 1.4358854 -0.56420296 5.5209338e-40
1.5398418 1.4476478 -0.56655693 7.361231e-40
1.5590587 1.4448435 -0.56761944 5.5209338e-40
1.5587285 1.4549696 -0.56599402 3.6842098e-40
1.5650269 1.4525015 -0.5689311 1.1031106e-39
1.5578725 1.4625301 -0.56313246 9.2051717e-40
1.5651071 1.4638665 -0.56916994 1.195309e-39
1.5459368 1.4728818 -0.56914437 6.4392747e-40
1.5585365 1.4748971 -0.56524295 1.0119911e-39
1.5600495 1.4700092 -0.56931472 1.8439126e-40
1.559243 1.4870118 -0.56738883 9.197983e-40
1.562228 1.4839182 -0.56764936 4.6025648e-40
1.5459963 1.4961166 -0.56953466 7.361231e-40
1.5642525 1.4947429 -0.56667703 5.5209478e-40
1.5399901 1.505506 -0.56752878 7.361231e-40
1.5671705 1.5016029 -0.56132096 1.8439126e-40
1.5529082 1.5105295 -0.56062812 8.2832154e-40
1.5710906 1.5114524 -0.56869084 9.197955e-40
1.5599794 1.5248537 -0.56333959 7.361231e-40
1.5724041 1.5206064 -0.56158483 1.0119911e-39
1.5670513 1.5392845 -0.56605297 8.2760267e-40
1.5724847 1.5320245 -0.5618248 1.288578e-39
1.5688891 1.5459003 -0.56235158 1.8439126e-40
1.5753293 1.5458457 -0.56110233 1.0116338e-39
1.5774848 1.5550728 -0.56489021 6.4428901e-40
1.5797567 1.5661683 -0.56513429 9.197955e-40
1.5834351 1.5633475 -0.56513864 6.4357014e-40
1.5821348 1.576254 -0.56768465 2.7658689e-40
1.5922437 1.5750709 -0.56556678 1.1956593e-39
1.5922817 1.5869014 -0.56577373 1.1031078e-39
1.6058984 1.5893424 -0.56357461 1.0127128e-39
1.5923198 1.598732 -0.56598067 1.1953034e-39
1.6059808 1.6010119 -0.56381983 1.2875018e-39
1.5990316 1.6125777 -0.56152409 1.2885808e-39
1.6026897 1.6172204 -0.56463933 2.7658689e-40
1.6091151 1.6273254 -0.56714201 2.7658409e-40
2.8644843 2.6416204 -0.56053811 7.5531893e-39
2.5242383 2.6571224 -0.56269437 2.2072973e-39
2.5494878 2.6567745 -0.56667399 1.1045427e-39
2.5565042 2.6557176 -0.56081533 1.8399483e-39
2.775584 2.6582727 -0.56505686 1.4708113e-39
2.8354039 2.6684337 -0.56773537 2.0243396e-39
2.550194 2.6749806 -0.5670976 1.287499e-39
3.0096469 2.6708457 -0.56548184 7.8290587e-39
2.4575751 2.6998672 -0.56710017 2.2065813e-39
3.0746224 2.6945925 -0.56928068 1.0222914e-38
2.4711847 2.7023401 -0.56731051 1.1953034e-39
2.4718673 2.7199376 -0.56771994 1.0109149e-39
2.4410121 2.7266674 -0.5606488 1.0109149e-39
2.3835161 2.7397733 -0.56437153 9.197983e-40
2.4416857 2.7440288 -0.56105274 6.4321141e-40
2.3841727 2.7566931 -0.56476521 8.2759987e-40
2.3286185 2.7683892 -0.56806785 9.187165e-40
2.3149881 2.7793407 -0.5648452 9.187165e-40
2.384829 2.773613 -0.5651589 1.1953034e-39
2.2763958 2.8314028 -0.56226027 1.8381505e-39
2.3054774 2.8308787 -0.56923079 1.5633614e-39
2.2403648 2.8432903 -0.5630272 3.6841958e-40
2.2765136 2.8481147 -0.5626114 2.0214641e-39
2.228308 2.8689568 -0.56029618 5.5173184e-40
2.2295265 2.9003608 -0.56102687 3.6806365e-40
2.2301357 2.9160628 -0.56139219 3.6841958e-40
2.2307448 2.9317651 -0.56175756 3.6806365e-40
2.2313542 2.9474669 -0.56212288 3.6841958e-40
2.2319634 2.9631691 -0.56248826 4.6061521e-40
2.1970923 2.9910064 -0.56936634 3.6841958e-40
2.197691 3.0064344 -0.56972528 5.5173184e-40
1.5246191 -0.77833003 -0.55894917 1.8439126e-40
1.5456688 -0.75377816 -0.55485362 1.8439126e-40
1.5596806 -0.74875939 -0.55987394 9.219563e-41
1.5736896 -0.74353224 -0.55290186 2.7586802e-40
1.5807083 -0.73481339 -0.55535614 2.7586802e-40
1.602711 -0.73289317 -0.55086678 1.8439126e-40
1.6107296 -0.72429907 -0.55361128 9.219563e-41
1.6487463 -0.71636808 -0.55409747 1.8438846e-40
1.6977568 -0.71192068 -0.55761689 2.7622395e-40
1.7147666 -0.70603228 -0.5501284 6.4392747e-40
1.7317811 -0.69987959 -0.55557692 4.5953621e-40
1.7587847 -0.69746417 -0.5508315 1.8402972e-40
1.7857932 -0.69463181 -0.55928224 2.7622395e-40
1.8038046 -0.68793923 -0.55116922 3.6841958e-40
1.8238194 -0.68171912 -0.55727488 3.6841958e-40
1.8528246 -0.67851752 -0.55201232 4.5953621e-40
1.860986 -0.67536014 -0.55253011 8.2759987e-40
1.8628472 -0.6680094 -0.55498594 5.5173465e-40
1.8710002 -0.66629124 -0.55557299 1.1031078e-39
1.9019693 -0.667436 -0.55042064 1.1027476e-39
1.9134262 -0.65775406 -0.55463308 7.3576297e-40
1.9468753 -0.65384263 -0.55032611 3.6841958e-40
1.9659877 -0.65442586 -0.55425096 1.194939e-39
1.9798864 -0.64991575 -0.55964881 5.5173184e-40
2.5555365 -0.64946526 -0.55699122 4.0533455e-39
2.8264978 -0.64029652 -0.552194 6.4357435e-40
2.8722394 -0.64524019 -0.55450118 8.279558e-40
2.0269177 -0.63456935 -0.55747861 7.3540424e-40
2.3165195 -0.63181931 -0.55741644 1.5630069e-39
2.3349752 -0.63386834 -0.55287069 1.9303475e-39
2.555527 -0.63002986 -0.55716878 4.7851736e-39
2.0109608 -0.62990767 -0.55191112 1.1027434e-39
2.3509936 -0.6222617 -0.55674875 3.4980417e-39
2.6769788 -0.62456858 -0.55315799 1.8512834e-40
2.8070173 -0.62558699 -0.55887437 4.6026489e-40
2.8495357 -0.62778503 -0.55684274 3.6806365e-40
2.0759506 -0.61839098 -0.55512667 7.3576017e-40
2.1219463 -0.6154204 -0.55048043 1.3789702e-39
2.5555174 -0.61059445 -0.55734634 9.1259478e-39
2.6769686 -0.60423362 -0.55326569 1.1031106e-39
2.7849755 -0.59735614 -0.55461437 5.5101298e-40
2.8477273 -0.59105146 -0.55038643 9.9384039e-39
1.6917908 0.27004319 -0.55458677 1.8439126e-40
1.6828135 0.28143683 -0.5516277 1.8439126e-40
1.6484823 0.30814755 -0.55676305 1.8439126e-40
1.658859 0.30273798 -0.55636525 1.8439126e-40
1.6668891 0.31686342 -0.55904651 1.8439126e-40
1.6577021 0.32443178 -0.55794299 1.8439126e-40
1.6204844 0.33453399 -0.55440819 7.361231e-40
1.6414552 0.33290192 -0.55453116 1.8439126e-40
1.6123419 0.34841585 -0.55182731 7.361231e-40
1.6589375 0.34061217 -0.55634964 1.8439126e-40
1.6210957 0.35716349 -0.55642766 4.6025648e-40
1.6414427 0.3578006 -0.55466306 1.8439126e-40
1.6509593 0.35155335 -0.55365807 1.8439126e-40
1.6068679 0.36842799 -0.55313748 3.6806365e-40
1.6429809 0.36237261 -0.55096644 9.219563e-41
1.597156 0.37549353 -0.55921471 7.3612591e-40
1.6414363 0.37024996 -0.55472898 1.8439126e-40
1.5900204 0.38885403 -0.55691803 5.5173465e-40
1.6334133 0.38216865 -0.55209148 1.8439126e-40
1.5969422 0.39991742 -0.55951393 4.6025928e-40
1.6148825 0.39239836 -0.55609179 2.7658689e-40
1.6068499 0.40506646 -0.55347222 1.8439126e-40
1.616334 0.40472329 -0.55594742 4.6025788e-40
1.5827794 0.41421318 -0.5547682 4.6025928e-40
1.5998206 0.41757101 -0.55119306 1.8439126e-40
1.6123381 0.41658285 -0.55469936 3.6806225e-40
1.5826733 0.42631847 -0.5549165 6.4392747e-40
1.5998147 0.42973053 -0.55130416 1.8439126e-40
1.614284 0.42810619 -0.55287683 7.361231e-40
1.6281047 0.42104945 -0.55829263 9.219563e-41
1.5825675 0.43842375 -0.5550648 6.4393028e-40
1.618434 0.43020514 -0.55955648 1.8439126e-40
1.6281304 0.43343797 -0.5582875 9.219563e-41
1.608488 0.44174939 -0.55193305 7.361203e-40
1.6184278 0.44247925 -0.55962151 1.8439126e-40
1.6201507 0.44365528 -0.55553526 9.219563e-41
1.5824614 0.45052904 -0.55521309 6.4393028e-40
1.6085227 0.45379716 -0.55213952 7.3576437e-40
1.6104046 0.4538573 -0.55692017 1.8439126e-40
1.6281817 0.45821506 -0.55827731 9.219563e-41
1.5743256 0.46358132 -0.55256104 7.3612591e-40
1.5848619 0.46626702 -0.55855501 1.8438846e-40
1.6103985 0.46607047 -0.55698484 2.7586802e-40
1.5742199 0.47562566 -0.55270863 6.4393028e-40
1.5848559 0.47831222 -0.55866504 1.8438846e-40
1.6118073 0.47843093 -0.55508298 9.219563e-41
1.6282074 0.47060359 -0.55827224 9.219563e-41
1.5670893 0.48839194 -0.55040467 5.5245491e-40
1.5854534 0.48498279 -0.55575615 8.2831873e-40
1.5854839 0.49692011 -0.55595666 8.2831593e-40
1.611817 0.49067461 -0.55511278 9.219563e-41
1.5848441 0.50240266 -0.55888516 2.7586802e-40
1.6043162 0.50118172 -0.55255824 9.219563e-41
1.5778147 0.51431346 -0.55654728 2.7586802e-40
1.604326 0.51336825 -0.55258799 9.219563e-41
1.5746503 0.52439582 -0.55406344 5.5209338e-40
1.6033533 0.52603221 -0.5548861 1.8439126e-40
1.5527127 0.53722841 -0.55796826 4.6025928e-40
1.5785458 0.534558 -0.5541181 7.3612591e-40
1.5848264 0.53853828 -0.55921531 2.7586802e-40
1.5526085 0.5491128 -0.55811381 4.6025928e-40
1.5715462 0.54821461 -0.55187654 6.4465054e-40
1.5913608 0.5447495 -0.5576387 9.219563e-41
1.5777969 0.55028909 -0.55687594 2.7622395e-40
1.5833793 0.5540753 -0.55482584 9.219563e-41
1.5525045 0.56099719 -0.55825937 6.4392747e-40
1.5729191 0.56258625 -0.55458575 4.5989635e-40
1.591411 0.56896275 -0.55762875 9.219563e-41
1.5383558 0.57358009 -0.55338597 6.4392747e-40
1.5680851 0.57780951 -0.55235863 8.2759987e-40
1.5771042 0.57494986 -0.55472708 1.8403113e-40
1.5312309 0.58565378 -0.55102003 6.4392747e-40
1.573602 0.58671474 -0.55355394 9.219563e-41
1.5817609 0.58317685 -0.5585562 4.5989635e-40
1.5381496 0.59713554 -0.55367458 6.4392747e-40
1.5637267 0.5972411 -0.55241144 1.8439126e-40
1.5743312 0.59302843 -0.5571692 2.7586802e-40
1.5310254 0.60910255 -0.55130732 6.4392747e-40
1.5646671 0.60887396 -0.55042458 7.3540424e-40
1.5725346 0.60732734 -0.55610216 1.8403253e-40
1.5828624 0.60485309 -0.55637372 3.6806085e-40
1.5754085 0.61425507 -0.55482006 9.219563e-41
1.5309229 0.6208269 -0.55145097 6.4392747e-40
1.5578268 0.62190664 -0.55989885 6.4392747e-40
1.563208 0.62292922 -0.5513134 5.5209058e-40
1.575418 0.62622064 -0.55484915 9.219563e-41
1.5308201 0.63255131 -0.55159461 5.5173184e-40
1.5640835 0.63692856 -0.55285776 3.6806225e-40
1.5307174 0.64427572 -0.55173826 6.4393028e-40
1.5566801 0.64406091 -0.55039245 1.8439126e-40
1.5654365 0.64484942 -0.55644262 4.6025648e-40
1.5306149 0.65600008 -0.55188179 7.3612591e-40
1.5543798 0.6550346 -0.5550915 2.7622535e-40
1.5743011 0.65272284 -0.55748546 1.8439126e-40
1.5561366 0.66519791 -0.55369532 9.219563e-41
1.564302 0.66244721 -0.55318421 4.5989775e-40
1.5544024 0.67470104 -0.55522567 3.6806225e-40
1.5608104 0.67330003 -0.55207771 4.5989775e-40
1.5532992 0.68402481 -0.5575757 3.6806225e-40
1.5608261 0.68502474 -0.55221069 4.5989775e-40
1.5463066 0.69477975 -0.55516374 3.6806365e-40
1.5608418 0.69674951 -0.55234361 4.5989775e-40
1.5379441 0.70706123 -0.55411708 7.361231e-40
1.5486956 0.70682067 -0.55425268 9.219563e-41
1.5532277 0.70654601 -0.55036139 2.7586802e-40
1.5614731 0.70844531 -0.55211169 4.6061521e-40
1.5301013 0.71462202 -0.55260003 7.3612591e-40
1.546361 0.71817613 -0.55535406 3.6806085e-40
1.5532217 0.7183249 -0.5504238 2.7586802e-40
1.5229824 0.72600245 -0.55022562 5.5173465e-40
1.5417367 0.72709215 -0.55173308 9.219563e-41
1.5532765 0.72517514 -0.55467045 6.4392607e-40
1.5228803 0.73767346 -0.55036867 6.4393028e-40
1.5458708 0.7371645 -0.55908775 3.6806225e-40
1.5543709 0.73181456 -0.5504331 4.5989775e-40
1.522778 0.74934453 -0.5505116 3.6841958e-40
1.531 0.74269652 -0.55219144 6.4392747e-40
1.5447072 0.74633074 -0.55661088 2.7586662e-40
1.5532099 0.74188268 -0.55054855 9.219563e-41
1.5310295 0.75421488 -0.55238491 7.3612591e-40
1.5466156 0.75591069 -0.55804402 2.7586802e-40
1.5226758 0.76101559 -0.55065465 3.6806365e-40
1.5380924 0.76491958 -0.55508894 6.4393028e-40
1.5440331 0.76271188 -0.55581784 1.8403113e-40
1.5225735 0.77268666 -0.55079758 3.6806365e-40
1.5381219 0.77649122 -0.55528331 6.4393028e-40
1.5444663 0.77318466 -0.55918407 1.8367239e-40
1.5224714 0.78435773 -0.55094051 3.6841958e-40
1.531118 0.7887699 -0.55296534 6.4393028e-40
1.5427231 0.78321368 -0.55825889 4.5989775e-40
1.5531863 0.78899819 -0.55079818 2.7586802e-40
1.5357133 0.79504937 -0.55588013 3.6770212e-40
1.5333943 0.8027429 -0.55467784 4.5989775e-40
1.5428441 0.80615807 -0.55842316 6.4500647e-40
1.5544531 0.80786437 -0.55311739 6.4392747e-40
1.5335152 0.81560898 -0.55471092 5.5209198e-40
1.5426587 0.81839007 -0.55881745 1.8367239e-40
1.5545329 0.81918341 -0.55335528 7.361231e-40
1.5334181 0.82593316 -0.55497795 4.5989635e-40
1.5252068 0.83526641 -0.55158269 6.4392747e-40
1.5358902 0.83083051 -0.55626929 5.5173184e-40
1.5090263 0.84094286 -0.55853927 4.6025928e-40
1.5252362 0.84673899 -0.55177546 6.4392747e-40
1.5369173 0.84169984 -0.55693364 3.6806225e-40
1.5486865 0.84484255 -0.55162698 7.361231e-40
1.5531567 0.84789258 -0.55111015 1.8367239e-40
1.508925 0.85251486 -0.55868101 3.6806365e-40
1.5252657 0.85821164 -0.55196816 6.4392747e-40
1.5369257 0.85328752 -0.55705643 3.6806225e-40
1.5547724 0.85314089 -0.5540688 7.361231e-40
1.5088236 0.86408687 -0.55882275 4.6025928e-40
1.525295 0.86968428 -0.55216086 6.4392747e-40
1.5338936 0.86341739 -0.55606574 1.8403253e-40
1.5430287 0.86352038 -0.55942661 4.6025928e-40
1.5087223 0.87565887 -0.55896449 3.6806365e-40
1.5285835 0.87344176 -0.55432034 2.7586802e-40
1.532169 0.87489653 -0.55546302 2.7586802e-40
1.5430657 0.87499285 -0.55962729 6.4392747e-40
1.508621 0.88723093 -0.55910635 2.7586802e-40
1.5269511 0.88310862 -0.55339003 4.5989775e-40
1.5391775 0.88932544 -0.55806243 2.7586802e-40
1.5431025 0.88646531 -0.55982798 7.361231e-40
1.5085196 0.89880294 -0.55924809 3.6806365e-40
1.523953 0.89384258 -0.55246055 4.5989915e-40
1.5361108 0.8993454 -0.55746782 6.4393028e-40
1.5246897 0.90599459 -0.5528971 3.6770212e-40
1.5391717 0.9009977 -0.55812424 1.8367239e-40
1.5490841 0.90120965 -0.55281144 6.4392747e-40
1.5084183 0.910375 -0.55938983 3.6806365e-40
1.5183777 0.91569519 -0.5504095 4.6061521e-40
1.5243371 0.91851377 -0.5530597 9.219563e-41
1.5361476 0.91076458 -0.55766755 6.4393028e-40
1.5421542 0.91568744 -0.55047035 6.4392747e-40
1.508317 0.921947 -0.55953157 4.6061521e-40
1.5169594 0.9274174 -0.55038732 2.7622816e-40
1.5291553 0.92348468 -0.55530465 6.4392747e-40
1.5082154 0.93351901 -0.55967343 3.6841958e-40
1.5184362 0.93853384 -0.55079317 6.4392747e-40
1.5231668 0.93591994 -0.5533061 3.6841958e-40
1.5321399 0.93299097 -0.55577075 1.8439126e-40
1.5423125 0.93812758 -0.55094194 4.6025928e-40
1.5081141 0.94509101 -0.55981517 5.5173184e-40
1.5184654 0.94995314 -0.55098498 6.4392747e-40
1.5225294 0.941347 -0.55279779 1.8439126e-40
1.5341959 0.94481587 -0.55704951 2.7658549e-40
1.5423917 0.94934767 -0.55117768 7.361231e-40
1.5080128 0.95666307 -0.55995691 5.5173184e-40
1.5259682 0.95468253 -0.55417377 2.7622535e-40
1.5009048 0.96677184 -0.55751359 5.5173184e-40
1.5259746 0.96712977 -0.55428267 3.6806225e-40
1.5424707 0.96056783 -0.55141348 4.6061521e-40
1.5008039 0.97829056 -0.55765462 6.4392747e-40
1.5273182 0.97735047 -0.55455756 1.8403113e-40
1.5363681 0.9792794 -0.55886608 6.4392747e-40
1.5425498 0.97178787 -0.55164927 5.5173184e-40
1.5240479 0.9860245 -0.55365431 4.5989775e-40
1.542629 0.98300797 -0.55188507 5.5173184e-40
1.5061234 0.9902252 -0.55812347 2.7658689e-40
1.5240597 0.99754721 -0.55380356 4.5989775e-40
1.5364048 0.99069858 -0.55906582 6.4392747e-40
1.54972 0.99139702 -0.55470663 6.4392747e-40
1.5186118 1.0070497 -0.55194402 6.4392747e-40
1.5233854 1.0038406 -0.55449426 6.4392747e-40
1.5427873 1.0054481 -0.5523566 7.361231e-40
1.517725 1.0192933 -0.55156487 2.7586662e-40
1.5229585 1.0129724 -0.55406225 4.5989775e-40
1.5428663 1.0166683 -0.5525924 6.4392747e-40
1.5234582 1.0264809 -0.55489028 6.4392747e-40
1.5429455 1.0278883 -0.55282813 6.4392747e-40
1.5031999 1.0358963 -0.55836284 4.6025648e-40
1.515461 1.0313959 -0.55112046 9.219563e-41
1.5246007 1.0340511 -0.55497348 6.4392747e-40
1.5430247 1.0391085 -0.55306393 6.4392747e-40
1.5170774 1.0421114 -0.55187261 4.5989775e-40
1.5295578 1.0485088 -0.55749166 6.4393028e-40
1.5000978 1.0589215 -0.55864251 6.4392747e-40
1.5170891 1.053581 -0.55202115 4.5989915e-40
1.5181495 1.062577 -0.55309057 6.4357014e-40
1.5224668 1.0686483 -0.5539608 2.7586802e-40
1.5346234 1.0622499 -0.55388051 4.6025648e-40
1.4999969 1.0704402 -0.55878353 7.361231e-40
1.5025047 1.0722678 -0.55827188 2.7586802e-40
1.5171127 1.0765197 -0.55231822 4.5989915e-40
1.523604 1.0717614 -0.55568236 6.4392747e-40
1.5381668 1.0754783 -0.55529988 3.6806085e-40
1.4938941 1.0802475 -0.55670345 6.4393028e-40
1.5188166 1.0869848 -0.55328673 6.4393028e-40
1.5236405 1.0830814 -0.55588043 6.4392747e-40
1.5373286 1.08605 -0.55178285 5.5173184e-40
1.4937935 1.0917206 -0.556844 6.4392747e-40
1.5118086 1.0976713 -0.55094194 6.4393028e-40
1.5236769 1.0944015 -0.55607843 4.6061521e-40
1.5374074 1.0972245 -0.55201769 6.4392467e-40
1.4936931 1.1031935 -0.55698454 7.3612591e-40
1.5188751 1.1098233 -0.55367035 6.4393028e-40
1.5237134 1.1057216 -0.55627644 7.361231e-40
1.5434995 1.1064291 -0.55447859 6.4392467e-40
1.4935925 1.1146665 -0.55712509 6.4393028e-40
1.5237498 1.1170418 -0.55647445 6.4392747e-40
1.5435786 1.1176493 -0.55471438 5.5173184e-40
1.4934921 1.1261395 -0.55726564 7.3540704e-40
1.5183315 1.1249485 -0.55416179 4.5989915e-40
1.5183643 1.1362953 -0.55435634 5.5209338e-40
1.5316296 1.1326258 -0.55049419 6.4392747e-40
1.5408782 1.1314272 -0.55907774 1.8438846e-40
1.5078442 1.1429592 -0.55032945 3.6806225e-40
1.5260006 1.1450274 -0.55678588 4.6061521e-40
1.5425205 1.1412499 -0.55725956 3.6806085e-40
1.5077908 1.1544822 -0.55045283 2.7622816e-40
1.5249445 1.1537511 -0.55702353 4.6025508e-40
1.543816 1.1513095 -0.55542171 6.4392747e-40
1.4991896 1.1625898 -0.55991256 7.3612591e-40
1.5093735 1.1669097 -0.5502156 1.8367239e-40
1.5190214 1.1669199 -0.55462945 4.6061521e-40
1.5239484 1.162683 -0.55500132 3.6806085e-40
1.5370626 1.1659092 -0.55549276 4.6025648e-40
1.5059996 1.1766725 -0.55107832 6.4393028e-40
1.5190506 1.1783392 -0.55482125 4.6061521e-40
1.523932 1.1736424 -0.5574646 6.4392747e-40
1.5379591 1.1754452 -0.55366141 6.4392747e-40
1.5058982 1.1882445 -0.55122006 5.5173465e-40
1.5190799 1.1897585 -0.55501306 4.6061521e-40
1.5239685 1.1849625 -0.55766261 7.361231e-40
1.5343971 1.1841151 -0.5547117 3.6806365e-40
1.5240048 1.1962826 -0.55786061 6.4392747e-40
1.5346478 1.1951481 -0.55495584 3.6806225e-40
1.5250945 1.2049966 -0.55790401 5.5209338e-40
1.5316015 1.2033939 -0.55603403 1.8439126e-40
1.4926882 1.2179234 -0.55839002 6.4393028e-40
1.5321015 1.2124062 -0.55420935 4.6025508e-40
1.4925878 1.2293963 -0.55853057 8.2831873e-40
1.5353605 1.2226601 -0.55557072 3.6806085e-40
1.5443699 1.2298503 -0.5570721 6.4392747e-40
1.5243114 1.2337383 -0.55688429 5.5173324e-40
1.5328692 1.236069 -0.55679429 1.8438846e-40
1.4924872 1.2408693 -0.55867124 7.361231e-40
1.5358618 1.2447262 -0.556059 4.6025508e-40
1.5572881 1.246892 -0.55539453 1.8438846e-40
1.5093285 1.2587001 -0.55105424 3.6841958e-40
1.5383734 1.254293 -0.55591846 4.5989635e-40
1.5445281 1.2522905 -0.55754369 5.5173184e-40
1.4852917 1.2609656 -0.55635023 6.4393028e-40
1.5363634 1.2667923 -0.55654722 3.6806225e-40
1.5441769 1.265258 -0.55497909 8.2759987e-40
1.5374117 1.2765739 -0.55457377 6.4392747e-40
1.5301832 1.2873902 -0.55030197 8.2832154e-40
1.5447656 1.2859508 -0.55825102 7.3612591e-40
1.536118 1.2948717 -0.55555117 4.6025648e-40
1.5448447 1.2971709 -0.55848682 7.3612591e-40
1.4978919 1.3009543 -0.55008709 6.4392747e-40
1.5264121 1.3056443 -0.55948377 8.2760267e-40
1.5449238 1.308391 -0.55872256 8.2760267e-40
1.5348041 1.3147211 -0.55179441 6.4393168e-40
1.5450029 1.3196111 -0.55895835 8.2759987e-40
1.49769 1.3239918 -0.55036938 5.5173465e-40
1.53625 1.3232027 -0.55882162 1.8438846e-40
1.54321 1.3217754 -0.55307978 3.6842098e-40
1.5345099 1.3322101 -0.55480826 4.6025648e-40
1.5439879 1.3322641 -0.5552696 5.5209338e-40
1.5347359 1.3434151 -0.55503172 4.6025928e-40
1.5440342 1.3424283 -0.55505794 4.6025788e-40
1.5504653 1.3461422 -0.55856431 8.2832154e-40
1.5363814 1.3544918 -0.55597627 5.5209338e-40
1.5433316 1.3537427 -0.55094045 9.219563e-41
1.5505024 1.3576603 -0.55876583 8.2832154e-40
1.5324359 1.3648807 -0.55112189 8.2760267e-40
1.5471041 1.3654211 -0.55511951 5.5245351e-40
1.5522122 1.3636577 -0.55125135 9.197955e-40
1.5385082 1.3787811 -0.55412966 8.2832154e-40
1.5512084 1.3741231 -0.55259871 5.5209198e-40
1.5514612 1.3852513 -0.552845 4.5989775e-40
1.5450763 1.3916055 -0.55667442 8.2832154e-40
1.5517141 1.3963795 -0.55309117 5.5209478e-40
1.545599 1.4033731 -0.55635732 9.2051436e-40
1.5530313 1.4059061 -0.5541991 5.5209338e-40
1.5395943 1.4131274 -0.55440319 7.361231e-40
1.5537163 1.4172782 -0.5563826 6.4393028e-40
1.539624 1.4246992 -0.55459756 8.2832154e-40
1.5514903 1.4274998 -0.55748081 4.6025928e-40
1.5456883 1.4382253 -0.55694276 6.4465054e-40
1.5526855 1.4352558 -0.55395764 4.6025788e-40
1.5457181 1.4498427 -0.55713785 6.4465054e-40
1.5589283 1.4450939 -0.55644202 4.6025648e-40
1.5591822 1.4562678 -0.55668926 5.5209198e-40
1.5457479 1.46146 -0.55733299 8.2832154e-40
1.5583391 1.4636726 -0.55357814 9.197983e-40
1.5457777 1.4730773 -0.55752814 8.2832154e-40
1.5558622 1.4732335 -0.55388665 5.5209338e-40
1.5650545 1.475471 -0.55804437 1.0119939e-39
1.5458074 1.4846947 -0.55772328 9.197955e-40
1.5584562 1.4865633 -0.5540185 9.2015563e-40
1.5603487 1.4812998 -0.55853516 1.8439126e-40
1.5458372 1.4963121 -0.55791843 7.3612591e-40
1.5591906 1.4985697 -0.55630809 9.197983e-40
1.56387 1.4986193 -0.55431426 9.2051436e-40
1.5592705 1.5098889 -0.55654597 1.1041868e-39
1.5627699 1.5123112 -0.55691123 4.5989635e-40
1.565607 1.5257115 -0.55479831 3.6842098e-40
1.5709814 1.5233276 -0.55722529 9.197955e-40
1.5654094 1.5357661 -0.55541515 1.8439126e-40
1.5780556 1.5365252 -0.55993491 1.1031106e-39
1.5598789 1.5484991 -0.55201048 8.2832154e-40
1.56876 1.5461632 -0.55126977 1.8439126e-40
1.5691898 1.5572376 -0.55152744 1.8439126e-40
1.5795418 1.5549388 -0.55342233 1.0119911e-39
1.5796227 1.5664103 -0.55366337 1.1041868e-39
1.5832958 1.5635831 -0.55366385 7.3576577e-40
1.5842642 1.575981 -0.55462432 7.3648324e-40
1.5884174 1.5862968 -0.55900657 2.7658689e-40
1.5828711 1.5988505 -0.55703092 2.7658689e-40
1.5921711 1.5989394 -0.55415112 1.1953062e-39
1.5886445 1.6081064 -0.55513018 5.5245351e-40
1.6085421 1.616239 -0.55551416 1.8439126e-40
1.6029966 1.6287992 -0.55358452 2.7658409e-40
1.6094233 1.6389509 -0.55604261 2.7658409e-40
2.6517015 2.6337647 -0.55112779 4.2341704e-39
2.5770528 2.6426497 -0.55491799 2.759755e-39
2.6314104 2.6403008 -0.55651903 3.2203646e-39
2.5590863 2.6539335 -0.55137044 2.6675594e-39
2.7324672 2.6558332 -0.5566678 1.7473982e-39
2.8414595 2.6511996 -0.55641657 2.0229117e-39
2.8581264 2.6567338 -0.55081373 3.0352685e-39
2.9354262 2.6562192 -0.55199015 3.6781114e-39
2.5072711 2.6681757 -0.5592227 2.8508633e-39
2.5384831 2.6643147 -0.55719745 1.6555571e-39
2.631474 2.6600232 -0.55686402 1.9317866e-39
2.6315374 2.6797459 -0.55720901 2.2073001e-39
2.8415282 2.6725216 -0.55678952 1.4715301e-39
2.5074015 2.686655 -0.55961102 2.666472e-39
2.5173697 2.6826172 -0.55983281 1.1945873e-39
2.4904311 2.69732 -0.55613118 2.6661091e-39
3.0615625 2.6970134 -0.55223686 9.0301285e-39
2.393436 2.705193 -0.55277985 2.1147416e-39
2.4245012 2.7022994 -0.55970967 2.8487165e-39
2.3188941 2.7708945 -0.55429429 3.7685007e-39
2.3190143 2.7879343 -0.55465233 3.5848284e-39
2.2897427 2.8014266 -0.55890083 6.4321141e-40
2.3191345 2.8049738 -0.55501038 2.5739134e-39
2.2903709 2.8176157 -0.55927747 8.2759987e-40
2.2644665 2.822721 -0.55293804 1.0109121e-39
2.3052797 2.8312359 -0.55229855 2.6650301e-39
2.2276988 2.8532548 -0.55993086 6.4392747e-40
2.26354 2.8572731 -0.55967426 2.2058554e-39
2.2166529 2.8790884 -0.55745977 5.5173184e-40
2.2080009 2.9666348 -0.5564245 4.6025928e-40
2.2086029 2.9821539 -0.55678558 3.6841958e-40
2.1969125 2.9913726 -0.55392796 3.6841958e-40
2.1975112 3.0068007 -0.5542869 3.6841958e-40
2.1981096 3.0222287 -0.5546459 3.6841958e-40
2.1987083 3.0376565 -0.55500484 6.4392747e-40
1.5246155 -0.7783348 -0.54733008 1.8439126e-40
1.5246396 -0.76671576 -0.54732531 2.7586802e-40
1.5316573 -0.75858355 -0.54983318 1.8367239e-40
1.5456653 -0.75378299 -0.54307455 2.7658689e-40
1.559677 -0.74876422 -0.54798824 9.219563e-41
1.5807046 -0.73481834 -0.5433104 1.8367239e-40
1.61772 -0.72747099 -0.54368943 9.219563e-41
1.6337326 -0.72226006 -0.54906154 9.219563e-41
1.6487424 -0.71637326 -0.54153365 1.8438846e-40
1.6727496 -0.71411884 -0.54941118 1.8438846e-40
1.6977528 -0.71192598 -0.54467976 4.5953621e-40
1.7407703 -0.70354533 -0.54519945 2.7622395e-40
1.7767954 -0.69111425 -0.54292434 2.7586802e-40
1.8238152 -0.68172479 -0.54337776 4.5953621e-40
1.8628135 -0.68220949 -0.54079753 4.5953621e-40
1.8628429 -0.66801524 -0.54079169 6.4320861e-40
1.8709118 -0.66621608 -0.54137915 1.1027476e-39
1.8828595 -0.66088861 -0.54659224 6.4392747e-40
1.9229151 -0.66321015 -0.54198176 1.1027448e-39
2.8253567 -0.66700673 -0.54487634 4.1441342e-39
1.9148648 -0.65761238 -0.54128593 5.5173184e-40
1.9439504 -0.65874088 -0.54797471 1.194939e-39
2.5184588 -0.65217763 -0.54882616 3.6734198e-40
2.8482969 -0.65607262 -0.54958975 1.195309e-39
1.9798819 -0.64992195 -0.54456306 5.5173184e-40
1.9879307 -0.64969581 -0.54544389 1.1949404e-39
1.9999468 -0.6401189 -0.54881412 1.1027448e-39
1.991906 -0.63871115 -0.54785764 5.5173184e-40
2.0269129 -0.63457566 -0.5420348 3.6841958e-40
2.046927 -0.63054198 -0.54633123 1.1949404e-39
2.5743854 -0.6381492 -0.54169387 5.0632038e-39
2.038938 -0.62282389 -0.54523772 5.5173184e-40
2.0589426 -0.62024087 -0.54961389 1.1949404e-39
2.095906 -0.62038589 -0.54365802 1.3786128e-39
2.366909 -0.6282891 -0.5425601 5.4337814e-39
2.6733878 -0.62019044 -0.54254913 8.2760547e-40
2.8974166 -0.62430209 -0.54429597 2.940175e-39
2.1139584 -0.613693 -0.54917604 8.2759987e-40
2.5168927 -0.61964703 -0.54159713 6.9982219e-39
2.5743756 -0.61856908 -0.54187274 9.4954338e-39
2.1478851 -0.60997236 -0.54100078 1.0109121e-39
2.8247919 -0.60251105 -0.54566646 1.928907e-39
1.6484107 0.29571107 -0.54419434 1.8439126e-40
1.6748364 0.2928656 -0.54899687 1.8439126e-40
1.6576381 0.30555591 -0.54532087 9.219563e-41
1.6588813 0.31535754 -0.54373527 1.8439126e-40
1.6285338 0.32068193 -0.54453945 8.2759987e-40
1.6465867 0.32456201 -0.54254282 2.7622535e-40
1.6589075 0.32798228 -0.54373008 1.8439126e-40
1.6203907 0.33468491 -0.54202092 8.2759987e-40
1.6413776 0.33296782 -0.54208201 9.2194229e-41
1.6509295 0.3389844 -0.54109943 1.8439126e-40
1.6218066 0.35513121 -0.54581708 2.7658689e-40
1.6413651 0.35786653 -0.54221392 1.8438846e-40
1.6147777 0.36796287 -0.5435943 2.7658689e-40
1.6050968 0.37426955 -0.54973698 7.361231e-40
1.6360029 0.37329561 -0.54861081 9.219563e-41
1.6413587 0.37031585 -0.54227984 1.8438846e-40
1.5969567 0.38785431 -0.54715228 7.361231e-40
1.6280239 0.38387871 -0.54591936 9.219563e-41
1.6147656 0.39251041 -0.54381853 2.7658689e-40
1.6253904 0.39396542 -0.54945332 1.8439126e-40
1.6360544 0.39819464 -0.54860055 1.8439126e-40
1.5968499 0.40006623 -0.54730189 7.361231e-40
1.6067337 0.40517798 -0.54126 2.7658689e-40
1.6140552 0.40399432 -0.54031128 6.4392747e-40
1.6267297 0.40747431 -0.54771388 9.219563e-41
1.5897155 0.41331941 -0.54505718 7.361231e-40
1.616225 0.41707426 -0.54386657 3.6806225e-40
1.5896089 0.42547804 -0.54520607 8.2759987e-40
1.6281009 0.42104435 -0.5459041 9.219563e-41
1.5890449 0.43848932 -0.54552734 7.3540564e-40
1.6183575 0.43027014 -0.54728258 1.8439126e-40
1.6281266 0.43343288 -0.54589897 1.8439126e-40
1.5927856 0.44207507 -0.54902363 1.8439126e-40
1.6157467 0.44214731 -0.54410243 9.219563e-41
1.5743399 0.4516837 -0.54036903 8.2759987e-40
1.5927796 0.45418125 -0.54913419 1.8439126e-40
1.6103286 0.45392194 -0.54470724 1.8439126e-40
1.6281779 0.45820996 -0.54588878 9.219563e-41
1.5742342 0.46372807 -0.54051661 9.197955e-40
1.5847473 0.46637702 -0.54651034 2.7658409e-40
1.5993164 0.46906307 -0.54838437 8.2831873e-40
1.6103225 0.46613511 -0.54477191 2.7586802e-40
1.5741289 0.47577241 -0.5406642 7.3540424e-40
1.5927677 0.47839355 -0.54935539 1.8438846e-40
1.6117675 0.47846073 -0.54283941 9.219563e-41
1.6282036 0.47059849 -0.54588372 9.219563e-41
1.5740232 0.48781675 -0.54081178 8.2831873e-40
1.5923185 0.48314539 -0.54620337 8.2831873e-40
1.6032958 0.48961711 -0.54253328 1.8439126e-40
1.5853205 0.49712104 -0.54402053 9.197955e-40
1.5927618 0.49049973 -0.54946601 1.8439126e-40
1.6132439 0.49084747 -0.54083705 9.219563e-41
1.5599597 0.50105155 -0.54809928 4.6025928e-40
1.5706834 0.5023495 -0.54205221 1.8439126e-40
1.5853511 0.50905836 -0.54422104 7.361231e-40
1.6032897 0.50177693 -0.54259765 1.8439126e-40
1.559855 0.51298922 -0.54824543 4.6025928e-40
1.5706774 0.51428801 -0.54216129 1.8439126e-40
1.5962694 0.51288581 -0.54029346 1.8439126e-40
1.5597506 0.52492696 -0.5483917 6.4393028e-40
1.5780236 0.52464443 -0.54335052 4.6025788e-40
1.5833256 0.52997893 -0.54279006 1.8439126e-40
1.5913069 0.52053118 -0.54554194 9.219563e-41
1.5526228 0.53737324 -0.54608369 6.4392747e-40
1.5865139 0.53718013 -0.54846501 1.8439126e-40
1.5525186 0.54925764 -0.54622924 6.4392747e-40
1.5713841 0.54841375 -0.54004693 5.5245491e-40
1.5858302 0.54489112 -0.54630417 9.219563e-41
1.5776827 0.55039859 -0.54488462 1.8439126e-40
1.5851289 0.55809307 -0.54761648 5.5209338e-40
1.5383699 0.56194592 -0.54146385 4.6025928e-40
1.5645463 0.56176454 -0.54963326 7.361231e-40
1.5776769 0.56239045 -0.54499418 1.8439126e-40
1.5382667 0.57372361 -0.5416081 6.4392747e-40
1.557546 0.57520783 -0.54738814 7.361231e-40
1.5740095 0.57492381 -0.54206377 3.6806085e-40
1.5812833 0.57053125 -0.54752743 1.8439126e-40
1.5381637 0.58550131 -0.54175246 6.4392747e-40
1.5505457 0.58854449 -0.54514128 7.361231e-40
1.5636194 0.58546442 -0.54041815 1.8439126e-40
1.5764444 0.5876143 -0.54036176 9.219563e-41
1.5816495 0.58331192 -0.54667199 4.6025508e-40
1.5380604 0.59727901 -0.5418967 7.361231e-40
1.5576061 0.59865594 -0.547782 6.4392747e-40
1.5735528 0.59873223 -0.54164088 9.219563e-41
1.5851771 0.59382713 -0.54802221 4.5989635e-40
1.5724406 0.60741347 -0.54416382 9.219563e-41
1.5753694 0.61428422 -0.54285449 9.219563e-41
1.5658453 0.62290823 -0.5411247 4.6025508e-40
1.5753789 0.62624979 -0.54288363 9.219563e-41
1.5576962 0.63382792 -0.54837281 7.361203e-40
1.5682951 0.6361196 -0.54488188 2.7622535e-40
1.5765438 0.63558382 -0.54034203 1.8439126e-40
1.5306287 0.64441854 -0.54001367 6.4393028e-40
1.5506952 0.64689797 -0.54612148 5.5281084e-40
1.5688646 0.64637923 -0.54589331 3.6806225e-40
1.5305259 0.65614295 -0.54015732 4.6025928e-40
1.5531509 0.65470129 -0.54563594 3.6770212e-40
1.5677068 0.65540165 -0.54261971 3.6805945e-40
1.5234935 0.66764712 -0.54951072 7.3540704e-40
1.5556012 0.66266626 -0.54494959 9.219563e-41
1.5672065 0.66298091 -0.54318434 1.8439126e-40
1.5233912 0.67931819 -0.54965377 6.4392747e-40
1.5531905 0.672369 -0.54572916 3.6806225e-40
1.5601863 0.67306912 -0.54082137 9.219563e-41
1.5507848 0.6819101 -0.54670954 6.4392747e-40
1.5601803 0.6849013 -0.54088402 1.8439126e-40
1.5232892 0.69098926 -0.5497967 6.4393028e-40
1.5473614 0.6934014 -0.54510063 2.7622535e-40
1.5607319 0.69688261 -0.54061943 3.6806225e-40
1.5231869 0.70266032 -0.54993963 3.6806365e-40
1.5473776 0.70512646 -0.54519993 2.7622535e-40
1.5607477 0.70860738 -0.54075241 3.6842098e-40
1.5467324 0.7159797 -0.54671443 3.6806085e-40
1.5425931 0.72469532 -0.54623574 1.8439126e-40
1.5557238 0.72182798 -0.54492527 9.219563e-41
1.5378448 0.73039937 -0.54293519 5.5173184e-40
1.5496105 0.73756826 -0.54880011 1.8439126e-40
1.5308422 0.74289036 -0.54067415 7.361231e-40
1.5455594 0.74767125 -0.54726851 3.6806225e-40
1.5614392 0.74350065 -0.54110503 4.6061521e-40
1.5308716 0.75440872 -0.54086763 6.4393028e-40
1.5443827 0.75568104 -0.54734337 9.219563e-41
1.5442324 0.76270121 -0.54665512 4.5989775e-40
1.5379634 0.77668601 -0.54371268 6.4393028e-40
1.5457864 0.77225715 -0.54780269 3.6770212e-40
1.5338033 0.7854951 -0.54489976 4.5989775e-40
1.5425644 0.78332138 -0.54677135 1.8439126e-40
1.5153558 0.79536486 -0.54856169 3.6841958e-40
1.5278661 0.79023331 -0.54668468 9.219563e-41
1.535586 0.79520279 -0.54433537 3.6806225e-40
1.5461659 0.79839337 -0.54837817 1.8367239e-40
1.5092428 0.80636775 -0.54654169 5.5173465e-40
1.5332599 0.8028931 -0.54308355 3.6806225e-40
1.5426997 0.80635917 -0.54695159 5.5173184e-40
1.5603255 0.80494618 -0.54395413 6.4392747e-40
1.5151522 0.8186003 -0.54884636 3.6841958e-40
1.5353483 0.81698549 -0.54428452 3.6770212e-40
1.5461601 0.81011885 -0.54844028 2.7586802e-40
1.5090401 0.82951182 -0.54682529 2.7658689e-40
1.5332837 0.82608336 -0.5433836 3.6806225e-40
1.5268847 0.83410841 -0.54123008 6.4392747e-40
1.5391341 0.83102626 -0.5460813 2.7586802e-40
1.5416002 0.83714664 -0.54881996 7.3540424e-40
1.5089388 0.84108388 -0.54696703 3.6878252e-40
1.5269177 0.84552765 -0.54142588 6.4392747e-40
1.5355128 0.84031987 -0.5448454 1.8439126e-40
1.5545605 0.84206051 -0.54251236 6.4392747e-40
1.5088375 0.85265589 -0.54710877 4.6061521e-40
1.5356636 0.85293043 -0.54510128 4.6025648e-40
1.5461366 0.85702109 -0.54868871 1.8367239e-40
1.5546403 0.85337967 -0.54275018 7.361231e-40
1.5087361 0.86422789 -0.54725063 4.6061521e-40
1.5272845 0.86147547 -0.54212487 1.8403113e-40
1.5428843 0.86372149 -0.54795504 6.4392747e-40
1.5086346 0.87579989 -0.54739237 4.6061521e-40
1.5224533 0.8720156 -0.54059106 1.8439126e-40
1.5339952 0.87583268 -0.54474717 4.5989775e-40
1.5085332 0.88737196 -0.54753411 4.6061521e-40
1.5268173 0.88325822 -0.5418452 4.5989775e-40
1.5340106 0.88735169 -0.54487783 4.5989915e-40
1.5419168 0.88202709 -0.54976302 7.361231e-40
1.5014229 0.89780009 -0.54514802 5.5173465e-40
1.5284615 0.89678496 -0.54291457 2.7586802e-40
1.5346804 0.89794225 -0.54593599 4.5989775e-40
1.501322 0.90931875 -0.54528916 6.4393028e-40
1.5242517 0.90702415 -0.54140353 1.8367239e-40
1.5489525 0.90144747 -0.54153854 4.6061521e-40
1.5258226 0.9165042 -0.5422383 2.7586662e-40
1.5012209 0.92083746 -0.5454303 6.4393028e-40
1.5290123 0.92368394 -0.54393965 7.361231e-40
1.5362252 0.92960835 -0.54849541 4.6061521e-40
1.5081279 0.93366003 -0.54810119 4.5953902e-40
1.5290489 0.93504977 -0.54413849 6.4392747e-40
1.5320675 0.93305248 -0.54415202 2.7586802e-40
1.5080266 0.94523203 -0.54824293 4.6025928e-40
1.5245552 0.94473612 -0.54213381 4.5989775e-40
1.5009184 0.95539355 -0.54585361 3.6806365e-40
1.5230973 0.95875859 -0.5423829 6.4392747e-40
1.5008175 0.96691227 -0.54599476 4.6025928e-40
1.5114591 0.96127951 -0.54865092 6.4393028e-40
1.5278746 0.96694118 -0.54349726 3.6806225e-40
1.5423397 0.96080452 -0.54019392 7.361231e-40
1.5007167 0.97843093 -0.5461359 3.6806365e-40
1.5114883 0.97264552 -0.54884183 6.4393028e-40
1.5284214 0.9781149 -0.5436576 9.219563e-41
1.5341344 0.97950381 -0.54592299 5.5173184e-40
1.5424188 0.97202456 -0.54042971 6.4392747e-40
1.5006158 0.98994964 -0.54627705 3.6806365e-40
1.5130721 0.98215508 -0.54918283 1.8439126e-40
1.5242114 0.98803526 -0.54198813 2.7586662e-40
1.5060523 0.99028569 -0.54670286 1.8439126e-40
1.5236863 0.9960373 -0.54251337 4.5989635e-40
1.5495884 0.99163485 -0.54343373 6.4392747e-40
1.5005147 1.0014683 -0.54641807 3.6806365e-40
1.5151391 1.0049684 -0.54516137 2.7622535e-40
1.5254906 1.0075489 -0.54300177 6.4392747e-40
1.5426563 1.0056849 -0.54113704 6.4392747e-40
1.5074184 1.0146642 -0.5490936 4.6025928e-40
1.5187399 1.0191283 -0.5403707 3.6806225e-40
1.5232794 1.0153592 -0.54337299 5.5173184e-40
1.5427353 1.016905 -0.54137284 6.4393028e-40
1.500313 1.0245057 -0.54670036 3.6806365e-40
1.5258605 1.0242195 -0.54384732 3.6806085e-40
1.5031207 1.0359967 -0.54689318 2.7658549e-40
1.5185138 1.0300804 -0.54090935 6.4392747e-40
1.522863 1.0360174 -0.54292011 3.6806085e-40
1.5001113 1.047543 -0.54698253 4.6061521e-40
1.5185431 1.0414997 -0.54110122 5.5173465e-40
1.5258914 1.0471581 -0.54415184 3.6770352e-40
1.5000105 1.0590618 -0.54712367 4.6061521e-40
1.5185723 1.052919 -0.54129303 6.4393028e-40
1.5310801 1.0547249 -0.54885721 5.5173465e-40
1.5234252 1.0606396 -0.54416507 6.4392747e-40
1.543052 1.0617855 -0.5423159 6.4392747e-40
1.4999096 1.0705805 -0.54726481 4.6061521e-40
1.5153286 1.0775791 -0.54002249 2.7586802e-40
1.543131 1.0730056 -0.5425517 7.361231e-40
1.4938073 1.0803874 -0.54523027 6.4393028e-40
1.5094131 1.0865932 -0.54948187 2.7586802e-40
1.5186602 1.0871769 -0.54186845 6.4393028e-40
1.5234982 1.0832798 -0.54456115 6.4392747e-40
1.4937067 1.0918603 -0.54537082 6.4392747e-40
1.5094074 1.0980668 -0.54958665 1.8367239e-40
1.5186894 1.0985963 -0.54206026 7.3612591e-40
1.5235345 1.0946 -0.54475915 6.4392747e-40
1.4936063 1.1033334 -0.54551136 6.4393028e-40
1.5023793 1.1066335 -0.54716492 1.8367239e-40
1.523571 1.1059201 -0.54495716 6.4392747e-40
1.5433685 1.1066658 -0.54325902 7.361231e-40
1.4935057 1.1148063 -0.54565191 6.4321141e-40
1.5187187 1.1100156 -0.54225206 6.4393028e-40
1.5236075 1.1172402 -0.54515517 6.4392747e-40
1.5434476 1.1178859 -0.54349482 7.361231e-40
1.4994051 1.1281739 -0.54797041 8.2832154e-40
1.5093962 1.1210146 -0.54979634 2.7586802e-40
1.5187479 1.1214349 -0.54244387 7.3540704e-40
1.5236439 1.1285603 -0.54535323 6.4393028e-40
1.5093905 1.1324884 -0.54990113 1.8439126e-40
1.5117403 1.1319605 -0.54014975 7.3540704e-40
1.5263097 1.1390913 -0.54458284 2.7586662e-40
1.5375133 1.1309834 -0.54154831 6.4392747e-40
1.5117694 1.1433265 -0.54034066 7.3540424e-40
1.5352688 1.1459324 -0.54610533 9.2194229e-41
1.5182626 1.1535468 -0.54330087 6.4392747e-40
1.5376709 1.1533321 -0.54201794 7.361203e-40
1.5416025 1.153654 -0.54859841 1.8438846e-40
1.493104 1.1606982 -0.54621422 4.6025928e-40
1.5118277 1.1660584 -0.54072249 6.4393028e-40
1.5237532 1.1625206 -0.54594725 6.4392747e-40
1.5339262 1.167027 -0.54334092 3.6806085e-40
1.5023457 1.1751564 -0.54779094 1.8439126e-40
1.5148094 1.1756871 -0.54244506 6.4392887e-40
1.5378286 1.1756809 -0.54248756 6.4392747e-40
