# .PCD v0.7 - Point Cloud Data file format
VERSION 0.7
FIELDS x y z rgb
SIZE 4 4 4 4
TYPE F F F F
COUNT 1 1 1 1
WIDTH 1045
HEIGHT 1
VIEWPOINT 0 0 0 1 0 0 0
POINTS 1045
DATA ascii
2.0158253 1.1029999 -0.40378967 4.0493952e-39
1.9659743 1.1161447 -0.40651888 4.6018515e-39
1.9737833 1.1143322 -0.40483409 4.4185379e-39
1.9840317 1.1126993 -0.40600801 4.5092958e-39
2.0038347 1.1116921 -0.40136266 4.4167414e-39
1.9590807 1.1280932 -0.40634036 4.6929682e-39
1.9639021 1.1251264 -0.40530962 4.3259821e-39
1.9741575 1.1209739 -0.4028967 4.3256234e-39
2.0038419 1.126953 -0.40134168 4.1401545e-39
1.947499 1.1335772 -0.40851858 4.7873204e-39
1.9539046 1.1347308 -0.4031814 4.510372e-39
1.965291 1.1363227 -0.40175998 4.3259849e-39
1.9873523 1.1367316 -0.40576711 4.4167386e-39
1.9486536 1.1474789 -0.40784758 4.6029291e-39
1.9561523 1.1437283 -0.40265429 4.6018487e-39
1.9600973 1.1420186 -0.40603101 4.3259793e-39
1.9766083 1.1490859 -0.40182576 4.5996921e-39
1.9441253 1.1554754 -0.40206721 4.2352158e-39
1.953408 1.1538548 -0.4031243 4.6929696e-39
1.9779766 1.1582488 -0.40429777 4.3245458e-39
1.9999692 1.1553293 -0.40925822 4.3249031e-39
1.9381679 1.1696761 -0.40915453 3.8653683e-39
1.9452209 1.1645889 -0.40502757 4.4181763e-39
1.969844 1.1678509 -0.40944457 3.9575597e-39
1.924881 1.1785408 -0.40594357 4.2341466e-39
1.9321072 1.1782677 -0.402392 4.6029291e-39
1.9440969 1.1783291 -0.40558589 4.4174561e-39
1.9782063 1.1729925 -0.4039191 4.1412335e-39
1.9387798 1.1886246 -0.40637186 4.3249031e-39
1.9673208 1.1815728 -0.40125602 4.1415909e-39
1.916332 1.1908603 -0.40340328 4.4174603e-39
1.9219494 1.1921024 -0.40669042 4.2341452e-39
1.9300351 1.1980283 -0.40713596 3.9579129e-39
1.9415956 1.1911114 -0.40654308 4.2345026e-39
1.9675493 1.1962329 -0.4008795 3.8650012e-39
1.9166694 1.2054453 -0.40488341 4.3270597e-39
1.9235198 1.2041165 -0.40559292 4.2334278e-39
1.9395521 1.2025672 -0.40615299 4.4163799e-39
1.9152503 1.2148137 -0.40351939 4.4174561e-39
1.9242141 1.21684 -0.40611604 4.7851624e-39
1.9310646 1.2123984 -0.40395007 4.3249003e-39
1.9088464 1.2231574 -0.40652502 4.5092972e-39
1.9135817 1.2248554 -0.40346327 4.2341424e-39
1.9215404 1.2216281 -0.40152901 4.1415909e-39
1.8862336 1.2311871 -0.40835953 4.6011327e-39
1.8910882 1.239765 -0.40329841 4.5110894e-39
1.9019864 1.2355373 -0.40239513 4.4178204e-39
1.9149485 1.2381625 -0.40204713 4.2341424e-39
1.8778915 1.2410264 -0.40599871 4.5085755e-39
1.8921632 1.24575 -0.40417713 4.4174617e-39
1.9081135 1.2403277 -0.40126953 4.1415881e-39
1.8788037 1.2543943 -0.4057169 4.3245458e-39
1.8832409 1.2542434 -0.40065062 4.3270611e-39
1.8942504 1.2568591 -0.4001056 4.3245458e-39
1.9059091 1.2556307 -0.40419677 4.3256234e-39
1.8782725 1.2660606 -0.40721142 4.140872e-39
1.8843908 1.2664757 -0.40277091 4.2337865e-39
1.8921418 1.2636359 -0.40962872 4.5092944e-39
1.8685216 1.2744418 -0.40658596 4.2327075e-39
1.8733654 1.276449 -0.40292525 4.3249017e-39
1.88051 1.2703183 -0.40709046 4.5107237e-39
1.8954073 1.2763945 -0.40895763 4.140872e-39
1.8662338 1.2871783 -0.40351081 4.4167386e-39
1.8748254 1.2863727 -0.40272561 4.5092944e-39
1.8849195 1.2858648 -0.4062736 4.3252619e-39
1.8598049 1.2974811 -0.40592733 4.5092944e-39
1.8611596 1.2974772 -0.40389642 4.3241843e-39
1.8795359 1.2946051 -0.40338442 4.0490379e-39
1.8885643 1.2941227 -0.40705267 4.2337809e-39
1.8461906 1.3054831 -0.40915704 4.3249031e-39
1.8630356 1.3079097 -0.40862438 4.60149e-39
1.8724995 1.3010924 -0.40428114 4.4185309e-39
1.8832854 1.3045508 -0.40478361 4.1412335e-39
1.8388251 1.3149531 -0.4069823 4.508221e-39
1.8519112 1.3114101 -0.4032374 4.7851624e-39
1.8621151 1.3105669 -0.40360564 4.2327075e-39
1.8735147 1.3145077 -0.40361089 4.7855183e-39
1.8840938 1.313291 -0.40520087 4.3259779e-39
1.8397146 1.3279867 -0.40670753 4.5082238e-39
1.8529965 1.3244776 -0.40260664 4.8773552e-39
1.8635837 1.3265733 -0.40643725 4.4178176e-39
1.8806705 1.3233929 -0.40337086 4.4167414e-39
1.8230361 1.3330605 -0.40240365 4.5996935e-39
1.8310045 1.3370808 -0.4079099 4.3249031e-39
1.8460855 1.3381288 -0.40015438 4.6032851e-39
1.8573122 1.3330576 -0.40581056 4.4181778e-39
1.8669558 1.3315654 -0.40034992 4.3266982e-39
1.8725443 1.3322736 -0.4012506 4.2330648e-39
1.8239167 1.3459648 -0.40213162 4.3245458e-39
1.8319417 1.3499197 -0.40762469 4.3249031e-39
1.8469915 1.3447924 -0.40756142 4.2345068e-39
1.858501 1.3459313 -0.40533537 4.3263423e-39
1.8739064 1.3441509 -0.4010801 4.1419412e-39
1.8247973 1.3588691 -0.40185952 3.9575611e-39
1.8392661 1.3554602 -0.40277201 4.4178204e-39
1.8561105 1.3564931 -0.40785947 4.3259821e-39
1.8162141 1.3684943 -0.40296885 4.3259821e-39
1.837401 1.3633207 -0.40813041 4.5103706e-39
1.8451724 1.3684351 -0.40473059 4.5092944e-39
1.8545408 1.3665466 -0.40906495 4.4181735e-39
1.8088541 1.3778007 -0.40076527 4.2327075e-39
1.825069 1.3753924 -0.40352714 4.233425e-39
1.8436916 1.3727566 -0.40491104 4.2337865e-39
1.8527496 1.3707759 -0.4025327 4.2337865e-39
1.834005 1.3894608 -0.40406212 4.6029291e-39
1.8455805 1.3831208 -0.40425867 4.3256206e-39
1.8524852 1.3824388 -0.4044503 4.3256262e-39
1.8165053 1.3922093 -0.40274355 4.602569e-39
1.8455976 1.3948244 -0.40381947 4.234141e-39
1.795153 1.4088454 -0.40864822 4.4170988e-39
1.8266988 1.405831 -0.40688166 4.4185365e-39
1.8379133 1.4047453 -0.40611008 4.3259793e-39
1.8419108 1.4027115 -0.40440086 4.3259765e-39
1.7877612 1.4177251 -0.40639314 4.1412335e-39
1.815702 1.4171422 -0.4081971 4.3252619e-39
1.8276536 1.4174632 -0.40361077 4.234148e-39
1.8355904 1.4152212 -0.40389359 4.4181721e-39
1.8428175 1.4159302 -0.4037677 4.3266926e-39
1.8118956 1.4238191 -0.40943915 4.5092958e-39
1.7854886 1.4347759 -0.40511411 4.0497568e-39
1.8157936 1.4320499 -0.40603438 4.5096545e-39
1.8233967 1.4337536 -0.40645751 4.2341424e-39
1.8349684 1.433375 -0.40107536 4.2352186e-39
1.8091581 1.4429979 -0.40591216 4.2337865e-39
1.8135542 1.4435062 -0.40716624 4.5096559e-39
1.8207406 1.4432051 -0.40028208 4.4181778e-39
1.8344573 1.4441527 -0.40662563 4.1415881e-39
1.7832121 1.4517734 -0.40383625 4.2337837e-39
1.8056414 1.4581845 -0.40721688 4.5107363e-39
1.8155171 1.455888 -0.40597087 4.3259793e-39
1.8274546 1.4554467 -0.40426216 4.2337809e-39
1.7841183 1.4641869 -0.40356052 4.1412335e-39
1.806024 1.4678445 -0.40416154 4.5092944e-39
1.8162446 1.4648736 -0.40586108 4.3266926e-39
1.8245183 1.4680104 -0.40639374 4.2344998e-39
1.7850245 1.4766004 -0.40328476 4.1415881e-39
1.8052229 1.4749651 -0.40402865 4.4171044e-39
1.8153776 1.4735935 -0.40663129 4.8795048e-39
1.8215948 1.4791214 -0.40144169 4.4170988e-39
1.7836801 1.4854968 -0.40606272 4.2330704e-39
1.7914397 1.4871746 -0.40075457 4.8780741e-39
1.8082479 1.4842917 -0.40600157 4.4174589e-39
1.8189404 1.4821224 -0.40381029 3.9579157e-39
1.8213153 1.4810326 -0.40836537 4.2352186e-39
1.7784998 1.497354 -0.40076596 4.5085755e-39
1.7824714 1.4941435 -0.40876436 4.3256276e-39
1.8008014 1.4929597 -0.40356025 4.418891e-39
1.8166232 1.4965742 -0.40440437 4.0504714e-39
1.7794015 1.5097066 -0.40049154 4.1415881e-39
1.7835135 1.5063071 -0.40841231 4.3256248e-39
1.7946682 1.5063449 -0.40538675 4.5096545e-39
1.8051205 1.5030085 -0.40550244 4.4178134e-39
1.7772839 1.5158367 -0.40630266 4.3256248e-39
1.7893823 1.517754 -0.40617922 4.5092916e-39
1.7968502 1.5185367 -0.40151301 4.3263409e-39
1.8020675 1.5147977 -0.40397727 4.5100076e-39
1.8119364 1.5126505 -0.40043235 4.2344998e-39
1.7783215 1.5279473 -0.40595216 4.3256276e-39
1.7842823 1.5238156 -0.40650618 4.234504e-39
1.8027451 1.524708 -0.40655905 4.2337865e-39
1.7758172 1.538532 -0.40543967 4.4174589e-39
1.7878149 1.5370464 -0.40788984 4.5107251e-39
1.7950327 1.5304167 -0.40315825 3.9597191e-39
1.8038833 1.5370358 -0.40610403 4.1415909e-39
1.7844566 1.5446829 -0.40703011 4.4181735e-39
1.7968078 1.5475466 -0.40370846 4.4167442e-39
1.7513912 1.5528176 -0.40957814 4.0504756e-39
1.7737796 1.5544634 -0.40568155 4.5100146e-39
1.7860569 1.5521345 -0.40586782 4.2337851e-39
1.7979404 1.5598137 -0.40325567 4.3245486e-39
1.7524099 1.5647081 -0.40923399 4.2341466e-39
1.7664987 1.5658798 -0.40215877 4.7858813e-39
1.7760513 1.5683476 -0.40629649 4.4170988e-39
1.7838217 1.5644746 -0.4054203 4.4181763e-39
1.7904301 1.5639985 -0.40548435 4.6011215e-39
1.7525276 1.5782683 -0.40943831 4.418898e-39
1.7674595 1.578277 -0.40154433 4.6011327e-39
1.7765476 1.5790296 -0.40604433 4.4185351e-39
1.791489 1.5734181 -0.40516815 4.2337795e-39
1.7544475 1.5884892 -0.4085457 4.2341466e-39
1.7748609 1.5850091 -0.40777323 4.3249059e-39
1.752578 1.5922137 -0.40937835 4.5110979e-39
1.7776638 1.5918541 -0.40538839 4.510009e-39
1.7843699 1.5917308 -0.40459764 4.4181763e-39
1.7535294 1.6044896 -0.40876991 4.418905e-39
1.76763 1.6028699 -0.4025999 4.4185379e-39
1.7752333 1.6046605 -0.40444282 4.4178162e-39
1.7851936 1.6059086 -0.40170753 4.1423069e-39
1.7428675 1.6178272 -0.40392226 4.4167442e-39
1.7554829 1.6145177 -0.40800944 4.2341508e-39
1.7666396 1.6125197 -0.40685633 4.233432e-39
1.7752318 1.6165454 -0.40325415 4.3259807e-39
1.7461448 1.6294515 -0.40469933 4.3259849e-39
1.7580035 1.6282238 -0.40995064 4.6944073e-39
1.76771 1.6246761 -0.40636459 4.3245486e-39
1.7727824 1.6242638 -0.40580487 4.4178148e-39
1.7519078 1.6396079 -0.40761837 4.5103678e-39
1.763817 1.6346078 -0.40560564 4.6011313e-39
1.7725044 1.6350162 -0.40109393 4.3263381e-39
1.7474623 1.6438447 -0.40453506 4.3259835e-39
1.7626826 1.645172 -0.40398464 4.3259821e-39
1.7733506 1.647565 -0.40044174 4.4185337e-39
1.7458966 1.6531799 -0.40289903 4.2341466e-39
1.7547054 1.654067 -0.40560198 4.3263423e-39
1.7636452 1.6561186 -0.40363592 4.3249003e-39
1.7471659 1.6643308 -0.40442699 4.4185351e-39
1.7568836 1.664284 -0.40760764 4.5103706e-39
1.7441801 1.67551 -0.40199319 4.5100146e-39
1.7559175 1.672533 -0.40475386 4.5100118e-39
1.7635186 1.6781193 -0.40875635 4.4174561e-39
1.7446318 1.6840515 -0.40410849 4.3256248e-39
1.7532034 1.685856 -0.40329632 4.4181778e-39
1.7615582 1.6896701 -0.40757188 4.9699068e-39
1.7368214 1.6948533 -0.40670699 3.9582842e-39
1.7464899 1.6938275 -0.40399709 4.5096545e-39
1.7520773 1.6982782 -0.40190741 4.511088e-39
1.7671591 1.691484 -0.40864563 4.2344998e-39
1.7702734 1.6994746 -0.40893579 4.6936828e-39
1.7393339 1.707862 -0.4032959 4.4178204e-39
1.744771 1.7054615 -0.40278223 4.3259793e-39
1.7611752 1.7074058 -0.40621972 4.2348543e-39
1.7354541 1.7175405 -0.40500629 4.3263395e-39
1.7475913 1.717665 -0.40497437 4.2348669e-39
1.7529489 1.7106514 -0.40129727 4.5107251e-39
1.733059 1.7278076 -0.40545619 4.4178218e-39
1.7405273 1.7261841 -0.40497613 3.9575611e-39
1.7530097 1.7234511 -0.40267724 4.3259793e-39
1.7208586 1.7357976 -0.40830112 4.0501197e-39
1.7357577 1.7355759 -0.40808243 4.5107349e-39
1.7415359 1.7361995 -0.40232837 4.2337879e-39
1.7628191 1.7322117 -0.40482894 4.4170959e-39
1.7156847 1.7451277 -0.40631378 4.234511e-39
1.735407 1.7423048 -0.40503812 4.2337893e-39
1.7426198 1.7499509 -0.40401474 4.1415881e-39
1.7502142 1.7441436 -0.40152487 4.602569e-39
1.763641 1.7446145 -0.40413353 4.4181721e-39
1.716748 1.7566442 -0.40588871 4.0490407e-39
1.7240043 1.7549732 -0.40751892 4.4185365e-39
1.7341812 1.7535163 -0.4065271 4.417819e-39
1.7402287 1.7547981 -0.40714332 4.5103678e-39
1.751061 1.756489 -0.40093353 4.5110866e-39
1.7178113 1.7681608 -0.40546361 4.1412363e-39
1.7267019 1.7651262 -0.40445215 4.6947618e-39
1.7352333 1.7651695 -0.40460649 4.4178176e-39
1.7460762 1.7676305 -0.40263873 4.602569e-39
1.7566645 1.7607358 -0.40147737 4.3259765e-39
1.7053242 1.7745458 -0.40166828 4.1415909e-39
1.7250896 1.7758689 -0.40268007 4.7855211e-39
1.7359903 1.7757272 -0.40335402 4.4171002e-39
1.7444296 1.779639 -0.40398216 4.5103706e-39
1.7126368 1.7883775 -0.40280068 4.4174491e-39
1.7242657 1.7803801 -0.40902725 4.3267122e-39
1.7343724 1.7864662 -0.40552366 4.6025648e-39
1.7430787 1.7806079 -0.40936914 4.7869547e-39
1.7158895 1.7949976 -0.40455395 4.049398e-39
1.7229838 1.7943776 -0.40091303 4.8777154e-39
1.7372303 1.7948714 -0.40631777 4.7865987e-39
1.7448263 1.7922258 -0.40514112 4.418891e-39
1.7191112 1.801825 -0.4062582 4.5092916e-39
1.7293857 1.8014613 -0.40262243 4.9713459e-39
1.7365446 1.8048525 -0.40364712 4.6022075e-39
1.7467489 1.8047645 -0.40437096 4.2345026e-39
1.7023302 1.8176538 -0.40958863 2.2069344e-39
1.7165992 1.8108298 -0.40593553 4.6014928e-39
1.7217271 1.8139924 -0.4030318 4.4181778e-39
1.733223 1.8149757 -0.40318882 4.6951164e-39
1.7476079 1.8170176 -0.40371239 4.5110852e-39
1.717597 1.8243893 -0.40955794 4.2334292e-39
1.7235174 1.8259288 -0.40409085 4.4185309e-39
1.7333369 1.8254269 -0.40499336 4.3266982e-39
1.7164904 1.8345981 -0.40604377 4.4185337e-39
1.7237263 1.8367335 -0.40464619 4.5103706e-39
1.7363347 1.8346512 -0.40381107 4.6025648e-39
1.704429 1.8403835 -0.40874964 2.7604627e-39
1.7144662 1.8441633 -0.40739381 4.3263451e-39
1.7249066 1.8486199 -0.40606183 4.3263409e-39
1.7324615 1.8480319 -0.40218893 4.6029193e-39
1.70648 1.8536744 -0.40452006 3.8657284e-39
1.717499 1.8575585 -0.40684766 4.6944073e-39
1.7275306 1.8509258 -0.40170687 5.1539421e-39
1.7304531 1.8533206 -0.40558565 4.9702725e-39
1.6974553 1.8633497 -0.40796363 3.2196458e-39
1.7065278 1.8631134 -0.40791067 3.4047531e-39
1.7150567 1.866111 -0.4060306 4.7866029e-39
1.7283617 1.8630435 -0.40112647 5.1539421e-39
1.7313482 1.8654315 -0.40496266 4.6936856e-39
1.6984649 1.8748161 -0.40749979 3.680977e-39
1.7075771 1.8744783 -0.40749118 4.0504756e-39
1.7166357 1.8775297 -0.40657771 4.6951234e-39
1.7291929 1.8751612 -0.40054604 4.9713459e-39
1.7322433 1.8775425 -0.4043397 4.7862344e-39
1.6994743 1.8862824 -0.40703598 3.95828e-39
1.7077291 1.887575 -0.40511352 4.5110936e-39
1.7168655 1.8808181 -0.40459427 4.7866057e-39
1.7200931 1.8869146 -0.4060849 4.9720676e-39
1.6942596 1.8956201 -0.4049826 4.1412335e-39
1.7096759 1.8972082 -0.40665221 3.684577e-39
1.7167337 1.8919265 -0.404221 4.6944059e-39
1.722551 1.8943597 -0.40529922 4.6951234e-39
1.6952652 1.907041 -0.4045206 4.3270611e-39
1.7068418 1.9024138 -0.40300754 4.6025718e-39
1.7161874 1.9032239 -0.40770769 5.1543093e-39
1.7242188 1.9040787 -0.40455109 4.6032851e-39
1.6971879 1.9159917 -0.40322495 3.9589989e-39
1.7085886 1.91309 -0.40195772 4.7873218e-39
1.7137108 1.9138592 -0.40432492 4.9706327e-39
1.7239448 1.9144206 -0.40424302 4.6954807e-39
1.695757 1.9242576 -0.40430644 3.7735328e-39
1.7094669 1.9249817 -0.4013589 5.0639087e-39
1.7146096 1.9255549 -0.40326938 4.7865959e-39
1.7259052 1.9281372 -0.40325797 4.6036438e-39
1.6950417 1.9354365 -0.40496403 4.0490379e-39
1.7002316 1.937158 -0.40805081 3.3125603e-39
1.715474 1.9374307 -0.40269759 4.9709886e-39
1.7235805 1.938978 -0.40575245 4.7883924e-39
1.6920024 1.9499756 -0.40082893 4.6022145e-39
1.7000387 1.9437852 -0.4080832 3.6802582e-39
1.7150509 1.9460005 -0.40305465 4.4192553e-39
1.7223622 1.9456799 -0.40949407 4.879872e-39
1.6858429 1.9589896 -0.40988556 1.6541151e-39
1.6973411 1.9500074 -0.40846074 2.1132954e-39
1.7046328 1.9526656 -0.4084118 4.141958e-39
1.7137272 1.95329 -0.4040944 4.4192553e-39
1.7238123 1.9543278 -0.40697825 4.7876735e-39
1.6938602 1.9629244 -0.40275463 4.6018529e-39
1.7035562 1.962494 -0.40849623 3.1274459e-39
1.715822 1.9649638 -0.4028455 4.9713473e-39
1.7241355 1.9696743 -0.40825981 4.6954751e-39
1.6868391 1.9703043 -0.40942785 2.0218186e-39
1.6938672 1.9748853 -0.40502685 3.7724524e-39
1.7035733 1.9747686 -0.40732944 3.6813386e-39
1.7166277 1.9769129 -0.40222436 4.9706285e-39
1.6878353 1.9816189 -0.40897018 2.3902382e-39
1.6904123 1.9853599 -0.40246814 4.6029291e-39
1.7059634 1.9869642 -0.40553519 4.049398e-39
1.7258919 1.9843259 -0.40535188 4.8787888e-39
1.6770136 1.9923579 -0.40962437 1.9306992e-39
1.6888314 1.9929335 -0.40851247 2.4824311e-39
1.6913608 1.9967816 -0.40191686 4.694057e-39
1.7039679 1.9957844 -0.40695214 3.7731755e-39
1.7190897 1.9967109 -0.40522888 5.0628185e-39
1.7275568 1.9989809 -0.40238822 5.2461378e-39
1.6835628 2.0016627 -0.40643796 2.3905984e-39
1.6923094 2.0082033 -0.40136555 4.877358e-39
1.7038052 2.0050988 -0.40673897 3.404393e-39
1.6845549 2.0129318 -0.40598214 2.2994845e-39
1.693258 2.0196249 -0.40081424 4.6944073e-39
1.7059838 2.0163066 -0.40700668 3.7731713e-39
1.7131492 2.0116441 -0.40282047 4.972062e-39
1.6798329 2.0263042 -0.40798584 1.2871347e-39
1.69182 2.0268774 -0.40713942 2.6671909e-39
1.7045498 2.0241497 -0.40650019 3.4962271e-39
1.714028 2.023535 -0.40220881 4.7876707e-39
1.6865393 2.0354702 -0.40507042 2.7601068e-39
1.7064559 2.033747 -0.40576142 4.1419552e-39
1.721738 2.0325432 -0.4033857 4.9713459e-39
1.6857611 2.0453298 -0.40693799 2.2065714e-39
1.7065526 2.0438001 -0.40429795 4.5110936e-39
1.7135658 2.0458531 -0.40324455 4.6954821e-39
1.6885237 2.0580084 -0.40415874 3.1281634e-39
1.7056445 2.0526545 -0.40630412 3.4043888e-39
1.7112339 2.0550489 -0.40560019 4.6958478e-39
1.6897218 2.0661645 -0.40595567 3.1274431e-39
1.6960009 2.0627165 -0.40969303 2.4824339e-39
1.704481 2.0621533 -0.40468118 3.7728111e-39
1.715517 2.0658774 -0.4058736 5.1553841e-39
1.6842153 2.0776429 -0.4016431 3.7735328e-39
1.6938847 2.0743537 -0.40838963 2.8501374e-39
1.7058283 2.075881 -0.40338525 4.3259835e-39
1.7113674 2.0759845 -0.40740788 4.6940416e-39
1.6852034 2.0888667 -0.40118909 3.5909394e-39
1.6948053 2.0858231 -0.40782854 3.1263641e-39
1.7057066 2.0868692 -0.40483168 3.9571982e-39
1.7126017 2.0893939 -0.40430114 5.6174342e-39
1.6854715 2.0941978 -0.40470877 2.9430561e-39
1.6986912 2.0974269 -0.40797266 3.219643e-39
1.7033937 2.0980217 -0.40207425 4.2341494e-39
1.7148436 2.0917435 -0.40311906 5.0635444e-39
1.6863015 2.1028018 -0.40244883 3.589143e-39
1.6934236 2.1073368 -0.40582138 3.4040342e-39
1.7059109 2.1050382 -0.40351403 4.2337907e-39
1.7142156 2.1049156 -0.40472803 4.878437e-39
1.687351 2.1168287 -0.40361643 3.4040342e-39
1.6954638 2.1161501 -0.40570322 3.9575611e-39
1.7023846 2.1103106 -0.40278861 3.4962215e-39
1.7153816 2.1142483 -0.40245003 5.246865e-39
1.6882907 2.1281443 -0.40307024 3.4969459e-39
1.7022338 2.1239519 -0.40714765 3.4965816e-39
1.7156134 2.1246481 -0.403685 4.6947674e-39
1.6892306 2.1394596 -0.40252405 3.8650124e-39
1.6930822 2.1338389 -0.40724 4.3259849e-39
1.7054931 2.1349449 -0.40516722 3.4047489e-39
1.7152926 2.1336057 -0.40680605 4.1401545e-39
1.6953743 2.1446612 -0.40539467 3.957201e-39
1.7017819 2.1400237 -0.4025625 4.1426713e-39
1.7148371 2.1464241 -0.40335312 4.4178204e-39
1.6972388 2.153718 -0.40367752 3.8653711e-39
1.7044106 2.1553566 -0.40561977 3.2207178e-39
1.7192158 2.1509359 -0.40013829 5.1539463e-39
1.7239138 2.1549325 -0.40740266 4.0475946e-39
1.6945 2.1635253 -0.40219855 3.9575667e-39
1.7048599 2.1631889 -0.40814459 3.2199975e-39
1.7176136 2.1647801 -0.40264848 4.4174575e-39
1.6968104 2.1733522 -0.40440929 4.3259863e-39
1.7050679 2.1719258 -0.40728945 3.3125519e-39
1.7113729 2.1744745 -0.40968639 4.2337865e-39
1.6983409 2.1853192 -0.40340227 4.5093014e-39
1.7028383 2.1851907 -0.40605164 4.0490379e-39
1.7187922 2.1809568 -0.40437034 2.2083567e-39
1.7024173 2.195575 -0.40556681 4.6940458e-39
1.7154124 2.1953459 -0.40421307 3.1270816e-39
1.7265503 2.1906052 -0.40556768 3.3125463e-39
1.7057067 2.2066019 -0.40645346 4.6025662e-39
1.7206045 2.2065446 -0.40634021 4.7880365e-39
1.7063658 2.2171915 -0.40511462 5.3401284e-39
1.7260156 2.2152729 -0.402796 4.1426685e-39
1.6952851 2.2206726 -0.40980023 4.9699152e-39
1.7158285 2.225019 -0.40650192 4.9720648e-39
1.722761 2.225554 -0.40382549 5.15574e-39
1.6965363 2.2313318 -0.40937012 4.6944045e-39
1.7183682 2.2334418 -0.40603447 5.0639073e-39
1.7237959 2.2360461 -0.404154 5.4308891e-39
1.690856 2.2414067 -0.40706676 4.9702725e-39
1.7079464 2.2407758 -0.40397614 4.879516e-39
1.7192386 2.2452271 -0.40544099 5.2479356e-39
1.723094 2.242063 -0.40443093 5.5238064e-39
1.6917416 2.2528327 -0.40650043 4.9709942e-39
1.7017261 2.2530637 -0.40158156 5.2490174e-39
1.7180793 2.2546873 -0.40735286 5.3394166e-39
1.7201091 2.2570126 -0.40484753 5.15574e-39
1.7309445 2.2500598 -0.40250936 5.3401312e-39
1.6926272 2.2642589 -0.40593413 5.0635472e-39
1.7095271 2.2643604 -0.40283766 5.3397767e-39
1.7133293 2.2600217 -0.40069744 4.5107349e-39
1.722785 2.2682302 -0.40523121 5.4316094e-39
1.7318234 2.2619507 -0.4018977 5.5245253e-39
1.7173351 2.2757635 -0.40408865 5.3397767e-39
1.7231588 2.2777879 -0.40702784 5.3397739e-39
1.733777 2.2748084 -0.40072131 5.5234435e-39
1.7038023 2.2851343 -0.40760037 4.6947674e-39
1.7181289 2.2876089 -0.40351686 5.5245253e-39
1.7253289 2.2843425 -0.40670675 5.3397739e-39
1.7335811 2.2857327 -0.40067437 5.5234463e-39
1.7189229 2.2994542 -0.40294504 5.3404956e-39
1.7285427 2.2949765 -0.40630615 5.4319709e-39
1.73446 2.2976236 -0.40006271 5.6152846e-39
1.701509 2.3009737 -0.40582025 5.3386977e-39
1.7269446 2.3031859 -0.40421662 5.5245253e-39
1.7378464 2.3066945 -0.40604389 5.2465021e-39
1.7096646 2.315341 -0.40709832 5.2465021e-39
1.7197167 2.3112996 -0.40237325 5.524168e-39
1.7286338 2.3117676 -0.40954101 5.7078376e-39
1.7346252 2.3148687 -0.40646946 5.5238064e-39
1.7105578 2.3268657 -0.40652713 5.2465021e-39
1.7275424 2.3229685 -0.40361136 5.7074802e-39
1.7369096 2.325078 -0.40726405 5.3408515e-39
1.7114511 2.3383904 -0.40595591 5.0631898e-39
1.7380391 2.33377 -0.40632102 5.3404928e-39
1.7432773 2.3371141 -0.40580803 5.6167181e-39
1.7525249 2.3332834 -0.40140486 5.5238036e-39
1.7381936 2.3457844 -0.40953815 5.6167153e-39
1.7425886 2.3460186 -0.40515265 5.4323283e-39
1.7549201 2.3484395 -0.4004572 5.7074802e-39
1.7185835 2.3525336 -0.40696082 4.9717131e-39
1.7462616 2.3571868 -0.40545791 5.4323297e-39
1.7606596 2.3525338 -0.40256092 5.8000304e-39
1.7194803 2.3641038 -0.40638736 5.1561071e-39
1.7473664 2.3630638 -0.40640369 5.7081977e-39
1.7615508 2.3645916 -0.40194067 5.7078376e-39
1.720377 2.375674 -0.4058139 5.1561029e-39
1.7415982 2.3719411 -0.4075551 5.5248868e-39
1.7527649 2.3714972 -0.4062756 5.5245281e-39
1.7630472 2.3748863 -0.40117991 5.5234477e-39
1.7554333 2.3827705 -0.40544862 5.7078376e-39
1.7626097 2.3840356 -0.40432188 5.524168e-39
1.7702827 2.3874209 -0.40245992 5.9826266e-39
1.728565 2.3904586 -0.40707129 5.1561043e-39
1.7634269 2.3952525 -0.4070898 5.4323297e-39
1.7717887 2.3987756 -0.40172416 5.707839e-39
1.7367612 2.4053495 -0.40832341 4.8798804e-39
1.7694169 2.4072638 -0.4088068 5.4326898e-39
1.7722962 2.408072 -0.4079617 5.5245225e-39
1.7733756 2.4164355 -0.40595722 5.8003961e-39
1.7813354 2.4110057 -0.4030059 5.4323297e-39
1.7449658 2.4203467 -0.40957031 5.0642716e-39
1.7593977 2.4264126 -0.40135089 5.1561071e-39
1.7799296 2.4226265 -0.40234259 6.0758984e-39
1.7823818 2.4229739 -0.40606564 5.3404942e-39
1.7603151 2.4382482 -0.40076426 5.3404956e-39
1.7789026 2.4315515 -0.40872321 5.7089208e-39
1.7861385 2.4342194 -0.40640709 5.7996745e-39
1.7920716 2.4341531 -0.4023447 5.5241694e-39
1.7875141 2.4429526 -0.40910724 5.7096326e-39
1.7968631 2.446234 -0.40343556 5.7081991e-39
1.7758464 2.4569325 -0.4037118 5.3419403e-39
1.8046544 2.4565561 -0.40405354 5.8925918e-39
1.8083737 2.4639182 -0.40378749 5.7085592e-39
1.8214025 2.4663172 -0.409289 5.8929505e-39
1.784083 2.472352 -0.40488434 6.0784264e-39
1.8187957 2.4750006 -0.4037959 5.8929519e-39
1.8259974 2.4777811 -0.40671986 5.9851489e-39
1.793373 2.4883821 -0.40630329 6.6305155e-39
1.8286864 2.4836702 -0.40637791 5.9851461e-39
1.8349352 2.4934537 -0.40714836 6.1695388e-39
1.8410196 2.4917693 -0.40005067 5.8929533e-39
1.8558807 2.4995837 -0.40255859 6.261733e-39
1.8016267 2.5040214 -0.40746495 4.6022117e-39
1.845631 2.5029843 -0.40651369 6.3539286e-39
1.8500159 2.5056491 -0.40134141 6.0780634e-39
1.8432751 2.5110204 -0.4068886 5.707483e-39
1.8636366 2.5127437 -0.40463376 6.4461271e-39
1.8681705 2.5211117 -0.40475631 5.4326912e-39
1.872497 2.5247402 -0.40168393 5.2479468e-39
1.881511 2.5252161 -0.4036907 6.1698975e-39
1.842146 2.53527 -0.40396655 4.4189078e-39
1.8771882 2.5353029 -0.40603212 5.4326912e-39
1.8871199 2.5482435 -0.40257907 5.0639115e-39
1.8984661 2.5405645 -0.40519372 5.708925e-39
1.9016565 2.547091 -0.40995607 6.1699031e-39
1.8588073 2.5555685 -0.40699631 4.6032963e-39
1.8995612 2.5532954 -0.40635791 5.708925e-39
1.9071686 2.5541091 -0.40453264 5.8940351e-39
1.9193959 2.558249 -0.40015405 6.0769914e-39
1.9162321 2.5687852 -0.40886724 5.6170853e-39
1.926175 2.5677173 -0.40798691 6.0784292e-39
1.9350448 2.5701733 -0.40367341 5.9858678e-39
1.9025342 2.5893641 -0.40346187 4.8820468e-39
1.9475584 2.583765 -0.40363091 6.1695458e-39
1.9524839 2.5840178 -0.40362912 5.9855105e-39
1.9423642 2.59025 -0.40005711 5.9851517e-39
1.9730709 2.5954099 -0.40335071 6.3542972e-39
1.9658885 2.6003168 -0.40571886 5.9862335e-39
1.9921335 2.6098986 -0.40661824 6.3542986e-39
1.9711328 2.6124971 -0.40545112 6.2621016e-39
1.9850734 2.6164119 -0.4091624 5.9858762e-39
2.009666 2.6246626 -0.40472928 6.1699073e-39
2.0151982 2.6337557 -0.4011451 6.1702675e-39
2.036448 2.6336067 -0.40738186 6.7223608e-39
2.0251827 2.6419268 -0.40482676 7.7397554e-39
2.0567799 2.6538973 -0.4092465 6.3542986e-39
2.0643272 2.6553414 -0.40541959 6.4468544e-39
2.0615687 2.6686318 -0.40916216 6.2635421e-39
2.0784655 2.6604431 -0.40040055 6.9989477e-39
2.0753794 2.6703756 -0.40676695 6.4464928e-39
2.0905845 2.6746967 -0.4019931 6.8152725e-39
2.0939763 2.6839299 -0.4057042 6.7230769e-39
2.101146 2.688828 -0.40248257 6.6316001e-39
2.11854 2.6876168 -0.40031236 6.9067535e-39
2.1228421 2.6892049 -0.40780118 7.5542837e-39
2.1062045 2.7009957 -0.40732399 7.1808223e-39
2.114172 2.7028155 -0.40449327 7.1844306e-39
2.1528997 2.7054129 -0.40629089 8.2000161e-39
2.1274331 2.7186313 -0.40644583 6.0719608e-39
2.1650207 2.72142 -0.40771878 6.1710102e-39
1.5809436 -0.79678524 -0.39132822 3.866083e-39
1.5889431 -0.78871012 -0.39329293 3.5894961e-39
1.5959435 -0.78002447 -0.39500979 1.8428224e-39
1.5889548 -0.7644968 -0.39325964 9.219563e-41
1.566951 -0.74195731 -0.39973432 1.8438846e-40
1.5809667 -0.74860239 -0.39126202 2.7658409e-40
1.5669568 -0.73001826 -0.3997179 1.8438846e-40
1.5809726 -0.73655671 -0.39124548 1.8438846e-40
1.5669625 -0.71807921 -0.39970151 1.8438846e-40
1.5669683 -0.70614022 -0.39968508 1.8438846e-40
1.5795366 -0.70105904 -0.39399287 1.8438846e-40
1.5669798 -0.68226212 -0.39965227 1.8438846e-40
1.5727649 -0.68558705 -0.39193434 1.8438846e-40
1.5669855 -0.67032307 -0.39963588 1.8438846e-40
1.5729499 -0.67370671 -0.39162922 1.8438846e-40
1.573135 -0.66182637 -0.3913241 1.8439126e-40
1.5669912 -0.65838403 -0.39961949 1.8438846e-40
1.5669971 -0.64644498 -0.39960307 1.8438846e-40
1.5733202 -0.64994597 -0.39101896 1.8439126e-40
1.560008 -0.63167179 -0.39780065 1.8438846e-40
1.5736904 -0.62618536 -0.39040872 1.8439126e-40
1.5600138 -0.61978608 -0.39778432 1.8438846e-40
1.5600195 -0.60790038 -0.39776799 1.8438846e-40
1.5531445 -0.59298491 -0.39612925 1.8438986e-40
1.5534408 -0.58090901 -0.39599168 1.8439126e-40
1.5390465 -0.57626617 -0.39237809 9.219563e-41
1.5390521 -0.56454045 -0.392362 9.219563e-41
1.5466578 -0.56613141 -0.39389765 9.219563e-41
1.5390577 -0.55281472 -0.39234588 1.8439126e-40
1.5468396 -0.55446428 -0.39359802 1.8438846e-40
1.5390635 -0.541089 -0.39232975 1.8439126e-40
1.5470214 -0.54279715 -0.39329836 9.219563e-41
1.5472032 -0.53113002 -0.39299873 9.219563e-41
1.5390691 -0.52936333 -0.39231366 2.7586802e-40
1.5320798 -0.51528347 -0.39051217 2.7586802e-40
1.547385 -0.519463 -0.39269909 1.8439126e-40
1.5390804 -0.50591195 -0.39228144 2.7622395e-40
1.5475668 -0.50779587 -0.39239943 1.8438846e-40
1.539086 -0.49418625 -0.39226532 2.7622395e-40
1.5477486 -0.49612874 -0.3920998 9.219563e-41
1.5320966 -0.48026633 -0.39046407 2.7622395e-40
1.5479304 -0.48446161 -0.39180014 1.8367239e-40
1.5481122 -0.47279447 -0.3915005 2.7622395e-40
1.5321022 -0.46859396 -0.39044803 2.7622395e-40
1.5482939 -0.46112734 -0.39120087 3.6806365e-40
1.5130184 -0.45203146 -0.39036712 1.8439126e-40
1.5321079 -0.45692161 -0.390432 2.7622395e-40
1.526305 -0.44773868 -0.39355597 9.219563e-41
1.5391085 -0.44728348 -0.39220089 1.8438846e-40
1.5484757 -0.44946021 -0.39090121 2.7586802e-40
1.5321192 -0.43357685 -0.3903999 1.8438846e-40
1.5142814 -0.42922738 -0.39000914 9.219563e-41
1.5275789 -0.42473677 -0.39319488 9.219563e-41
1.5321248 -0.42190447 -0.39038387 1.8438846e-40
1.5448633 -0.42308724 -0.39333969 1.8403113e-40
1.5490211 -0.41445893 -0.39000228 2.7586802e-40
1.5288529 -0.40173486 -0.3928338 9.2194229e-41
1.542313 -0.40018404 -0.3995437 9.219563e-41
1.52949 -0.39023384 -0.39265326 1.8439126e-40
1.532136 -0.39855975 -0.3903518 1.8439126e-40
1.5295339 -0.38438019 -0.39585465 1.8439126e-40
1.5391368 -0.38865495 -0.39212033 1.8439126e-40
1.5353208 -0.37691012 -0.39398673 2.7586662e-40
1.5249054 -0.3642703 -0.39074281 9.2914496e-41
1.5444996 -0.36610353 -0.39626071 3.6770352e-40
1.531401 -0.35573092 -0.39211163 1.8439126e-40
1.544593 -0.35440707 -0.39610347 1.8438986e-40
1.5390191 -0.3446655 -0.39289644 1.8402972e-40
1.5501996 -0.34415793 -0.39987266 1.8367239e-40
1.5393419 -0.33302557 -0.39279771 3.6770072e-40
1.5433987 -0.33050114 -0.39775404 4.5918309e-40
1.5391706 -0.31830075 -0.39202365 1.8439126e-40
1.5435797 -0.31888732 -0.39745578 9.2198432e-41
1.5391762 -0.30657503 -0.39200753 5.5173184e-40
1.550745 -0.30915654 -0.3989737 3.6734619e-40
1.6111882 -0.30873087 -0.3985531 1.1956579e-39
1.5461774 -0.29619026 -0.39377543 1.0101905e-39
1.5509268 -0.29748943 -0.39867407 8.2652367e-40
1.5461831 -0.28441125 -0.39375925 1.7448758e-39
1.5511086 -0.28582233 -0.39837444 6.4320861e-40
1.5591903 -0.2172761 -0.39838183 5.5144458e-39
1.5602082 -0.21567217 -0.39722905 4.964544e-39
1.552381 -0.20415249 -0.39627692 7.7221256e-39
1.5681393 -0.17149997 -0.39659786 2.7622395e-40
1.5421726 -0.1690616 -0.39693809 1.8367239e-40
1.5765556 -0.16468012 -0.39354593 1.8367239e-40
1.5825304 -0.16606981 -0.39993966 1.8438846e-40
1.5602368 -0.15624367 -0.39714739 2.7658409e-40
1.5706508 -0.14921165 -0.39150843 1.8439126e-40
1.5850365 -0.14486092 -0.39479953 3.6841958e-40
1.597777 -0.14871931 -0.3910352 1.8439406e-40
1.6023587 -0.14204115 -0.39500743 4.6061521e-40
1.5987351 -0.13454725 -0.3906121 2.7658409e-40
2.3159332 0.86749971 -0.39620066 6.3553902e-39
2.2760727 0.87681431 -0.39829862 4.9728061e-39
2.3609767 0.87243015 -0.39692509 6.9074864e-39
2.2356796 0.88670897 -0.39046758 4.5107461e-39
2.2431715 0.88818777 -0.39905021 4.4192792e-39
2.3125143 0.88586259 -0.39826557 4.7884106e-39
2.1972373 0.89666128 -0.39901829 4.5107349e-39
2.2234247 0.89153439 -0.39476076 4.235241e-39
2.2707701 0.89287817 -0.39051554 4.6032991e-39
2.3808258 0.89559239 -0.39428365 5.1586337e-39
2.4097548 0.89640683 -0.3915979 6.262117e-39
2.4437397 0.89044565 -0.39715359 1.0410201e-38
2.1727948 0.90907055 -0.39455515 3.9579269e-39
2.2046192 0.90949988 -0.39417511 4.2345138e-39
2.3437443 0.90757406 -0.39866519 4.7876903e-39
2.1461141 0.91681725 -0.39504233 2.5782406e-39
2.1546075 0.91441208 -0.39357832 4.0504938e-39
2.1621034 0.91641432 -0.39795348 4.1415993e-39
2.2901487 0.91669655 -0.39485809 4.2337949e-39
2.3127582 0.91318071 -0.39336324 4.5111035e-39
2.1377547 0.92620718 -0.39622688 3.9579311e-39
2.1586056 0.92049259 -0.39740342 4.1423153e-39
2.1922817 0.92221951 -0.39151165 4.2341508e-39
2.1357617 0.93562937 -0.39232424 4.4178232e-39
2.2071073 0.93766475 -0.39381611 4.4171016e-39
2.2377594 0.93471104 -0.39756879 4.3256276e-39
2.0982776 0.94966686 -0.39487955 2.6686272e-39
2.1155899 0.94602668 -0.39746082 4.1419524e-39
2.1260784 0.94204056 -0.39645207 4.1412335e-39
2.1915922 0.94692844 -0.39227843 4.2337865e-39
2.0964355 0.95569789 -0.39732975 4.4174603e-39
2.1152873 0.9588744 -0.39641851 4.3259793e-39
2.144146 0.95633423 -0.39712793 4.233432e-39
2.0840154 0.96699321 -0.39338797 4.2337879e-39
2.0929551 0.96920937 -0.39157408 4.5092944e-39
2.1042926 0.96558219 -0.39988935 4.4181778e-39
2.1537707 0.96524876 -0.398945 4.3245486e-39
2.1918476 0.96332484 -0.39185733 4.2337865e-39
2.0756569 0.97879004 -0.39223608 4.2334292e-39
2.0901296 0.97034818 -0.39747345 4.0493952e-39
2.1450102 0.97193491 -0.39688301 4.2323502e-39
2.094476 0.98015845 -0.39725649 4.2334292e-39
2.1245961 0.98320973 -0.39304921 4.3245458e-39
2.1537786 0.98165256 -0.39892244 4.1412391e-39
2.0622184 0.99227208 -0.39255464 4.3259835e-39
2.1148012 0.99608314 -0.39164785 4.3241857e-39
2.1403136 0.99095511 -0.39719796 4.1412391e-39
2.0527658 1.0047551 -0.39802408 4.0497568e-39
2.1274552 1.001362 -0.39434105 4.3249031e-39
2.0447483 1.013425 -0.3952359 4.1419524e-39
2.0512259 1.0189703 -0.39631057 4.4170988e-39
2.0883729 1.0157202 -0.39974266 4.5089399e-39
2.0379055 1.0206449 -0.39989024 4.1423069e-39
2.0439081 1.0221145 -0.39969966 4.5107335e-39
2.0769546 1.0269461 -0.3971093 4.5092944e-39
2.0284929 1.0323347 -0.39351049 4.1419524e-39
2.0359216 1.0331719 -0.39629832 4.1415909e-39
2.0522356 1.0337667 -0.3959986 4.5092944e-39
2.065177 1.0366349 -0.39625192 5.3361726e-39
2.0169392 1.0487317 -0.39158031 4.4181778e-39
2.0240185 1.0439833 -0.3952885 4.508937e-39
2.0420308 1.0456791 -0.39345098 4.508937e-39
2.0561316 1.0495348 -0.39225 4.7840848e-39
2.0791345 1.0427885 -0.39905608 4.2345026e-39
2.0148797 1.0564051 -0.39289752 4.9681117e-39
2.0256143 1.0518378 -0.39138764 3.6806071e-39
2.0358202 1.0556998 -0.3920294 4.2330662e-39
2.0655417 1.0516791 -0.39706188 7.5520809e-39
2.0071895 1.0639585 -0.3940675 3.5891359e-39
2.014436 1.0623451 -0.39491317 3.5894975e-39
2.0398331 1.0695108 -0.39313066 4.2319886e-39
2.0554016 1.0624171 -0.39358819 4.0493924e-39
1.987227 1.0750202 -0.3994891 4.3270583e-39
1.9993194 1.0775094 -0.39732033 4.2345026e-39
2.0021296 1.0781536 -0.39843142 3.3096778e-39
2.0278425 1.0786602 -0.39079443 3.6806127e-39
2.0435305 1.0719572 -0.3908613 3.9579157e-39
1.988425 1.089005 -0.39908433 4.5110894e-39
1.9929191 1.0838711 -0.39626756 4.1412321e-39
2.0249679 1.0823854 -0.399645 3.1277991e-39
2.0437682 1.0872114 -0.39046955 2.7597326e-39
1.9843464 1.0959347 -0.39490017 4.4178218e-39
1.9906125 1.0921087 -0.39472941 4.5092944e-39
2.015538 1.0932986 -0.39734986 4.1415909e-39
2.0278499 1.0941039 -0.39077321 3.4973005e-39
1.977338 1.1046402 -0.39727536 4.7844365e-39
1.9859451 1.1041446 -0.39558077 4.0501141e-39
1.9928513 1.1036372 -0.39551377 4.8762832e-39
2.0050755 1.1036787 -0.39485073 4.4163771e-39
2.0100329 1.1008776 -0.39809299 4.3245458e-39
1.9681422 1.116293 -0.39482528 4.6007711e-39
1.972322 1.1157589 -0.39394665 4.3259835e-39
1.9806666 1.1158801 -0.39614403 4.9684789e-39
1.9947281 1.1161137 -0.3938863 4.4167386e-39
2.0102665 1.115873 -0.39770788 4.0483162e-39
1.9752049 1.1254127 -0.39348751 4.0497512e-39
1.9848605 1.1267177 -0.39143974 4.3252576e-39
1.9993923 1.1251254 -0.39511132 3.9568423e-39
1.9572195 1.1311169 -0.39666948 4.602569e-39
1.9658253 1.1325903 -0.39369988 4.4171016e-39
1.9928515 1.1359409 -0.3991155 4.3245458e-39
1.9478412 1.1463568 -0.39642459 4.326701e-39
1.9574968 1.1463784 -0.39682567 4.4170988e-39
1.9680926 1.1416078 -0.39018366 4.0493952e-39
1.9808607 1.1441834 -0.39668906 4.3245458e-39
1.9996246 1.1400367 -0.39472836 3.9575597e-39
1.9464724 1.1585662 -0.39750475 4.6007683e-39
1.9537549 1.1519082 -0.39011407 4.4181721e-39
1.9640495 1.157395 -0.39561385 4.5089356e-39
1.980868 1.1592691 -0.39666834 4.1405091e-39
1.9998569 1.1549481 -0.3943454 4.0493924e-39
1.938472 1.1608305 -0.39623988 4.4181778e-39
1.9462013 1.1637758 -0.39557183 4.2345026e-39
1.9576443 1.1690536 -0.39711225 4.3259793e-39
1.9293019 1.1776613 -0.39316899 4.233432e-39
1.9353753 1.1722661 -0.39923093 4.3263423e-39
1.945262 1.176105 -0.3951163 4.1415895e-39
1.9808753 1.1743547 -0.3966476 4.3249003e-39
1.9195646 1.1898782 -0.39034808 4.3241857e-39
1.9275973 1.1886319 -0.3966161 4.4181778e-39
1.9344167 1.189362 -0.39840385 4.4170959e-39
1.9446684 1.182333 -0.3982496 4.2341396e-39
1.914382 1.1948665 -0.39762136 4.6947646e-39
1.9219476 1.1901559 -0.39105126 4.4178232e-39
1.9394709 1.191678 -0.39521816 3.7728027e-39
1.9434944 1.1919581 -0.39493087 4.1412321e-39
1.9155126 1.2084801 -0.39696425 4.6944073e-39
1.924559 1.2023785 -0.39378685 4.3256206e-39
1.9359927 1.2026627 -0.39306608 4.1412279e-39
1.9576709 1.2051375 -0.39843014 4.1405091e-39
1.9183979 1.2183218 -0.39635992 4.4174575e-39
1.9256053 1.2152535 -0.39423347 4.4174575e-39
1.9401913 1.2162981 -0.39197063 4.3249003e-39
1.9578981 1.2197213 -0.39805561 4.0483134e-39
1.9057691 1.2238426 -0.39678377 4.4174617e-39
1.9174581 1.2265794 -0.39191437 4.4170988e-39
1.898033 1.2353009 -0.39525783 4.3256248e-39
1.9090683 1.2308985 -0.39713815 4.2341368e-39
1.9112571 1.2338141 -0.39355579 4.4167386e-39
1.8871782 1.2443374 -0.3946088 4.2323502e-39
1.8908991 1.2474757 -0.39456114 4.1419552e-39
1.9115336 1.2443311 -0.3977704 4.5085713e-39
1.8880951 1.2577736 -0.39432555 4.3245486e-39
1.8945985 1.2538738 -0.39938995 4.602569e-39
1.9025606 1.254135 -0.39400426 4.3252647e-39
1.8797437 1.2674778 -0.3920362 3.9568423e-39
1.8845133 1.2642391 -0.39490205 4.3252647e-39
1.8958206 1.2651927 -0.39612523 4.1419468e-39
1.9030933 1.2662477 -0.3974776 4.3249003e-39
1.8776566 1.277301 -0.39543295 4.5074979e-39
1.8842363 1.2746009 -0.39149946 4.2348627e-39
1.8952335 1.2759893 -0.39544979 4.2327075e-39
1.8693447 1.2873168 -0.39310125 4.5074965e-39
1.8764846 1.2818575 -0.39736888 4.8773552e-39
1.8856301 1.2849088 -0.39298931 4.5089314e-39
1.8942184 1.2895542 -0.39567798 4.4167414e-39
1.8546063 1.2960491 -0.39837873 4.2319886e-39
1.8788238 1.296419 -0.39670357 4.3252647e-39
1.8864679 1.2964319 -0.39247331 4.1408678e-39
1.8555045 1.3092117 -0.39810127 4.3249003e-39
1.8646991 1.306139 -0.39588487 4.1423097e-39
1.8703054 1.3004746 -0.39280894 4.4163799e-39
1.8831222 1.304697 -0.3963691 4.325622e-39
1.8463142 1.3177502 -0.3975504 4.2327075e-39
1.8613902 1.3129709 -0.39378226 4.2323488e-39
1.8721019 1.3138032 -0.39080271 4.60149e-39
1.8857483 1.3127192 -0.39178953 3.9571982e-39
1.8381981 1.327064 -0.39718962 4.4170959e-39
1.8618827 1.3259268 -0.3940165 4.3256234e-39
1.8731363 1.3271487 -0.39014128 4.694036e-39
1.8809899 1.324026 -0.39328277 4.3249003e-39
1.8352349 1.3382471 -0.39410383 4.1405105e-39
1.8480048 1.331393 -0.39548028 4.2323502e-39
1.8653049 1.33331 -0.39468047 4.3249003e-39
1.8580275 1.3461925 -0.39629567 4.6014886e-39
1.864085 1.344389 -0.3975561 4.2327075e-39
1.8439825 1.3531737 -0.3952229 4.3252619e-39
1.8583578 1.3580027 -0.39564872 4.3252633e-39
1.8636261 1.3596762 -0.39396742 4.0493924e-39
1.8329222 1.3624713 -0.39261243 4.049754e-39
1.848246 1.3641424 -0.39889875 4.4181778e-39
1.85736 1.3666484 -0.39642623 4.3259765e-39
1.8601483 1.3617792 -0.39700028 4.4181778e-39
1.8243642 1.3715622 -0.39208746 4.0493924e-39
1.8449888 1.3751669 -0.39585382 4.6014914e-39
1.8557315 1.3757263 -0.39404419 4.3256206e-39
1.8607596 1.3712124 -0.39145681 4.0493952e-39
1.8014853 1.3869854 -0.39856443 4.4163799e-39
1.8182746 1.3806887 -0.39942449 4.1415909e-39
1.8252965 1.3843328 -0.39180377 4.1405119e-39
1.841756 1.3874376 -0.39280629 4.510016e-39
1.8545718 1.3804684 -0.39491293 4.3252619e-39
1.8024043 1.3995736 -0.39828479 4.4170959e-39
1.8191512 1.3935323 -0.39915371 3.9579157e-39
1.8253552 1.3912221 -0.39198738 4.60149e-39
1.8346074 1.3939365 -0.39934736 4.1415881e-39
1.8459586 1.3952498 -0.39950806 4.6014872e-39
1.8519093 1.3943778 -0.3934947 4.1412265e-39
1.8181404 1.4052924 -0.39948153 4.4181778e-39
1.8200276 1.4063756 -0.39888293 3.9579157e-39
1.835999 1.4048153 -0.39489096 4.4178162e-39
1.8448021 1.4041065 -0.39145574 4.4167414e-39
1.8033233 1.4121618 -0.39800516 4.3249003e-39
1.8191389 1.4181752 -0.39884302 4.6936856e-39
1.8241941 1.4180378 -0.39468113 4.2337879e-39
1.834437 1.4190087 -0.39659554 4.0501127e-39
1.8404063 1.4152734 -0.39926055 3.8660802e-39
1.8513582 1.4110119 -0.39251313 3.957194e-39
1.7959368 1.4211032 -0.39580968 4.4163799e-39
1.8287758 1.4289616 -0.39480758 4.5100104e-39
1.8306222 1.4249289 -0.39965627 4.1405091e-39
1.8412924 1.4284933 -0.39862239 4.141951e-39
1.7968513 1.4336307 -0.39553142 4.0479589e-39
1.8235644 1.4325271 -0.39741075 4.1415895e-39
1.8331754 1.4310721 -0.39441463 4.0497554e-39
1.7894512 1.4423902 -0.39334002 4.2334292e-39
1.8131815 1.4450855 -0.3957229 4.4181778e-39
1.8228105 1.4451951 -0.39636031 4.3252605e-39
1.8338947 1.4450841 -0.39493376 4.3252605e-39
1.7903614 1.4548568 -0.39306307 4.1415909e-39
1.8054678 1.4575756 -0.39448595 4.6014886e-39
1.8161387 1.4569756 -0.39287239 4.2327089e-39
1.8258476 1.4542376 -0.39546123 4.3256206e-39
1.7839886 1.4639199 -0.39111456 4.1419412e-39
1.8067632 1.4686514 -0.39534506 4.6014872e-39
1.8111172 1.4674499 -0.39275083 4.4163799e-39
1.82477 1.4664236 -0.39344752 4.0497526e-39
1.7848948 1.4763334 -0.3908388 3.8660802e-39
1.8062098 1.4718812 -0.39238521 4.6929682e-39
1.8137047 1.4763997 -0.39302093 4.5092902e-39
1.8289046 1.4768471 -0.3971363 4.5096433e-39
1.789561 1.484467 -0.39886186 4.3245486e-39
1.80638 1.4853508 -0.39243826 4.3245472e-39
1.8174449 1.4837027 -0.39187908 4.2341396e-39
1.8296587 1.4801173 -0.39071873 3.8646466e-39
1.7906086 1.4966915 -0.39850804 4.508937e-39
1.8015276 1.4937217 -0.39529496 4.4170973e-39
1.8170702 1.4923215 -0.39461049 4.2337851e-39
1.8220024 1.4934428 -0.3946909 4.326331e-39
1.7844447 1.5007062 -0.39823657 4.7855267e-39
1.7934504 1.5072012 -0.3970294 4.4170973e-39
1.8065604 1.5029343 -0.39306203 4.2334264e-39
1.7863511 1.5162243 -0.39573541 4.5092944e-39
1.8062977 1.5154204 -0.39259815 4.6007711e-39
1.7781596 1.5276093 -0.39379793 4.1405091e-39
1.7863934 1.5258496 -0.39699039 4.7858785e-39
1.7903318 1.5296547 -0.39323893 4.1401545e-39
1.8038273 1.5268952 -0.39605194 4.1419468e-39
1.7792885 1.5394291 -0.39396587 4.3249017e-39
1.7845793 1.5329015 -0.39960629 4.233069e-39
1.794629 1.5326622 -0.39819717 4.5103678e-39
1.8037697 1.5365894 -0.39372402 4.0497568e-39
1.7574992 1.5433888 -0.39974192 4.3245486e-39
1.7729502 1.5490384 -0.39139727 4.3238297e-39
1.7889869 1.5438366 -0.39866912 4.4167414e-39
1.7941946 1.5452538 -0.39590871 4.4174533e-39
1.804908 1.5489171 -0.39326897 4.0479589e-39
1.7585225 1.5553325 -0.39939621 4.5085755e-39
1.7825603 1.5536757 -0.39354041 4.2334278e-39
1.8067514 1.5553153 -0.39668009 4.32741e-39
1.7595458 1.5672761 -0.3990505 4.3249031e-39
1.7733215 1.5647559 -0.39136732 4.6011327e-39
1.786309 1.5643313 -0.39543372 4.4174603e-39
1.7925582 1.5600271 -0.39730784 4.8759133e-39
1.8060464 1.5612448 -0.39281395 4.1394385e-39
1.7532697 1.5762668 -0.39695644 4.1415881e-39
1.7767856 1.5753634 -0.39523917 4.2337851e-39
1.7875957 1.5745391 -0.39462307 4.5096489e-39
1.7993908 1.5717937 -0.39233407 4.1412251e-39
1.7542884 1.5881574 -0.39661232 4.0479589e-39
1.7725068 1.5888551 -0.39758125 4.3245458e-39
1.7847246 1.5844587 -0.39502141 4.3252619e-39
1.7919109 1.5870163 -0.39377534 4.1423027e-39
1.7604125 1.5911455 -0.39899814 4.4181778e-39
1.7779365 1.5924275 -0.39273232 4.60149e-39
1.7858957 1.5927535 -0.39827561 4.2323502e-39
1.7927541 1.5978068 -0.39537793 3.9571996e-39
1.7626159 1.603107 -0.39801344 3.8646494e-39
1.7747487 1.6027292 -0.39449373 4.4174589e-39
1.7873549 1.6014019 -0.39361453 4.4181778e-39
1.764155 1.6143025 -0.39669874 4.3249059e-39
1.780658 1.6161406 -0.39342096 4.3249031e-39
1.7935956 1.6105057 -0.39466593 4.1412363e-39
1.755259 1.6284443 -0.39524111 4.6936856e-39
1.7660637 1.6265526 -0.39705744 4.41674e-39
1.7782379 1.6221693 -0.39916888 4.4181721e-39
1.7816501 1.6285115 -0.39289486 4.2337851e-39
1.7944372 1.6232046 -0.39395392 4.3259793e-39
1.7588524 1.6398058 -0.39716515 4.5092944e-39
1.7680384 1.6351639 -0.39650735 4.5089328e-39
1.7736031 1.6378233 -0.39487636 4.2337781e-39
1.7541332 1.6425292 -0.39389259 4.5096559e-39
1.7692459 1.6477652 -0.39196485 4.1415895e-39
1.7707121 1.6427165 -0.39824575 4.5103734e-39
1.7875147 1.6401143 -0.39137563 4.0493924e-39
1.745739 1.6528511 -0.39107227 3.9575639e-39
1.758512 1.6524794 -0.39530128 4.5096559e-39
1.7659383 1.6575642 -0.39180532 4.1408706e-39
1.7716365 1.6552304 -0.39761561 4.602569e-39
1.7467487 1.6646354 -0.39073119 3.8646494e-39
1.7538514 1.6662223 -0.39509302 4.325622e-39
1.764541 1.6654397 -0.39569333 4.5100076e-39
1.7730473 1.6617405 -0.39948416 4.3263324e-39
1.7571821 1.6772848 -0.39484456 4.2334278e-39
1.7663432 1.6748918 -0.39366505 4.3256192e-39
1.7738768 1.6742573 -0.39878234 4.4174491e-39
1.7487681 1.6882041 -0.39004901 3.9571968e-39
1.7557974 1.6868776 -0.392158 4.6014886e-39
1.7674868 1.6849654 -0.39350277 4.6007683e-39
1.7747062 1.686774 -0.39808056 4.2337837e-39
1.7425852 1.6967785 -0.39974999 3.957208e-39
1.7587869 1.6951975 -0.39452633 4.3256192e-39
1.7700753 1.6988871 -0.39638728 4.5103678e-39
1.7392259 1.7074375 -0.391525 4.0490379e-39
1.7445325 1.7059889 -0.39757612 4.0494008e-39
1.7526557 1.7003858 -0.39540532 4.2337837e-39
1.7677548 1.7032553 -0.39546525 4.2341368e-39
1.7446073 1.7164249 -0.39532185 4.2334306e-39
1.7577794 1.7116606 -0.39196745 4.6933199e-39
1.7624192 1.7165656 -0.39349312 4.5103678e-39
1.7449853 1.7249868 -0.3977218 4.325622e-39
1.7579124 1.7262238 -0.39150995 4.6011299e-39
1.7361336 1.7356288 -0.396254 4.60149e-39
1.7459071 1.7363589 -0.39530092 4.4178162e-39
1.7625903 1.73153 -0.39240015 4.4174519e-39
1.7291007 1.749543 -0.39803067 3.95828e-39
1.7384995 1.7446142 -0.39694694 4.6011243e-39
1.7418356 1.7473192 -0.39295426 4.4174561e-39
1.7578909 1.7410889 -0.3910425 4.4181778e-39
1.7702311 1.7406232 -0.39337012 4.2337809e-39
1.7228872 1.758503 -0.39583659 3.9571968e-39
1.7375922 1.7535942 -0.39537904 4.5096503e-39
1.7400055 1.7542187 -0.39483133 4.6018403e-39
1.7642341 1.7563357 -0.39100933 4.2337809e-39
1.73507 1.7630432 -0.39389503 4.602569e-39
1.7416139 1.7654524 -0.39387926 4.4170973e-39
1.7535647 1.762496 -0.39225248 4.3241843e-39
1.7187686 1.7792602 -0.39347324 3.8653641e-39
1.7284708 1.7754713 -0.39147136 4.7869603e-39
1.7327805 1.7758946 -0.39533842 4.3252647e-39
1.7469471 1.7742682 -0.39598691 4.4181721e-39
1.7323543 1.7852784 -0.39415166 4.6022033e-39
1.7448688 1.7834704 -0.39780769 4.8784272e-39
1.750494 1.789017 -0.39813945 4.7862302e-39
1.7198321 1.7907767 -0.39304814 4.2337809e-39
1.7330076 1.7942616 -0.3938463 4.3259821e-39
1.7440934 1.7934155 -0.3951357 4.9699082e-39
1.7254463 1.8021723 -0.39313689 4.3256192e-39
1.7362894 1.8027848 -0.39235637 4.5092944e-39
1.7447757 1.8052646 -0.39494467 4.7865945e-39
1.7248489 1.8130746 -0.39592519 4.3256234e-39
1.7372763 1.8146693 -0.39178273 4.6936856e-39
1.7447033 1.8161342 -0.39346227 4.786233e-39
1.7095413 1.8202176 -0.39998248 3.9575611e-39
1.7157066 1.8223529 -0.39001924 4.1405091e-39
1.7262506 1.8252091 -0.39806056 4.5103706e-39
1.7382634 1.8265536 -0.3912091 4.4170988e-39
1.743842 1.8263172 -0.39333186 4.7865917e-39
1.7246134 1.8365085 -0.39552382 4.5096517e-39
1.7363362 1.837443 -0.39123386 4.6936814e-39
1.7438433 1.832705 -0.39775795 4.4181721e-39
1.7025428 1.8421787 -0.39919284 4.0493924e-39
1.7239281 1.8474327 -0.39515483 4.5092944e-39
1.734257 1.8486189 -0.3912493 4.6936828e-39
1.7458259 1.8430036 -0.39540821 4.6022019e-39
1.7053736 1.851337 -0.39691713 3.9575611e-39
1.7180144 1.8515289 -0.39648214 4.8780741e-39
1.7243601 1.85875 -0.3952435 4.6014914e-39
1.7398889 1.856599 -0.39106476 4.7862302e-39
1.7429439 1.8537385 -0.39328104 4.5096489e-39
1.706423 1.8627019 -0.39649764 4.2334292e-39
1.7148417 1.8653672 -0.39784414 4.7855183e-39
1.7238089 1.8653494 -0.39682782 4.694043e-39
1.7339756 1.8653842 -0.39436626 5.0624626e-39
1.7065289 1.8754017 -0.39693654 4.4167372e-39
1.7274917 1.874934 -0.39816338 4.8784328e-39
1.7373648 1.8731847 -0.39199752 4.6943975e-39
1.6993433 1.8858283 -0.39552566 4.3259793e-39
1.7085217 1.8854316 -0.39565864 4.5092944e-39
1.7242054 1.8841788 -0.39566061 4.6944017e-39
1.734863 1.8864259 -0.39662582 4.6032795e-39
1.704962 1.8970456 -0.39515048 4.3249045e-39
1.7250839 1.896137 -0.39505649 4.7865973e-39
1.7308551 1.8993965 -0.39938521 4.7876735e-39
1.7406011 1.897737 -0.39266026 4.694759e-39
1.7030319 1.9053531 -0.3958281 4.417819e-39
1.7175164 1.9031165 -0.39185488 4.5096531e-39
1.7283992 1.9084857 -0.39456612 4.9702725e-39
1.7415001 1.9099011 -0.39203456 4.7862344e-39
1.7048434 1.9151701 -0.39594367 4.3256248e-39
1.7174562 1.9139166 -0.39143583 4.7855183e-39
1.7271805 1.9121273 -0.39706665 4.9709858e-39
1.704329 1.9231118 -0.39641464 4.4181792e-39
1.7173849 1.9248083 -0.39108938 4.6940402e-39
1.722702 1.9253736 -0.39338046 4.7865987e-39
1.7046391 1.9355582 -0.39692757 4.8780769e-39
1.716447 1.9347082 -0.39166486 4.5103706e-39
1.7242905 1.9366798 -0.39377049 4.969911e-39
