# .PCD v0.7 - Point Cloud Data file format
VERSION 0.7
FIELDS x y z rgb
SIZE 4 4 4 4
TYPE F F F F
COUNT 1 1 1 1
WIDTH 1042
HEIGHT 1
VIEWPOINT 0 0 0 1 0 0 0
POINTS 1042
DATA ascii
1.2668555 2.0419083 -0.19855899 4.2262419e-39
1.2890136 2.049886 -0.19811365 3.583755e-39
1.281635 2.0545795 -0.19993863 5.0545634e-39
1.3036257 2.0645077 -0.1947047 6.1634305e-39
1.3181961 2.0812907 -0.19136144 1.1046206e-38
1.3414111 2.0832169 -0.19020101 8.1985601e-39
1.3481402 2.0961468 -0.19392033 2.349623e-38
1.3733339 2.0943089 -0.19259071 8.9321749e-39
1.4213235 2.1054311 -0.19619027 4.5943084e-39
1.4392867 2.1178663 -0.19752702 2.3507345e-38
1.6401427 0.58322406 -0.1838747 1.207223e-38
1.6801553 0.5846746 -0.18838367 8.6602753e-39
1.3052801 0.75977087 -0.18559642 4.4999421e-39
1.3052763 0.77227515 -0.18592381 1.5615636e-39
1.2991576 0.78041571 -0.18481693 3.0312986e-39
1.2990931 0.79105163 -0.18478444 3.0309357e-39
1.2930363 0.80087763 -0.18403804 2.6646741e-39
1.2515105 0.81873149 -0.18603778 3.1234845e-39
1.2929721 0.81146789 -0.18400568 2.8490654e-39
1.2488593 0.82373977 -0.18698612 3.3075198e-39
1.2515677 0.82945108 -0.18596333 3.1234943e-39
1.2721479 0.82024407 -0.18464512 2.0211026e-39
1.292908 0.82205808 -0.18397333 2.3880872e-39
1.2490056 0.83486885 -0.18681151 3.1231285e-39
1.2670921 0.83896911 -0.18399429 2.2969706e-39
1.2721163 0.83050686 -0.18465397 2.1132982e-39
1.2818594 0.83091199 -0.18263288 1.928907e-39
1.2167819 0.84980756 -0.18599236 1.928907e-39
1.2431695 0.84735215 -0.1859678 3.0323706e-39
1.2538512 0.84265983 -0.18421063 2.8487053e-39
1.276803 0.84059107 -0.1820063 2.021104e-39
1.2299874 0.85446 -0.18727277 2.0210998e-39
1.2466831 0.85095578 -0.18523192 3.0320147e-39
1.2560462 0.85528982 -0.18254113 1.6537592e-39
1.2656933 0.85953993 -0.18063502 2.2069344e-39
1.2707486 0.85002089 -0.18126109 2.2976909e-39
1.2308967 0.86356127 -0.18586864 2.4802801e-39
1.2407409 0.86167014 -0.18445906 2.3891662e-39
1.2560149 0.86543071 -0.18254986 1.6530389e-39
1.2656304 0.86992443 -0.1806033 2.8508647e-39
1.2361381 0.87153739 -0.18431962 2.0207439e-39
1.2509916 0.87361872 -0.18189 1.3775324e-39
1.2274332 0.88179433 -0.18486574 1.7455975e-39
1.2316386 0.88303638 -0.18411222 1.928907e-39
1.2552164 0.88709903 -0.18605071 1.6533991e-39
1.2655674 0.88030899 -0.18057156 3.3122029e-39
1.2185924 0.89585197 -0.18602161 1.1027434e-39
1.227855 0.89429307 -0.18311593 2.7568712e-39
1.2451708 0.89876151 -0.1847247 1.4708085e-39
1.2509294 0.89382422 -0.18190739 1.4700882e-39
1.2199569 0.90727162 -0.18243632 2.9434204e-39
1.2299681 0.90393835 -0.18288499 3.4025951e-39
1.2358632 0.90770543 -0.18990707 1.6537606e-39
1.2493645 0.90799284 -0.18883941 2.5735589e-39
1.2131519 0.91034585 -0.18544124 3.0359706e-39
1.2201003 0.91817218 -0.18226531 4.7851638e-39
1.2304327 0.91502047 -0.18601024 2.8512206e-39
1.2493023 0.91825545 -0.18880805 3.4962299e-39
1.2067252 0.92523795 -0.18476284 3.9582786e-39
1.2240802 0.92480087 -0.18204165 4.7851596e-39
1.2345357 0.92572218 -0.18830235 2.6671895e-39
1.2082704 0.93114114 -0.18076608 4.8777196e-39
1.2165947 0.93417227 -0.18342206 4.509293e-39
1.2257887 0.93323195 -0.18851902 1.8381519e-39
1.2332091 0.93491381 -0.18672486 4.3241857e-39
1.2080176 0.94500625 -0.18268692 4.4178204e-39
1.2174685 0.9470005 -0.18421884 4.0479617e-39
1.2207669 0.94088662 -0.18782055 3.0352517e-39
1.2331477 0.94505453 -0.18669388 4.1397944e-39
1.2174814 0.95715272 -0.18418671 4.0483218e-39
1.2330862 0.95519525 -0.1866629 4.1405119e-39
1.1967163 0.96553111 -0.18965214 5.2475867e-39
1.2011878 0.96274114 -0.18409881 3.7735244e-39
1.2124972 0.96614397 -0.18352401 4.1405161e-39
1.2330247 0.96533597 -0.18663192 4.0493952e-39
1.1962948 0.97655159 -0.18650109 4.0501155e-39
1.2125099 0.97625804 -0.18349203 4.2327103e-39
1.2279741 0.97411585 -0.18596999 4.0490379e-39
1.1860173 0.98844242 -0.18802112 4.6022117e-39
1.1961774 0.98816746 -0.18352537 4.0479477e-39
1.2066418 0.98340309 -0.1858831 3.0352517e-39
1.2134129 0.98689312 -0.18032986 4.9695537e-39
1.2279128 0.98421848 -0.18593912 4.2323502e-39
1.1801671 0.99983561 -0.18714884 4.8777196e-39
1.1966013 0.99788964 -0.18448554 2.8512276e-39
1.2025371 0.99356818 -0.18731536 4.047596e-39
1.2278515 0.99432111 -0.18590826 3.9575639e-39
1.1936005 1.0046219 -0.18516912 2.757946e-39
1.2277902 1.0044237 -0.18587738 3.9568479e-39
1.1803063 1.0104239 -0.18698272 4.969918e-39
1.1937565 1.0150315 -0.18515043 3.6795365e-39
1.2227407 1.0130132 -0.18521605 3.9568451e-39
1.1804456 1.0210121 -0.1868166 4.6933311e-39
1.1939126 1.0254412 -0.18513173 3.8639278e-39
1.2226796 1.0230777 -0.18518531 4.0497568e-39
1.1755915 1.0321188 -0.18606433 4.7858813e-39
1.1853762 1.0366729 -0.18273801 3.495504e-39
1.1926681 1.036472 -0.1878041 4.6918878e-39
1.2176307 1.0315529 -0.18452431 4.0497568e-39
1.1757301 1.0426691 -0.18589881 4.9695509e-39
1.1834495 1.0488806 -0.18269637 3.2192772e-39
1.1927228 1.0467345 -0.18773282 4.6918892e-39
1.2150458 1.0457599 -0.18416336 4.2334278e-39
1.1748167 1.0541437 -0.18342227 4.6014872e-39
1.1855972 1.0573865 -0.18487543 3.863569e-39
1.2074741 1.0582249 -0.18317266 4.0497568e-39
1.1742057 1.0652272 -0.18266349 4.0490365e-39
1.1818252 1.065643 -0.18623722 4.6918892e-39
1.2124006 1.069917 -0.18377201 4.141951e-39
1.1651565 1.075125 -0.18411806 5.1528659e-39
1.1765056 1.076052 -0.18156955 3.5884171e-39
1.1878835 1.076749 -0.18690419 4.6918878e-39
1.21234 1.0799053 -0.1837415 4.6936856e-39
1.1652942 1.0855913 -0.18395388 4.8780769e-39
1.1742151 1.084938 -0.18122342 3.6802526e-39
1.1819339 1.0860002 -0.1860958 4.5085755e-39
1.2072932 1.0880758 -0.18308145 7.5496006e-39
1.1594362 1.0964056 -0.18309063 4.8780741e-39
1.1757979 1.0943613 -0.18518458 3.2200003e-39
1.1819881 1.0961789 -0.18602508 4.5085755e-39
1.2072328 1.0980259 -0.18305105 1.3912545e-38
1.1595732 1.1068263 -0.18292713 4.9699152e-39
1.1695939 1.1018569 -0.18055141 4.4170959e-39
1.1756344 1.1062613 -0.18428361 3.4958669e-39
1.2071724 1.1079762 -0.18302065 1.9299803e-39
1.1547129 1.1174607 -0.18218231 4.8780769e-39
1.1735611 1.1142726 -0.18291423 4.4167372e-39
1.2021263 1.1159942 -0.18236105 4.0490379e-39
1.1548494 1.1278434 -0.18201941 4.9695537e-39
1.1729631 1.1242667 -0.18662825 4.1401531e-39
1.1970805 1.1239362 -0.18170169 4.2334292e-39
1.1549859 1.1382259 -0.18185651 5.0617493e-39
1.1733223 1.134969 -0.18663184 4.140872e-39
1.2020061 1.1358185 -0.18230048 4.0493924e-39
1.1541746 1.1450839 -0.18572479 4.5092986e-39
1.1692855 1.1495405 -0.18829292 3.5884171e-39
1.17225 1.1449932 -0.18444577 4.5085755e-39
1.1969608 1.1436843 -0.18164136 3.8653641e-39
1.1519582 1.1557759 -0.18535736 4.2334306e-39
1.172304 1.1550957 -0.18437558 4.6007725e-39
1.191916 1.1514738 -0.18098246 3.8646466e-39
1.1481576 1.1655087 -0.18913588 3.9571996e-39
1.1503958 1.169397 -0.1807895 5.1539449e-39
1.1661472 1.1618819 -0.18572533 4.0486764e-39
1.1918564 1.1613097 -0.1809524 3.865004e-39
1.148586 1.176403 -0.18914281 3.9568423e-39
1.1631024 1.1743317 -0.18541822 4.0490379e-39
1.1877497 1.1792226 -0.18038961 3.8653683e-39
1.1917967 1.1711457 -0.18092234 3.8646466e-39
1.1490144 1.1872976 -0.18914972 4.0493952e-39
1.1674601 1.1842113 -0.18355319 4.6004166e-39
1.1712706 1.18331 -0.18852414 3.5887786e-39
1.1876904 1.189028 -0.18035965 3.8646466e-39
1.1396626 1.1901308 -0.18945679 4.6007683e-39
1.1494428 1.198192 -0.18915665 4.0493952e-39
1.1638145 1.1955612 -0.18542528 4.1401573e-39
1.1776229 1.1943128 -0.18880279 3.8632061e-39
1.1397974 1.2003915 -0.1892958 4.5092916e-39
1.1575553 1.2018039 -0.18219078 4.6926179e-39
1.1657798 1.2092799 -0.18805553 3.6809728e-39
1.1775639 1.2040422 -0.18877307 3.4958669e-39
1.1444343 1.2108774 -0.18913916 4.2323502e-39
1.1576086 1.2117921 -0.18212137 4.5092944e-39
1.1684767 1.2191997 -0.18751502 3.7717293e-39
1.1725218 1.2114202 -0.18807736 3.5880598e-39
1.1384226 1.2236626 -0.18790223 4.3241857e-39
1.1450696 1.2210807 -0.1895873 4.692964e-39
1.1547515 1.2263179 -0.18706401 3.5887772e-39
1.1655433 1.2259924 -0.18507412 4.1401531e-39
1.1388474 1.2344657 -0.1879091 4.5085769e-39
1.1402023 1.2311736 -0.18881288 4.3249003e-39
1.1565599 1.2345991 -0.18456134 4.2327075e-39
1.1683595 1.2385211 -0.18745598 3.9554031e-39
1.1392722 1.2452688 -0.18791595 4.3241857e-39
1.1403371 1.2414343 -0.18865189 4.2334348e-39
1.1577686 1.2417567 -0.18191323 4.5996921e-39
1.1651039 1.2469487 -0.18758871 3.5880583e-39
1.1337532 1.2577757 -0.1872886 4.4163799e-39
1.1404721 1.251695 -0.18849093 4.4167442e-39
1.1572665 1.2556994 -0.18456805 4.3238255e-39
1.1682425 1.2578427 -0.18739696 3.6788148e-39
1.1341763 1.2685331 -0.18729544 4.5092944e-39
1.140607 1.2619557 -0.18832994 4.6007725e-39
1.158546 1.2622963 -0.18397216 4.0475988e-39
1.1345992 1.2792906 -0.18730228 4.4167442e-39
1.1407419 1.2722164 -0.18816897 4.60149e-39
1.1564814 1.2711347 -0.18486817 3.9554045e-39
1.1408768 1.2824771 -0.18800798 4.7840834e-39
1.1545742 1.2839223 -0.18486589 3.7720909e-39
1.129073 1.2916148 -0.1866748 4.9684761e-39
1.1360056 1.2923036 -0.18723771 4.6936828e-39
1.1475118 1.2983323 -0.18336406 4.1408706e-39
1.1535153 1.2942914 -0.18317258 4.1401531e-39
1.1294942 1.3023264 -0.18668161 4.7851638e-39
1.1301327 1.3019593 -0.18634695 4.5092944e-39
1.1482821 1.3072885 -0.18560895 3.7724482e-39
1.1531335 1.3099868 -0.18081909 4.1401545e-39
1.1618199 1.301125 -0.1889419 3.1277991e-39
1.1299155 1.3130381 -0.18668841 4.8777112e-39
1.1302664 1.3121362 -0.18618727 4.6929668e-39
1.153537 1.3187705 -0.18303972 3.7720895e-39
1.1626294 1.312372 -0.18898842 3.2199947e-39
1.1253744 1.3249414 -0.18616657 4.7855127e-39
1.1304003 1.3223132 -0.18602762 4.877358e-39
1.1453009 1.3255317 -0.18802401 4.3241786e-39
1.154587 1.3281938 -0.18481655 3.4958627e-39
1.1257942 1.335615 -0.18617335 4.6007683e-39
1.1305341 1.3324901 -0.18586797 4.9695509e-39
1.1485608 1.3353267 -0.18530053 4.1405119e-39
1.1202555 1.347627 -0.18554567 4.6011243e-39
1.1306679 1.342667 -0.18570828 5.0617465e-39
1.1452409 1.3447803 -0.18666427 3.9561206e-39
1.155007 1.3459826 -0.18829517 3.1278019e-39
1.1206734 1.358255 -0.18555242 4.6933199e-39
1.1358685 1.3550762 -0.18659587 4.7844407e-39
1.1486764 1.3528595 -0.18454854 3.4051062e-39
1.1259261 1.3623198 -0.18478388 4.9699152e-39
1.138412 1.3640089 -0.18841991 4.4145862e-39
1.1449628 1.366771 -0.18636346 4.6011215e-39
1.1534567 1.3648562 -0.18665245 3.2199961e-39
1.1151296 1.3701301 -0.18492468 4.9688278e-39
1.1260594 1.3724587 -0.18462482 5.0617493e-39
1.1434742 1.3757987 -0.1889962 4.4145862e-39
1.153829 1.3752072 -0.1866609 3.4033084e-39
1.1155457 1.3807123 -0.1849314 4.6933199e-39
1.1261928 1.3825976 -0.18446574 4.8780769e-39
1.1397295 1.3800702 -0.18590042 4.4167414e-39
1.143527 1.3856726 -0.18892762 4.4153023e-39
1.1549203 1.3866342 -0.1882136 3.496583e-39
1.1159618 1.3912946 -0.18493812 4.7858813e-39
1.1263261 1.3927363 -0.18430668 4.9702725e-39
1.1345614 1.3918922 -0.18769965 4.4153023e-39
1.140372 1.3909996 -0.18597525 4.4170988e-39
1.1557226 1.3977826 -0.18825969 3.4962215e-39
1.1163779 1.4018769 -0.18494485 4.8780741e-39
1.1214482 1.4020219 -0.1835449 4.9702725e-39
1.138622 1.4033521 -0.18814659 4.4153009e-39
1.1410143 1.401929 -0.18605009 4.1415909e-39
1.1565251 1.4089307 -0.1883058 3.4965816e-39
1.1118199 1.4133462 -0.18442272 4.7858813e-39
1.121581 1.4121226 -0.18338645 4.7858785e-39
1.1372225 1.4141169 -0.18683204 4.4160226e-39
1.1122346 1.4238904 -0.18442942 4.8777224e-39
1.1217138 1.4222234 -0.18322799 4.8773552e-39
1.1387271 1.4230238 -0.18800995 4.4153023e-39
1.1422994 1.4237878 -0.18619977 4.4170988e-39
1.1515179 1.4230714 -0.1878649 3.404386e-39
1.1126492 1.4344347 -0.18443611 4.8780741e-39
1.1218466 1.4323242 -0.18306953 5.1539449e-39
1.1347709 1.4311136 -0.18742719 4.3231053e-39
1.1447231 1.4359192 -0.18684912 3.865004e-39
1.1130638 1.4449788 -0.18444282 4.9702725e-39
1.1219794 1.4424249 -0.18291104 4.9699152e-39
1.1362567 1.444308 -0.18658423 4.2327075e-39
1.1473 1.4481778 -0.18746936 3.4043874e-39
1.1134784 1.4555231 -0.18444951 4.7855239e-39
1.1260142 1.4553791 -0.18466657 4.6011313e-39
1.1366026 1.4546525 -0.18658742 4.3245444e-39
1.1480958 1.459235 -0.18751508 3.4965816e-39
1.113893 1.4660673 -0.18445621 4.9702725e-39
1.123601 1.4641458 -0.18423243 4.5089356e-39
1.1389697 1.4694648 -0.18595845 4.5092944e-39
1.1083279 1.4774019 -0.18382812 4.9702697e-39
1.1199967 1.473021 -0.18516144 4.0479617e-39
1.1223779 1.4727271 -0.18243563 5.154661e-39
1.1488917 1.470292 -0.18756081 3.5884171e-39
1.1087407 1.4879004 -0.18383479 5.0624654e-39
1.1212795 1.48277 -0.18368565 4.5089314e-39
1.1337068 1.482262 -0.18549196 4.5103734e-39
1.1438615 1.4841135 -0.18711862 3.4040258e-39
1.1041675 1.4989814 -0.18331242 4.9702697e-39
1.1176277 1.4917326 -0.18152139 4.9702697e-39
1.1242695 1.4936855 -0.18502584 4.1408706e-39
1.144654 1.4951248 -0.18716416 3.404386e-39
1.1045789 1.5094419 -0.18331906 5.0624654e-39
1.1169767 1.5057801 -0.18287157 4.3249045e-39
1.1201519 1.5020943 -0.18495947 4.139793e-39
1.1372976 1.5063741 -0.18618089 3.8657228e-39
1.1099792 1.5193961 -0.1838548 5.2468566e-39
1.1162449 1.5194256 -0.18431249 4.2327075e-39
1.1229091 1.5131301 -0.18180177 5.0621108e-39
1.1356182 1.5147765 -0.1857146 4.6936828e-39
1.146239 1.5171478 -0.18725523 3.6802554e-39
1.1103921 1.5298946 -0.18386146 8.842475e-39
1.1230419 1.5232308 -0.18164331 4.7866029e-39
1.130342 1.5273457 -0.18524659 4.5103706e-39
1.1470318 1.5281591 -0.18730077 3.7728083e-39
1.1217408 1.5322495 -0.18312116 4.6004152e-39
1.1368923 1.5364529 -0.18586302 4.6947618e-39
1.1478243 1.5391706 -0.18734629 3.6813288e-39
1.0998222 1.5413395 -0.18270402 6.1659655e-39
1.1182892 1.5420458 -0.18073204 4.7858785e-39
1.1203588 1.5408585 -0.18469015 4.2309096e-39
1.1316109 1.5489306 -0.18539438 4.9702697e-39
1.1002316 1.5517542 -0.18271063 3.3089477e-39
1.1184216 1.5521084 -0.18057418 4.7862344e-39
1.1204106 1.5505495 -0.18462282 4.2319886e-39
1.1486168 1.5501821 -0.18739183 3.7735244e-39
1.1006413 1.5621691 -0.18271725 5.4298059e-39
1.1165028 1.5677285 -0.18397692 4.1397944e-39
1.1234531 1.5617305 -0.18349667 4.6011271e-39
1.1494093 1.5611935 -0.18743737 3.6813288e-39
1.1010507 1.5725839 -0.18272386 4.9713459e-39
1.1237425 1.5751405 -0.1834235 4.6936842e-39
1.1443496 1.5746046 -0.18699348 3.5887772e-39
1.1014603 1.5829988 -0.1827305 5.0635444e-39
1.1240147 1.58532 -0.18337278 4.6014886e-39
1.1392832 1.5879247 -0.18654919 3.5894961e-39
1.1018698 1.5934135 -0.18273711 5.0624682e-39
1.1242868 1.5954995 -0.18332203 4.6933241e-39
1.1459281 1.5965363 -0.18708417 3.681326e-39
1.1022794 1.6038283 -0.18274373 5.1546638e-39
1.1190797 1.6025796 -0.18984833 4.8780741e-39
1.1247859 1.6065004 -0.18471918 4.6007711e-39
1.1467173 1.6075021 -0.18712951 3.7728055e-39
1.1026889 1.6142431 -0.18275034 5.0624654e-39
1.1192119 1.6126423 -0.18969047 4.7858813e-39
1.1248308 1.6158587 -0.18322057 4.8766392e-39
1.1533718 1.6162505 -0.18766505 3.7731685e-39
1.1030984 1.624658 -0.18275696 4.8780741e-39
1.12437 1.6242383 -0.18005863 5.1532219e-39
1.1301146 1.6257987 -0.18536663 4.9695509e-39
1.1541643 1.627262 -0.18771058 3.9579157e-39
1.103508 1.6350727 -0.18276358 4.9702725e-39
1.1258396 1.6310606 -0.18472171 4.0483162e-39
1.1307464 1.6365455 -0.18544021 4.7873106e-39
1.1099262 1.6454282 -0.18340547 4.8780741e-39
1.1196089 1.6428303 -0.18921685 4.8777196e-39
1.1313779 1.6472925 -0.18551381 5.0628185e-39
1.149085 1.6403997 -0.18726555 4.1405091e-39
1.1103375 1.6558887 -0.18341212 4.9702725e-39
1.1247649 1.6546991 -0.18968484 4.8777196e-39
1.1320097 1.6580393 -0.18558739 5.0635444e-39
1.1498742 1.6513655 -0.1873109 3.7731685e-39
1.1153111 1.6646523 -0.18615994 4.9702711e-39
1.1326416 1.6687863 -0.18566097 4.9713487e-39
1.1506636 1.6623313 -0.18735623 3.9571996e-39
1.1111602 1.6768097 -0.18342541 5.0621108e-39
1.1250306 1.6749005 -0.18936792 4.8780769e-39
1.1332734 1.6795332 -0.18573457 5.0628213e-39
1.1514528 1.6732972 -0.18740159 3.8653641e-39
1.1165845 1.6873729 -0.18396154 4.969918e-39
1.1251634 1.6850011 -0.18920946 4.7851638e-39
1.1463568 1.6862067 -0.1869556 3.5905751e-39
1.1169974 1.6978714 -0.1839682 4.9699152e-39
1.1252962 1.6951019 -0.18905097 4.9695537e-39
1.1339049 1.6902801 -0.18580815 5.0628213e-39
1.1471429 1.697127 -0.18700077 3.8671592e-39
1.1174102 1.70837 -0.18397488 5.0624654e-39
1.1244917 1.702617 -0.18680206 4.8784342e-39
1.1479287 1.7080472 -0.18704592 3.7735244e-39
1.1262051 1.7157205 -0.18625295 4.7866001e-39
1.1487148 1.7189674 -0.18709108 3.9579157e-39
1.1265974 1.7261692 -0.18622677 4.8784384e-39
1.1553991 1.7281263 -0.18762831 4.1415881e-39
1.1258274 1.7355049 -0.18841711 4.9692019e-39
1.1304677 1.7341316 -0.18555431 4.7869603e-39
1.1561882 1.7390921 -0.18767366 3.9575597e-39
1.1253169 1.7429115 -0.18644452 4.9702781e-39
1.1310968 1.7448329 -0.18562759 5.0624682e-39
1.1190615 1.7503642 -0.18400156 4.879516e-39
1.1210643 1.7535195 -0.1874803 4.6011383e-39
1.1376956 1.7547616 -0.18624969 5.0617493e-39
1.1510727 1.7517281 -0.18722655 4.0493952e-39
1.1194743 1.7608627 -0.18400823 4.879516e-39
1.1262258 1.7658072 -0.1879417 4.6944129e-39
1.132355 1.7662355 -0.18577413 5.1546638e-39
1.1518586 1.7626483 -0.18727171 4.0493952e-39
1.126138 1.7738788 -0.18621688 4.693687e-39
1.1329839 1.7769367 -0.18584742 4.7873246e-39
1.158556 1.7719896 -0.18780971 4.2334292e-39
1.1238966 1.7830508 -0.18583195 6.8120285e-39
1.1395907 1.7870023 -0.18647045 4.6954891e-39
1.1593451 1.7829554 -0.18785504 4.1419524e-39
1.1215936 1.7937701 -0.18684882 4.230195e-39
1.1330082 1.7958806 -0.18559381 4.6954905e-39
1.1660523 1.7924333 -0.18839359 4.2341508e-39
1.1267571 1.80621 -0.18730783 3.5862703e-39
1.133531 1.8065224 -0.18563381 4.5103832e-39
1.1668448 1.8034447 -0.18843913 3.9575639e-39
1.1268899 1.8163108 -0.18714938 2.666472e-39
1.1326069 1.8145865 -0.18520708 4.1416021e-39
1.1414859 1.8192431 -0.18669121 4.5103846e-39
1.1676373 1.8144562 -0.18848465 4.1419552e-39
1.1270227 1.8264115 -0.18699089 2.298051e-39
1.1390619 1.8258859 -0.18584956 3.6806211e-39
1.1421177 1.8299899 -0.18676479 4.2337977e-39
1.1684299 1.8254676 -0.18853019 3.7735328e-39
1.1271555 1.8365123 -0.18683243 2.3902466e-39
1.1394799 1.8365139 -0.18585631 3.4040342e-39
1.1751533 1.8351736 -0.18906966 3.6813428e-39
1.1272883 1.8466129 -0.18667397 2.0225417e-39
1.1398978 1.8471419 -0.18586306 3.1274473e-39
1.1487405 1.8403294 -0.18738969 3.7721007e-39
1.1759491 1.8462306 -0.18911539 3.036695e-39
1.1448452 1.8544459 -0.1866667 3.12709e-39
1.1767449 1.8572876 -0.18916111 2.5764344e-39
1.1374888 1.8618493 -0.18774328 2.0214641e-39
1.1560059 1.8615983 -0.1880894 3.128169e-39
1.1775405 1.8683447 -0.18920684 2.4842387e-39
1.1376226 1.8720263 -0.18758363 1.8370729e-39
1.1518185 1.8700476 -0.18704234 2.9419855e-39
1.162642 1.8721659 -0.18871588 2.7586676e-39
1.1783364 1.8794017 -0.18925256 2.0239823e-39
1.1437981 1.885376 -0.18815917 2.0211026e-39
1.1582879 1.8817048 -0.18768506 2.2973406e-39
1.1632819 1.8830497 -0.1887904 2.5742778e-39
1.1850796 1.8893812 -0.1897932 2.023262e-39
1.1489681 1.8982807 -0.18861094 2.4806388e-39
1.1587108 1.8924623 -0.18769188 2.205861e-39
1.1699259 1.8937542 -0.18941779 2.4817262e-39
1.1591339 1.9032197 -0.18769872 2.2062127e-39
1.1858788 1.9004838 -0.18983909 1.8385148e-39
1.1541388 1.9112616 -0.18906143 2.6643112e-39
1.1656102 1.9150597 -0.18834154 2.1140171e-39
1.1866777 1.9115864 -0.18988502 1.7463192e-39
1.1951654 1.9153422 -0.18065064 4.9735179e-39
1.1631764 1.9253665 -0.18899068 2.3884474e-39
1.1958187 1.9264542 -0.18072672 5.1564701e-39
1.178574 1.9390137 -0.18962738 2.2969706e-39
1.1964719 1.9375662 -0.18080281 4.9731578e-39
1.2069621 1.9310174 -0.18027192 4.5107377e-39
1.1790023 1.9499081 -0.18963429 2.2054938e-39
1.2054571 1.9454958 -0.18085302 4.6029404e-39
1.2091999 1.9567456 -0.181169 4.510386e-39
1.1768504 1.9649315 -0.18062797 3.3100477e-39
1.2153602 1.9640003 -0.18086196 4.1423209e-39
1.1979432 1.975641 -0.18051703 4.3227577e-39
1.2175038 1.971347 -0.18264396 4.3259947e-39
1.2291143 1.9737492 -0.18188518 3.8664543e-39
1.1880724 1.9817998 -0.18171874 4.2305621e-39
1.2044406 1.9880291 -0.18111449 4.414952e-39
1.2270626 1.9839652 -0.18258151 3.9579311e-39
1.2343068 1.9950653 -0.18316185 4.1412433e-39
1.2053434 2.0023735 -0.18349063 5.0581634e-39
1.2170075 2.0019112 -0.18230249 4.5071448e-39
1.2445364 2.006676 -0.18300423 4.1416035e-39
1.2516539 2.0065958 -0.18559669 4.6000649e-39
1.2305925 2.016217 -0.18358903 4.6011355e-39
1.2558581 2.0180101 -0.18492478 4.509307e-39
1.2371049 2.0289783 -0.18418671 5.3361894e-39
1.2731419 2.0274763 -0.18513164 4.2334432e-39
1.2600484 2.0300257 -0.18635024 5.153596e-39
1.2809749 2.0386596 -0.18570715 4.786617e-39
1.2507035 2.0436268 -0.18547347 6.164148e-39
1.2738121 2.0424764 -0.18753698 5.3397823e-39
1.2958109 2.0494905 -0.18681043 5.3383474e-39
1.2643099 2.0584733 -0.18676035 6.8999124e-39
1.2815456 2.0546649 -0.18821357 6.8116754e-39
1.310662 2.060534 -0.18791461 5.6163776e-39
1.3265288 2.0717402 -0.18909508 7.2730165e-39
1.3402758 2.0834002 -0.18108003 1.0869725e-38
1.3631704 2.0977287 -0.18287458 1.8241435e-38
1.4041681 2.0932868 -0.1822463 9.1259282e-39
1.4301267 2.1052518 -0.18399549 8.93507e-39
1.4470901 2.1177762 -0.18513513 1.345589e-38
1.6481154 0.58607632 -0.17221284 9.3989334e-39
1.3961025 0.63270038 -0.17399545 3.7674217e-39
1.3960336 0.6440677 -0.17396072 3.7670616e-39
1.3899682 0.65526539 -0.17330152 3.8592572e-39
1.3708438 0.67708176 -0.17125583 3.4919139e-39
1.3707759 0.68825865 -0.17122169 3.4000812e-39
1.3647126 0.69908297 -0.17056362 3.2164088e-39
1.3050438 0.7275871 -0.17069328 3.7670588e-39
1.3051033 0.73871803 -0.17061597 3.8599733e-39
1.2987984 0.74198556 -0.17073271 4.1347595e-39
1.3223718 0.75070381 -0.1768425 3.399721e-39
1.3163127 0.76088798 -0.17614073 3.3989952e-39
1.2812799 0.7737841 -0.17889327 3.5826648e-39
1.3102546 0.77310979 -0.1760453 2.2044134e-39
1.275341 0.78508544 -0.17816207 3.8581726e-39
1.3127272 0.78496456 -0.17636819 1.7455947e-39
1.2654555 0.79652023 -0.17748253 3.583748e-39
1.2882509 0.79461682 -0.1763725 2.4813619e-39
1.2991374 0.79101944 -0.1741484 1.8374302e-39
1.2574636 0.8076756 -0.17604703 3.7652638e-39
1.2676553 0.80771148 -0.17801157 2.7565068e-39
1.288219 0.8050015 -0.17638144 2.2054938e-39
1.2990729 0.80165535 -0.1741159 2.1136597e-39
1.2515229 0.81865698 -0.17531803 2.7550677e-39
1.2831939 0.81369996 -0.17576009 1.8370729e-39
1.2930162 0.81143576 -0.17341532 2.3902466e-39
1.2358279 0.82745188 -0.17627157 2.1140171e-39
1.2562115 0.82566255 -0.17618918 2.3888061e-39
1.2771708 0.82197732 -0.17501263 1.2856969e-39
1.2929521 0.82202601 -0.17338297 2.9430589e-39
1.2362866 0.83911526 -0.17627898 1.6541151e-39
1.2549914 0.83329368 -0.17630559 2.2969706e-39
1.2721462 0.8305158 -0.17439115 1.2864172e-39
1.2878948 0.8318271 -0.17279413 3.4969487e-39
1.2491559 0.84582335 -0.17550686 2.5749952e-39
1.2516373 0.84009612 -0.17516911 2.4817262e-39
1.2610995 0.84699631 -0.1730219 1.3786128e-39
1.2744806 0.84066892 -0.17296892 2.66863e-39
1.2370408 0.85517466 -0.17518663 2.2980468e-39
1.2466955 0.85088152 -0.17455027 2.7586676e-39
1.2610681 0.85717535 -0.17303066 1.8381519e-39
1.2767831 0.85102767 -0.17150588 4.418905e-39
1.2303354 0.86608171 -0.17566161 1.8381505e-39
1.2467525 0.86156297 -0.17447606 3.4958669e-39
1.2633551 0.86862361 -0.17162904 3.4969515e-39
1.2707287 0.86041188 -0.17080653 4.6025774e-39
1.2361461 0.87141395 -0.17350519 4.6918906e-39
1.2560133 0.87558043 -0.17241769 2.7601068e-39
1.2273853 0.88176346 -0.17380327 3.497662e-39
1.2316424 0.88286388 -0.17311931 6.4436089e-39
1.255982 0.88572133 -0.17242642 3.2203618e-39
1.2630618 0.88497663 -0.17506644 4.2337935e-39
1.2184848 0.89586347 -0.17450212 3.1285193e-39
1.229924 0.89331299 -0.17240617 4.7873218e-39
1.2317868 0.89385587 -0.17294687 5.6163664e-39
1.2527097 0.89629406 -0.17550319 3.9564877e-39
1.2655476 0.89066207 -0.1701552 4.6029305e-39
1.2279632 0.90491956 -0.17224373 5.0631926e-39
1.2358923 0.90771413 -0.17991853 2.2058554e-39
1.2434244 0.90584832 -0.17087166 3.6806169e-39
1.2543982 0.90905577 -0.17917034 4.4178232e-39
1.2130446 0.91035736 -0.17396745 4.0493952e-39
1.220104 0.91800106 -0.17136377 5.6149203e-39
1.2354493 0.91614115 -0.17636473 3.680261e-39
1.2493449 0.91822439 -0.17854533 4.2341508e-39
1.2138782 0.92587972 -0.17227456 4.6958422e-39
1.2304661 0.92523921 -0.17572659 4.0490407e-39
1.2492827 0.928487 -0.17851396 4.2337949e-39
1.2139463 0.93328822 -0.17398202 4.4178232e-39
1.2241484 0.93523413 -0.17146227 5.2461406e-39
1.2345253 0.93577576 -0.17822641 3.9568493e-39
1.2143972 0.94475365 -0.17398931 4.4178204e-39
1.2249959 0.94444668 -0.17500225 4.2327145e-39
1.2331899 0.94502378 -0.17655306 4.4178232e-39
1.2025669 0.95370233 -0.17976427 5.154661e-39
1.2175018 0.95712066 -0.17403448 4.4167428e-39
1.2207652 0.95076942 -0.17795482 3.9557661e-39
1.2331284 0.95516449 -0.17652208 4.3256248e-39
1.201895 0.9636091 -0.17616355 4.7858813e-39
1.2155182 0.96632397 -0.17373475 4.4167414e-39
1.2330669 0.96530521 -0.1764911 4.3263437e-39
1.1968609 0.97608066 -0.17876533 5.246142e-39
1.2015284 0.97411138 -0.17273892 4.3266982e-39
1.211691 0.97605407 -0.17677613 3.8635676e-39
1.2330054 0.97544593 -0.1764601 4.2341508e-39
1.1920106 0.98746979 -0.17804676 5.430529e-39
1.2019751 0.98547012 -0.17274614 5.1532162e-39
1.2116609 0.98585975 -0.17678457 3.6802554e-39
1.2329439 0.98558664 -0.17642912 4.3256276e-39
1.1943338 0.99882072 -0.17504519 4.5993334e-39
1.2075534 0.99501348 -0.17790133 4.3252647e-39
1.2278936 0.99429047 -0.17580554 4.4178232e-39
1.1863006 1.0095434 -0.17705259 5.246142e-39
1.1970587 1.0068543 -0.17656818 3.589852e-39
1.2016199 1.0004225 -0.17546326 3.8671746e-39
1.2278323 1.0043931 -0.17577466 4.3263437e-39
1.1957039 1.0141417 -0.17491873 4.3270611e-39
1.227771 1.0144957 -0.1757438 4.234148e-39
1.1804492 1.0208459 -0.17622739 5.246142e-39
1.1938909 1.0254239 -0.17471929 4.5096517e-39
1.2277098 1.0245984 -0.17571293 4.1419524e-39
1.1843871 1.0340614 -0.17358066 4.6014886e-39
1.19268 1.0364006 -0.17754149 4.8780769e-39
1.2226605 1.0331118 -0.17508994 4.3256248e-39
1.1757337 1.0425034 -0.17534775 5.430529e-39
1.1874988 1.0414683 -0.17363119 3.6795337e-39
1.1927347 1.046663 -0.17747021 4.9695537e-39
1.2150874 1.0457295 -0.17415586 4.1415937e-39
1.1758724 1.0530536 -0.17518222 5.3394082e-39
1.1874691 1.0510912 -0.17363949 3.6791764e-39
1.1927896 1.0569255 -0.17739892 5.0617493e-39
1.2125027 1.0598984 -0.17381409 4.234148e-39
1.1700175 1.0640895 -0.17436123 5.2468594e-39
1.1862329 1.0650803 -0.17450635 4.1401545e-39
1.2124422 1.0698867 -0.17378357 4.1419524e-39
1.1651602 1.0749607 -0.17365077 5.2461406e-39
1.1783994 1.0747987 -0.17245944 3.4043874e-39
1.1878954 1.0766779 -0.17667967 5.0617493e-39
1.2123816 1.079875 -0.17375305 4.7837233e-39
1.1652979 1.085427 -0.17348656 5.4312479e-39
1.1741769 1.0849478 -0.17089988 4.2334264e-39
1.18795 1.0869023 -0.17660865 4.9702725e-39
1.212321 1.0898633 -0.17372254 3.3064366e-39
1.1594398 1.0962421 -0.17266905 5.3390522e-39
1.177312 1.0971092 -0.17338805 6.1698989e-39
1.1819999 1.0961081 -0.17584628 4.9695551e-39
1.2072742 1.0979958 -0.1731007 2.3877229e-39
1.15458 1.1069152 -0.17196169 5.1543065e-39
1.1780713 1.1060197 -0.17514706 3.5877052e-39
1.2072138 1.1079462 -0.1730703 3.3060779e-39
1.1547165 1.1172978 -0.17179883 5.0624682e-39
1.1771044 1.1155405 -0.17512926 4.9699152e-39
1.1832707 1.1160352 -0.17316186 3.4043874e-39
1.2071534 1.1178963 -0.1730399 4.5986103e-39
1.1598508 1.1275041 -0.1721786 5.154661e-39
1.1645416 1.1262176 -0.17997731 4.6011243e-39
1.178339 1.1231134 -0.17644693 4.3263381e-39
1.2070931 1.1278466 -0.17300949 4.2341368e-39
1.1570196 1.1387362 -0.17543456 4.6940416e-39
1.1757873 1.1354758 -0.17620744 4.417819e-39
1.2020473 1.1357886 -0.17238824 3.6813372e-39
1.1551261 1.1484456 -0.17131016 5.0628213e-39
1.1691995 1.1496228 -0.17701735 4.1405119e-39
1.1722618 1.144923 -0.17434317 5.1528659e-39
1.2019871 1.1457007 -0.17235796 4.1412335e-39
1.1544086 1.1556692 -0.17498104 4.8773566e-39
1.1723158 1.1550255 -0.17427298 4.9695551e-39
1.196942 1.1535283 -0.17173702 4.0490407e-39
1.1546919 1.1663306 -0.17490306 4.9695537e-39
1.1698611 1.1608794 -0.17709441 3.9571996e-39
1.1723697 1.165128 -0.1742028 5.0617493e-39
1.196882 1.1634024 -0.17170686 3.9568423e-39
1.1465079 1.1780689 -0.17908718 4.8769965e-39
1.1624125 1.1729233 -0.1729846 4.9695537e-39
1.1705227 1.1721358 -0.1771715 3.9571996e-39
1.1918375 1.1711159 -0.17108628 3.9568423e-39
1.1489125 1.1873084 -0.17824736 4.6933199e-39
1.1674718 1.1841412 -0.17348871 5.1528659e-39
1.1711845 1.1833923 -0.17724858 4.1405119e-39
1.1877311 1.1889982 -0.17055406 3.8646494e-39
1.1917779 1.1809518 -0.17105623 3.9568451e-39
1.1470039 1.1941128 -0.17901331 4.7855183e-39
1.1637776 1.1955673 -0.17480095 4.8795104e-39
1.1851594 1.1976812 -0.17511281 3.8646452e-39
1.1398009 1.2002305 -0.1790342 4.9695551e-39
1.1497694 1.2090974 -0.17826121 4.5096475e-39
1.1575669 1.2017344 -0.17220244 1.3170263e-38
1.165694 1.2093618 -0.17683332 3.865004e-39
1.182588 1.2063258 -0.1796717 3.5891444e-39
1.1449378 1.2106202 -0.1794492 4.9695551e-39
1.1501977 1.2199918 -0.17826813 4.7855155e-39
1.1676329 1.2143344 -0.17327896 2.4846143e-39
1.1725621 1.2113907 -0.17838606 3.4051062e-39
1.1450732 1.220919 -0.17928761 4.8780769e-39
1.1546664 1.2263991 -0.17593321 3.6809728e-39
1.1676867 1.2243987 -0.17320904 2.2976895e-39
1.1725034 1.221082 -0.17835644 3.220715e-39
1.1452086 1.2312177 -0.17912605 4.60149e-39
1.1541765 1.2312926 -0.17513466 3.8639222e-39
1.1647826 1.2365658 -0.1771466 3.4965816e-39
1.1724446 1.2307732 -0.17832683 2.7604599e-39
1.1391712 1.2452797 -0.17710498 4.7862302e-39
1.145344 1.2415166 -0.17896447 5.0613948e-39
1.1577802 1.2416872 -0.17192489 3.4965858e-39
1.1676698 1.2429715 -0.17706345 3.6813288e-39
1.139596 1.2560828 -0.17711185 4.7855127e-39
1.1454793 1.2518154 -0.17880291 4.7855267e-39
1.1578335 1.2516754 -0.17185551 4.0472484e-39
1.16538 1.2573842 -0.17719349 3.5884157e-39
1.172327 1.2501556 -0.17826761 3.220359e-39
1.1340756 1.268544 -0.1765302 4.2345026e-39
1.1456147 1.2621142 -0.17864132 4.5103678e-39
1.1585717 1.2622471 -0.17418188 2.2991258e-39
1.1344986 1.2793014 -0.17653704 4.6029193e-39
1.1457502 1.272413 -0.17847973 4.695115e-39
1.1551059 1.2704821 -0.17369147 2.7597396e-39
1.1631838 1.2745171 -0.17705001 2.482794e-39
1.1408802 1.2823161 -0.17774639 4.7862344e-39
1.1550345 1.2831439 -0.17373551 2.6682643e-39
1.1631255 1.2841396 -0.17702061 2.6671881e-39
1.1354654 1.291101 -0.17677903 4.7855141e-39
1.1543967 1.2951547 -0.1740336 3.0359664e-39
1.1674073 1.297737 -0.17810684 2.2080022e-39
1.1327405 1.3013078 -0.17635992 4.6022061e-39
1.1482598 1.3073144 -0.17533123 2.6679055e-39
1.1531451 1.3099177 -0.17086887 1.2867745e-39
1.1298153 1.3130488 -0.17596889 3.865004e-39
1.136278 1.3125883 -0.17669344 4.4181749e-39
1.1535628 1.3187215 -0.17328753 1.9303447e-39
1.1624408 1.3124323 -0.17771396 2.4845891e-39
1.1303202 1.322957 -0.17591277 4.7855197e-39
1.1422982 1.3229508 -0.17506918 3.6816931e-39
1.1535604 1.3284736 -0.17323837 2.1150933e-39
1.1632502 1.3236792 -0.17776047 2.208005e-39
1.1256943 1.3356258 -0.17549191 4.5103678e-39
1.1305376 1.3323303 -0.17569014 3.862483e-39
1.1486458 1.3343951 -0.17360608 3.0363265e-39
1.1640596 1.3349261 -0.17780697 1.1949404e-39
1.126114 1.3462994 -0.17549869 4.6014872e-39
1.1306715 1.3425072 -0.17553049 5.5227288e-39
1.1450136 1.3449662 -0.17478281 2.6682643e-39
1.1648693 1.3461733 -0.17785348 1.6562731e-39
1.1265336 1.3569729 -0.17550547 3.5887786e-39
1.1368157 1.3534788 -0.17605194 4.1397902e-39
1.1454433 1.3548962 -0.17652883 2.3916774e-39
1.1209921 1.3688936 -0.17492345 4.0490379e-39
1.1376867 1.363821 -0.17723775 3.9554017e-39
1.1448789 1.3668511 -0.17536978 3.5891331e-39
1.1553408 1.3653803 -0.17448992 2.1161723e-39
1.1310729 1.3730381 -0.17505151 4.6936856e-39
1.1484956 1.3776839 -0.17972872 3.9557633e-39
1.1572675 1.3766252 -0.17468119 2.5764302e-39
1.1154468 1.380723 -0.17434138 4.9699068e-39
1.1261964 1.3824384 -0.17432603 5.4305318e-39
1.1396458 1.3801501 -0.17495246 4.0493924e-39
1.1448538 1.3872026 -0.17728683 4.3241857e-39
1.1605322 1.3835648 -0.17747888 3.6806127e-39
1.1158628 1.3913052 -0.1743481 5.2454119e-39
1.1263297 1.3925772 -0.17416698 5.2461406e-39
1.138581 1.393448 -0.17837897 4.4153051e-39
1.1613379 1.3947587 -0.17752516 3.7728055e-39
1.1243544 1.4017467 -0.17447582 4.9699096e-39
1.1386335 1.4032837 -0.17831063 4.1397944e-39
1.1409307 1.402009 -0.17510214 4.2345026e-39
1.1621437 1.4059525 -0.17757145 3.3132623e-39
1.1166952 1.4124699 -0.17436156 5.0617465e-39
1.1265963 1.4128549 -0.17384884 5.2461406e-39
1.1386861 1.4131196 -0.1782423 4.23199e-39
1.1415732 1.4129384 -0.17517698 4.4170988e-39
1.1629493 1.4171463 -0.17761773 3.5898492e-39
1.1171113 1.4230522 -0.17436828 4.9695551e-39
1.1267296 1.4229937 -0.17368978 5.0624654e-39
1.1387385 1.4229554 -0.17817399 4.5085769e-39
1.1422157 1.4238678 -0.17525181 4.5092944e-39
1.1125506 1.4344453 -0.17388418 5.0617465e-39
1.1268629 1.4331325 -0.17353073 5.1546638e-39
1.1387911 1.4327912 -0.17810565 4.4153023e-39
1.1428583 1.4347973 -0.17532665 4.3249003e-39
1.1521308 1.4342334 -0.1767811 3.4051048e-39
1.1129652 1.4449894 -0.17389089 4.9702697e-39
1.1269962 1.4432714 -0.17337164 5.0621108e-39
1.1362207 1.4443138 -0.17623036 4.2330662e-39
1.15293 1.4453361 -0.17682701 3.2199947e-39
1.1133798 1.4555337 -0.17389758 5.0624654e-39
1.1285286 1.4557874 -0.17501289 4.6007739e-39
1.1365668 1.4546583 -0.17623356 4.5089342e-39
1.1479104 1.4592941 -0.17643109 3.3129064e-39
1.1137944 1.4660779 -0.17390428 5.0624654e-39
1.1261141 1.4651999 -0.17461891 4.6933269e-39
1.1388865 1.4695443 -0.1750562 4.6007711e-39
1.1142091 1.4766221 -0.17391099 5.154661e-39
1.1223813 1.4725685 -0.17233405 4.7869603e-39
1.1300321 1.4776993 -0.1766775 4.232353e-39
1.1470672 1.4744332 -0.17605141 4.1408692e-39
1.1146238 1.4871664 -0.17391768 5.1546638e-39
1.1225141 1.4826694 -0.17217559 5.0624654e-39
1.1300842 1.4874666 -0.17660964 4.1397944e-39
1.149502 1.4814081 -0.17652254 3.4969375e-39
1.1150384 1.4977106 -0.17392439 5.3390522e-39
1.1226469 1.4927701 -0.1720171 4.9702697e-39
1.1301363 1.4972337 -0.17654178 4.5071448e-39
1.140166 1.4913119 -0.17520525 4.6018431e-39
1.1502979 1.4924653 -0.17656827 3.7728055e-39
1.104481 1.5094523 -0.17285094 5.1550141e-39
1.1239777 1.5036924 -0.17386487 4.6011327e-39
1.1430339 1.5041955 -0.17572558 4.1412293e-39
1.1098809 1.5194066 -0.17334861 5.2464909e-39
1.1215637 1.5123448 -0.17345057 4.5092972e-39
1.1437501 1.5151432 -0.1757856 4.3252633e-39
1.1102939 1.5299051 -0.17335527 5.1532219e-39
1.1216559 1.5222406 -0.17333767 4.4174603e-39
1.1361723 1.5256939 -0.17493229 4.6947618e-39
1.1468472 1.528218 -0.17626244 3.6809728e-39
1.1242548 1.5334373 -0.17352578 4.6007725e-39
1.1451825 1.5370383 -0.17590567 4.1415881e-39
1.105715 1.5408338 -0.17287089 5.4298059e-39
1.1218405 1.5420324 -0.17311187 4.6929682e-39
1.1374466 1.5473703 -0.17508072 4.9695509e-39
1.1001344 1.5517647 -0.17228824 5.0628213e-39
1.1219327 1.5519284 -0.17299896 4.6011313e-39
1.1321628 1.5598021 -0.17465745 4.9695509e-39
1.1484323 1.550241 -0.17635351 3.6816889e-39
1.100544 1.5621796 -0.17229486 5.154661e-39
1.1215252 1.5645043 -0.17352305 4.5092944e-39
1.1492248 1.5612524 -0.17639905 3.6816917e-39
1.1119452 1.5718993 -0.17338195 4.9713515e-39
1.1237094 1.573576 -0.17074937 4.8780769e-39
1.1327972 1.5705947 -0.17473134 4.8780769e-39
1.1500173 1.5722637 -0.17644459 3.6809742e-39
1.1073604 1.5826757 -0.17289747 4.9713487e-39
1.1243919 1.58454 -0.1737227 4.5096545e-39
1.1449549 1.5856292 -0.17604622 3.6816917e-39
1.1077716 1.5931362 -0.17290412 5.0621108e-39
1.1223278 1.5963575 -0.17251372 4.6011327e-39
1.1340661 1.5921798 -0.17487915 4.8791503e-39
1.1516023 1.5942867 -0.17653565 3.8657172e-39
1.108183 1.6035967 -0.17291076 5.1546638e-39
1.1190832 1.6024216 -0.1797848 5.0620996e-39
1.1224201 1.6062534 -0.17240083 4.5096545e-39
1.1347005 1.6029723 -0.17495304 4.9702697e-39
1.1523948 1.605298 -0.17658119 3.6813288e-39
1.1085943 1.6140572 -0.17291741 5.154661e-39
1.1292626 1.6156315 -0.17066753 4.9699152e-39
1.135335 1.6137648 -0.17502695 4.6944073e-39
1.1590517 1.6140924 -0.17707121 3.6816917e-39
1.1030011 1.6246684 -0.17233457 5.1550127e-39
1.1275973 1.623517 -0.17278425 4.5089356e-39
1.1359694 1.6245574 -0.17510085 4.8787986e-39
1.1539798 1.6273209 -0.17667225 3.5894933e-39
1.109417 1.6349782 -0.1729307 5.154661e-39
1.1245028 1.634339 -0.17990017 5.0617493e-39
1.1337351 1.6346626 -0.1753833 4.6933255e-39
1.1547723 1.6383324 -0.17671779 3.86572e-39
1.1098284 1.6454387 -0.17293735 5.0624682e-39
1.1246356 1.6444397 -0.17974168 4.9702697e-39
1.1372383 1.6461425 -0.17524865 5.2461406e-39
1.155565 1.6493437 -0.17676333 3.7738873e-39
1.1152478 1.6558877 -0.17343533 4.9702697e-39
1.1272821 1.6553637 -0.17480725 4.9699138e-39
1.1319275 1.658118 -0.17482227 4.7869575e-39
1.162235 1.6583204 -0.17725411 3.7738887e-39
1.1232867 1.6655297 -0.17672817 5.0624654e-39
1.1325593 1.6688648 -0.17489587 4.7873204e-39
1.1630309 1.6693776 -0.17729983 3.95828e-39
1.1235605 1.6758523 -0.17665228 5.0621066e-39
1.1331911 1.6796117 -0.17496945 4.8791559e-39
1.1238343 1.6861746 -0.17657641 4.9695551e-39
1.1579425 1.6823781 -0.17689992 3.9579157e-39
1.1241081 1.6964972 -0.17650053 4.8780769e-39
1.1338227 1.6903586 -0.17504303 4.9709942e-39
1.158735 1.6933894 -0.17694546 4.0493924e-39
1.1243818 1.7068198 -0.17642465 4.878793e-39
1.1344545 1.7011056 -0.17511663 4.879516e-39
1.1595275 1.7044009 -0.17699099 3.9579157e-39
1.1278186 1.7157694 -0.17595911 4.9706327e-39
1.16032 1.7154124 -0.17703652 4.1415881e-39
1.1291789 1.7299387 -0.17456327 5.2468566e-39
1.1332217 1.7249585 -0.17716068 5.0621094e-39
1.1611125 1.7264237 -0.17708206 4.3249003e-39
1.1336042 1.7354014 -0.17711791 4.9702725e-39
1.1678057 1.7357197 -0.17757417 4.1423069e-39
1.129595 1.7405211 -0.17457001 5.154661e-39
1.1339867 1.7458444 -0.17707518 4.9702725e-39
1.1260965 1.7555478 -0.17799854 4.8780769e-39
1.1338122 1.7529718 -0.17503065 5.1550225e-39
1.1567936 1.7501166 -0.1767264 4.0501113e-39
1.1634901 1.7594581 -0.17721868 4.141951e-39
1.1333103 1.7650486 -0.17618762 4.9706327e-39
1.1263622 1.7757493 -0.1776816 4.6933311e-39
1.13486 1.7743009 -0.17511097 5.1550239e-39
1.1642828 1.7704694 -0.1772642 4.1426699e-39
1.126495 1.78585 -0.17752314 5.1553883e-39
1.1312596 1.7828503 -0.17459691 5.2465021e-39
1.1454859 1.7864456 -0.17620936 4.879516e-39
1.1650753 1.7814809 -0.17730974 4.0504756e-39
1.1266278 1.7959509 -0.17736468 5.2461406e-39
1.1377089 1.7940127 -0.17519358 5.3390522e-39
1.1401403 1.7978277 -0.17577891 4.9717131e-39
1.1717846 1.7910047 -0.17780279 4.1426671e-39
1.1349593 1.8065345 -0.17649266 4.97099e-39
1.1407721 1.8085747 -0.17585251 5.0631898e-39
1.1725805 1.8020618 -0.1778485 4.1423069e-39
1.1352348 1.8169179 -0.17641652 5.1553799e-39
1.1414037 1.8193216 -0.17592609 5.1557428e-39
1.1733763 1.8131187 -0.17789423 4.1423041e-39
1.1355106 1.8273013 -0.17634036 4.9713543e-39
1.1480236 1.8296157 -0.17650495 5.2479384e-39
1.1741719 1.8241758 -0.17793995 4.3266954e-39
1.127159 1.8363538 -0.17673081 4.695129e-39
1.1454209 1.8372874 -0.17581068 5.2479328e-39
1.1749678 1.8352327 -0.17798567 4.3266982e-39
1.1360618 1.8480681 -0.17618804 4.9717117e-39
1.1546485 1.8400011 -0.17708446 5.2479384e-39
1.1757636 1.8462899 -0.1780314 4.234148e-39
1.1462604 1.8586347 -0.17582424 5.339055e-39
1.1612792 1.8504778 -0.17766458 5.3404942e-39
1.1824963 1.8561327 -0.17852573 4.5103734e-39
1.1435328 1.8647703 -0.17825645 4.5103818e-39
1.1619191 1.8613616 -0.17773911 5.3404942e-39
1.1832952 1.8672354 -0.17857164 4.5103734e-39
1.1436672 1.8749928 -0.17809606 4.1423209e-39
1.1517184 1.8700583 -0.17632282 5.8918631e-39
1.1625588 1.8722454 -0.17781363 5.4326898e-39
1.1840944 1.878338 -0.17861755 4.3270611e-39
1.1438016 1.8852155 -0.17793569 3.7735356e-39
1.1581873 1.8817157 -0.17691982 5.6163636e-39
1.1691999 1.8829046 -0.17839499 5.2486629e-39
1.1848936 1.8894407 -0.17866346 4.2348655e-39
1.1586102 1.892473 -0.17692664 5.2483e-39
1.1698422 1.8938341 -0.17846984 5.433057e-39
1.154007 1.9008012 -0.17892334 3.680977e-39
1.1650845 1.9042674 -0.17752372 5.3404942e-39
1.1840956 1.9025201 -0.17913449 5.0642716e-39
1.1541424 1.9110999 -0.17876178 3.404037e-39
1.1655092 1.9150705 -0.17753057 4.970997e-39
1.1864917 1.9116459 -0.17875528 4.3267066e-39
1.1603214 1.9247079 -0.17928758 3.2196472e-39
1.1719888 1.9270018 -0.17812777 5.1539561e-39
1.1932473 1.921808 -0.17925096 4.23559e-39
1.1604574 1.9350524 -0.17912528 3.5866304e-39
1.2024012 1.9376513 -0.17013471 5.6170853e-39
1.1656307 1.9482306 -0.17953461 3.679182e-39
1.1845286 1.9401985 -0.17931533 4.2330788e-39
1.2090743 1.9488585 -0.17067409 5.8014737e-39
1.1767164 1.9543009 -0.17032492 5.7996787e-39
1.1849588 1.9511387 -0.17932229 4.0486876e-39
1.181892 1.9676385 -0.17069364 5.7085648e-39
1.1914492 1.9633441 -0.17991963 4.2312824e-39
1.2227759 1.9602679 -0.17175466 5.8014737e-39
1.2039015 1.976963 -0.17002223 5.8936694e-39
1.2261817 1.9726901 -0.17114902 5.3415746e-39
1.1991605 1.9880348 -0.17233881 5.9855119e-39
1.2334222 1.9837413 -0.1716796 5.5256085e-39
1.2164639 1.9907538 -0.17111877 5.985865e-39
1.2441894 1.9950976 -0.17248642 5.709641e-39
1.2053471 2.0022058 -0.17281008 6.6305183e-39
1.2229682 2.0033247 -0.1716706 6.1695374e-39
1.2514442 2.0063729 -0.17301826 5.8936764e-39
1.2365543 2.0176764 -0.17285813 6.3528496e-39
1.2592809 2.0185571 -0.17469847 6.5383255e-39
1.2651215 2.0164616 -0.17288601 5.6174454e-39
1.2799325 2.0269737 -0.17388134 5.8029157e-39
1.2430679 2.0304832 -0.17341015 6.9978589e-39
1.2730379 2.0309095 -0.17578548 6.8149124e-39
1.2947588 2.037699 -0.17487754 5.8951141e-39
1.2637496 2.0469737 -0.17523356 8.2875173e-39
1.2878132 2.043529 -0.17695145 7.0000197e-39
1.3026063 2.0490952 -0.17540058 6.6316001e-39
1.2955525 2.0558243 -0.17757542 7.3688022e-39
1.2712866 2.0603342 -0.17587656 9.6708077e-39
1.3174301 2.0647998 -0.17784303 7.6453961e-39
1.284902 2.0754321 -0.17706455 6.8156621e-39
1.3333282 2.0714526 -0.17746474 7.5535592e-39
1.3562191 2.0826414 -0.17900676 8.2918445e-39
1.3623528 2.0855126 -0.17046337 1.1609082e-38
1.419976 2.0927935 -0.17052615 1.0046089e-38
1.4379256 2.1051009 -0.17160335 1.3545921e-38
1.6101043 0.58480537 -0.16821884 9.491129e-39
1.4292055 0.62147689 -0.16584805 4.1354896e-39
1.4161409 0.6329264 -0.16455801 3.8596202e-39
1.410074 0.64432228 -0.16394395 3.8603419e-39
1.3866976 0.65922308 -0.1663183 3.3075198e-39
1.4030083 0.65559846 -0.1632337 3.5848368e-39
1.4421355 0.65557212 -0.16155925 2.6646755e-39
1.3746752 0.66777009 -0.16499931 3.1238474e-39
1.3839501 0.66633743 -0.16136658 3.2178521e-39
1.4301357 0.66100901 -0.16020684 2.2054952e-39
1.3543743 0.67737764 -0.16478984 4.9627251e-39
1.368647 0.67747211 -0.16434447 2.6650301e-39
1.3768864 0.67730892 -0.16065727 2.573203e-39
1.3498454 0.68872023 -0.1640411 4.4113492e-39
1.3686131 0.68846631 -0.16435395 2.4817178e-39
1.3708224 0.68822479 -0.16004469 2.6661203e-39
1.3461545 0.69237959 -0.1640752 4.5042707e-39
1.3565919 0.69660199 -0.16303463 2.2054938e-39
1.3731706 0.69742203 -0.16425198 2.2973265e-39
1.3359163 0.70176631 -0.16264084 3.5841095e-39
1.3466595 0.70901936 -0.16865836 3.2164088e-39
1.3505647 0.70602977 -0.16237956 1.9296258e-39
1.3621706 0.70220965 -0.16292848 2.4802829e-39
1.3184209 0.71272516 -0.16137272 3.677024e-39
1.3239849 0.71438968 -0.1614306 3.1242103e-39
1.344538 0.71536613 -0.16172442 1.8381505e-39
1.3511773 0.71713066 -0.16160546 2.7554306e-39
1.3671809 0.71521473 -0.16353081 2.6646741e-39
1.3148139 0.72566116 -0.16065854 3.3089631e-39
1.332518 0.72304451 -0.16040468 1.6544781e-39
1.346387 0.7223742 -0.16481444 2.2966119e-39
1.3214666 0.73079956 -0.16983169 3.0309329e-39
1.3433599 0.73275781 -0.16448617 1.837433e-39
1.3104143 0.74894869 -0.1685477 2.7565096e-39
1.3214338 0.74143571 -0.16984084 4.226958e-39
1.3348455 0.74513495 -0.16858575 2.0214627e-39
1.2930706 0.75300455 -0.1696436 3.3082387e-39
1.3043894 0.7577517 -0.1678464 2.2969706e-39
1.3284109 0.75125211 -0.16665441 2.4820821e-39
1.3302236 0.75666934 -0.16922115 2.1132982e-39
1.2872312 0.76231486 -0.16863111 2.2051309e-39
1.296243 0.76670653 -0.16852638 2.2051309e-39
1.310223 0.7652508 -0.16666237 1.6537606e-39
1.3212872 0.7612592 -0.16696998 2.298051e-39
1.2812926 0.77370799 -0.16794497 2.2062127e-39
1.2993309 0.77723104 -0.16727243 1.4693679e-39
1.313261 0.77343011 -0.16600254 2.5735575e-39
1.2773377 0.78341413 -0.16775626 2.3898851e-39
1.2933066 0.78581309 -0.16657092 1.8370729e-39
1.316227 0.7823863 -0.16530937 3.4976732e-39
1.2744514 0.79531717 -0.16733895 2.7586662e-39
1.2882811 0.79462588 -0.16598779 1.7459562e-39
1.3101687 0.79238778 -0.16465382 4.6025774e-39
1.3252476 0.79423189 -0.1685832 1.102026e-39
1.2655666 0.80743659 -0.16631356 3.0363293e-39
1.2882491 0.80501056 -0.16599673 1.8381519e-39
1.3051099 0.80243278 -0.16410235 4.7873246e-39
1.2569189 0.81721544 -0.16577142 4.3256262e-39
1.283224 0.81370896 -0.16541347 2.0225417e-39
1.2990527 0.81225908 -0.16344735 4.695129e-39
1.2575911 0.82913136 -0.16513202 5.3401284e-39
1.2608293 0.8204965 -0.16588426 3.8668102e-39
1.2772007 0.82198632 -0.16471173 2.7593865e-39
1.2929962 0.82199395 -0.16279265 4.8788014e-39
1.2430414 0.83538067 -0.16518593 2.7604627e-39
1.2609769 0.83171701 -0.16570821 5.1553855e-39
1.277169 0.83228719 -0.16472059 3.2203618e-39
1.2879387 0.8317951 -0.16224191 4.8787986e-39
1.2435021 0.84709734 -0.16519338 3.6809742e-39
1.253396 0.84215736 -0.16470192 5.5234477e-39
1.2671201 0.84921163 -0.16355367 3.8657284e-39
1.2721444 0.84078753 -0.16413717 3.680977e-39
1.2818831 0.84135473 -0.16158772 4.7873218e-39
1.2433228 0.85808766 -0.16362524 5.5245225e-39
1.2517071 0.85074121 -0.16437489 5.5223757e-39
1.2670887 0.85943627 -0.16356248 3.8653683e-39
1.2768266 0.85099596 -0.16103745 4.7873218e-39
1.2370948 0.86245364 -0.16462195 4.5096475e-39
1.2434686 0.86917102 -0.16345134 5.4330457e-39
1.2517643 0.8614608 -0.16430041 5.1535904e-39
1.2610663 0.8673631 -0.16286042 3.7731727e-39
1.2767632 0.86146426 -0.16100545 5.0621136e-39
1.2306834 0.87770343 -0.16405043 4.5092916e-39
1.246822 0.87217021 -0.16372022 5.2475839e-39
1.261035 0.87754214 -0.1628692 3.6813372e-39
1.2707089 0.87080288 -0.16035196 4.8788014e-39
1.2376304 0.88147283 -0.1627019 5.4330429e-39
1.2408792 0.88279378 -0.16303942 5.0631898e-39
1.2560115 0.88573015 -0.16228551 3.9568423e-39
1.2706457 0.88122547 -0.16032012 4.6029305e-39
1.2252494 0.89234191 -0.16356157 4.3263423e-39
1.2363558 0.89291823 -0.16244403 5.523805e-39
1.2559803 0.89587104 -0.16229424 3.7731699e-39
1.2604932 0.8999908 -0.16956779 4.6022117e-39
1.2705824 0.89164817 -0.16028827 4.6029305e-39
1.2257041 0.90390629 -0.16356891 4.2345026e-39
1.233464 0.90429568 -0.1620336 5.3390593e-39
1.2551951 0.90751827 -0.16558625 4.2334306e-39
1.2260935 0.91674864 -0.16103563 5.7996759e-39
1.2354699 0.91610867 -0.16607538 4.6014942e-39
1.2434227 0.91590279 -0.16083464 3.9557647e-39
1.2543787 0.91932523 -0.16883805 4.6951262e-39
1.2133883 0.92183435 -0.16250096 4.6032823e-39
1.2262375 0.92769492 -0.16086391 5.3404956e-39
1.2354829 0.92639798 -0.16604289 4.6011341e-39
1.2493254 0.92845595 -0.16825125 4.5107335e-39
1.2197351 0.93040836 -0.16300456 4.5110838e-39
1.2203944 0.93963116 -0.16012022 5.6149245e-39
1.2304997 0.93545806 -0.16544297 4.5096573e-39
1.2492632 0.93871856 -0.16821989 4.6029305e-39
1.2084162 0.94178069 -0.16978642 5.2479384e-39
1.21429 0.94476515 -0.16251554 4.5114412e-39
1.2305126 0.94570935 -0.16541061 4.5096587e-39
1.2492009 0.94898117 -0.16818854 4.6944101e-39
1.2025706 0.95353341 -0.16899988 5.3397767e-39
1.2152568 0.95727444 -0.16499053 4.0501099e-39
1.2250292 0.9546237 -0.16476065 4.6011327e-39
1.2441486 0.95795935 -0.16760218 4.4185393e-39
1.2027121 0.96429682 -0.16883102 5.3397767e-39
1.216754 0.96739244 -0.16341011 4.4181778e-39
1.2331091 0.96527445 -0.16635029 4.5107349e-39
1.2028536 0.97506028 -0.16866216 5.3397795e-39
1.2148242 0.97641855 -0.16570364 4.6014928e-39
1.2330476 0.97541523 -0.1663193 4.234148e-39
1.1970055 0.9866302 -0.16787848 5.339055e-39
1.2018689 0.9854815 -0.16137901 4.6036452e-39
1.2125573 0.98634446 -0.16844308 4.3252661e-39
1.2329861 0.98555589 -0.16628832 4.234148e-39
1.1967785 0.99842566 -0.16430004 4.9724263e-39
