# .PCD v0.7 - Point Cloud Data file format
VERSION 0.7
FIELDS x y z rgb
SIZE 4 4 4 4
TYPE F F F F
COUNT 1 1 1 1
WIDTH 1027
HEIGHT 1
VIEWPOINT 0 0 0 1 0 0 0
POINTS 1027
DATA ascii
0.74924117 3.0992732 -0.356527 7.0882567e-39
0.75616431 3.0922232 -0.35976678 7.4577567e-39
0.77485543 3.0983145 -0.35373434 7.0936517e-39
0.78746229 3.0987122 -0.35534269 3.8632075e-39
0.79533678 3.0902169 -0.35695541 2.94234e-39
0.77544177 3.1080401 -0.3551892 5.3397781e-39
0.78217143 3.1001074 -0.35430047 5.7071187e-39
0.74789947 3.1119485 -0.35665527 7.3641303e-39
0.77746803 3.1185637 -0.35375643 2.2980538e-39
0.78628081 3.1107574 -0.35564771 2.66863e-39
0.74655765 3.1246238 -0.35678357 7.4566791e-39
0.75819075 3.1230843 -0.35359836 6.720193e-39
0.76342708 3.1258552 -0.35199547 7.0918594e-39
0.77938455 3.1252003 -0.35465345 4.7837345e-39
0.74521595 3.1372988 -0.35691184 7.4556029e-39
0.75689435 3.1364226 -0.35374451 6.7216378e-39
0.76860547 3.1351626 -0.35543409 4.1423167e-39
0.77521634 3.1354825 -0.35449207 4.6011383e-39
0.75559783 3.1497607 -0.35389066 6.8138278e-39
0.76473677 3.1471138 -0.35184324 3.6798995e-39
0.73317146 3.1575096 -0.35644743 7.2722878e-39
0.75573599 3.1550801 -0.35287103 5.1543051e-39
0.76586688 3.1588042 -0.35876724 5.3387005e-39
0.73467821 3.1610508 -0.35500124 7.4555987e-39
0.75450879 3.1662719 -0.35188472 5.7067628e-39
0.74364257 3.1750247 -0.35564113 6.4428859e-39
0.7554791 3.1739128 -0.35408962 4.8780853e-39
0.73883617 3.1832836 -0.35905281 7.4566777e-39
0.7476905 3.1897197 -0.35959333 7.364482e-39
0.75441551 3.1860957 -0.35302338 4.5107377e-39
0.73641199 3.194551 -0.35579643 6.4443222e-39
0.75577551 3.1942978 -0.35172677 3.4973047e-39
0.76152587 3.1995993 -0.35927421 5.1543093e-39
0.7204653 3.2089028 -0.35526711 7.4570266e-39
0.73850721 3.200675 -0.35755327 7.4548812e-39
0.74815649 3.202039 -0.3503868 2.6661091e-39
0.7523129 3.2049203 -0.35304248 5.0613976e-39
0.72933692 3.211509 -0.35551193 7.180088e-39
0.73997843 3.2177336 -0.35232443 6.0780718e-39
0.75283366 3.219152 -0.35178459 3.4951425e-39
0.72729433 3.2219167 -0.35763678 7.1808209e-39
0.73582369 3.2260253 -0.35780984 6.8123775e-39
0.7493856 3.2288833 -0.35734162 4.9760291e-39
0.72639263 3.2357683 -0.35682094 5.0610248e-39
0.73868859 3.2310035 -0.3524698 6.0795054e-39
0.7514537 3.2315774 -0.35195935 5.5227246e-39
0.71695566 3.2473652 -0.35597736 7.3655624e-39
0.72680283 3.2473857 -0.35310581 6.6294323e-39
0.74564624 3.2417507 -0.35388482 4.234504e-39
0.72145993 3.259346 -0.35808364 4.4167442e-39
0.73669165 3.257719 -0.35408306 4.2341564e-39
0.71578574 3.260186 -0.35621411 7.6396242e-39
0.72399563 3.2619674 -0.3560226 6.7191126e-39
0.7405985 3.2658327 -0.35060793 2.0203851e-39
0.71547598 3.2717898 -0.35906449 7.4559518e-39
0.72395676 3.2737548 -0.35601273 6.9049402e-39
0.7370218 3.2745092 -0.35184395 4.3249059e-39
0.71389389 3.2852814 -0.35801449 7.2730053e-39
0.72677004 3.2872126 -0.35460094 7.6403515e-39
0.73440921 3.2848189 -0.35574016 5.5266805e-39
0.7122761 3.2986481 -0.35692436 4.9695551e-39
0.72314203 3.2982256 -0.35089529 6.6305295e-39
0.73506677 3.2913299 -0.35089767 4.9681187e-39
0.74218678 3.2965343 -0.35818234 4.2363088e-39
0.72777325 3.3020766 -0.35857952 4.506779e-39
0.73647624 3.3029494 -0.35113001 5.7060411e-39
0.74004066 3.3098197 -0.35564429 3.1227768e-39
0.71488023 3.3119473 -0.3568472 3.4904705e-39
0.73510212 3.3153214 -0.35130405 2.6632322e-39
0.74074697 3.3100646 -0.35835049 2.4799227e-39
0.75089544 3.3176873 -0.35697135 2.2984055e-39
0.70993638 3.3242896 -0.35739785 4.4095458e-39
0.71731895 3.3250403 -0.35666096 3.9500067e-39
0.72966003 3.3238935 -0.35348755 4.1336805e-39
0.73651767 3.3256445 -0.35499835 3.0312902e-39
0.74314135 3.3249547 -0.35532752 1.2864172e-39
0.70876646 3.3371105 -0.3576346 4.0414835e-39
0.71598357 3.3376551 -0.35678861 3.9500081e-39
0.72837019 3.3371637 -0.35363293 4.1329589e-39
0.73786747 3.3371248 -0.35868677 3.1231313e-39
0.74197632 3.336833 -0.35562834 1.4700882e-39
0.70759654 3.3499312 -0.35787135 4.3173501e-39
0.71775192 3.3499274 -0.3500627 4.4095458e-39
0.73235399 3.340066 -0.35165212 3.0309357e-39
0.71464831 3.3502696 -0.35691628 4.2251517e-39
0.72708035 3.3504336 -0.35377833 4.1336791e-39
0.73370385 3.3515468 -0.35534054 3.1227684e-39
0.74738449 3.3534813 -0.35787785 1.4700882e-39
0.70642674 3.362752 -0.3581081 4.4088269e-39
0.71552181 3.3642738 -0.35394993 3.9492893e-39
0.72579062 3.3637035 -0.35392371 4.2247972e-39
0.74621421 3.3654127 -0.35817999 1.1942216e-39
0.69737339 3.3748055 -0.35753667 4.3166313e-39
0.71371031 3.3764675 -0.35446739 4.4088283e-39
0.72249961 3.3761191 -0.35346699 3.2146025e-39
0.69728547 3.38796 -0.35941881 4.3173501e-39
0.7040869 3.3883934 -0.35858157 4.1336833e-39
0.71494615 3.3868053 -0.35374761 3.6741415e-39
0.71602118 3.3942235 -0.35113844 3.5823046e-39
0.72294927 3.3925149 -0.35707852 3.0309329e-39
0.69615668 3.4008448 -0.35969439 4.3169928e-39
0.70611203 3.4009709 -0.35812265 4.1329603e-39
0.71287668 3.4038398 -0.35205242 4.2258762e-39
0.72151673 3.405977 -0.3572458 2.9394561e-39
0.69421601 3.4119048 -0.35835117 4.1344078e-39
0.7009964 3.4122832 -0.35721517 4.5946573e-39
0.68593127 3.4260924 -0.35810417 4.1336805e-39
0.69421697 3.4236164 -0.35642585 3.4897573e-39
0.70179474 3.4217045 -0.3528482 3.2153242e-39
0.6755572 3.4376221 -0.35404468 3.5819459e-39
0.68697768 3.4316239 -0.35429111 3.3982735e-39
0.70037675 3.4350302 -0.35301381 3.2156801e-39
0.67355204 3.4484797 -0.35303679 3.9507256e-39
0.68182266 3.4429226 -0.35513633 3.8578125e-39
0.69895875 3.4483559 -0.35317943 2.9394589e-39
0.6658904 3.4582789 -0.35148096 2.3884404e-39
0.67634755 3.4521487 -0.35376406 3.398635e-39
0.68153608 3.4566419 -0.35902131 3.7659798e-39
0.67474264 3.4639857 -0.35380971 3.6737814e-39
0.68434489 3.4661281 -0.35511193 3.3982763e-39
0.67581654 3.4758387 -0.35622251 3.8574538e-39
0.67049295 3.4860754 -0.3559072 4.0414891e-39
0.65530974 3.4900591 -0.35004136 4.3227395e-39
0.66484565 3.4971876 -0.35446036 6.9935303e-39
0.65418869 3.501122 -0.35162133 7.6417808e-39
0.66751969 3.5049648 -0.35366052 7.825449e-39
0.6841855 3.5023823 -0.3515543 6.9042059e-39
0.65628994 3.5119705 -0.35121047 7.7325471e-39
0.66372705 3.5138583 -0.3528457 8.1942427e-39
0.65505457 3.5242147 -0.35141036 7.364838e-39
0.66375464 3.5247231 -0.35447976 8.1020457e-39
0.65590608 3.5365386 -0.35364798 7.9183747e-39
0.66361827 3.5386274 -0.35048765 8.2864397e-39
0.64823067 3.5480728 -0.35213771 5.1525114e-39
0.65647626 3.5477574 -0.35274068 5.2429078e-39
0.64824402 3.5550585 -0.35382539 5.9793868e-39
0.64885706 3.5634394 -0.35438472 8.7466906e-39
0.65532923 3.5603278 -0.35297281 8.2832027e-39
0.6477502 3.5760739 -0.35465494 8.5637441e-39
0.65371144 3.5727615 -0.35450113 8.379713e-39
0.64636278 3.585448 -0.35584429 8.1949672e-39
0.65303516 3.5854688 -0.35343707 8.7477696e-39
0.64440256 3.5969412 -0.35482016 8.0109304e-39
0.65188813 3.5980392 -0.3536692 8.747062e-39
0.64380497 3.6052904 -0.35345656 7.7357771e-39
0.64298582 3.6122746 -0.35478175 7.0853798e-39
0.6507411 3.6106095 -0.35390133 8.8385331e-39
0.64364165 3.6232376 -0.35505405 4.7769017e-39
0.63923836 3.6346383 -0.35321587 4.1336903e-39
0.64450639 3.6366339 -0.35660371 4.8680058e-39
0.63795376 3.6470046 -0.35336989 3.4004455e-39
0.6473 3.6483207 -0.35459769 4.2251545e-39
0.64110917 3.6518805 -0.35627621 4.2269608e-39
0.64616752 3.6632786 -0.35677573 3.8581768e-39
0.65051359 3.6624246 -0.35174057 3.3067995e-39
0.66725671 3.6614718 -0.35353136 2.2054938e-39
0.64499295 3.677258 -0.35795498 5.3289909e-39
0.65562755 3.6742122 -0.35572195 3.2149654e-39
0.64988637 3.6895502 -0.35919356 4.4088283e-39
0.65432823 3.6868474 -0.35591102 3.3067995e-39
0.644647 3.6990829 -0.35382134 3.0323748e-39
0.66241878 3.6956818 -0.35099101 4.0414849e-39
0.64862907 3.7024865 -0.3593353 4.9655992e-39
0.66215992 3.704875 -0.35264546 3.7695826e-39
0.63640207 3.7199364 -0.35017166 4.1372805e-39
0.6473099 3.7128382 -0.35508835 5.3336713e-39
0.66431022 3.7180583 -0.35087314 5.240761e-39
0.67059898 3.7148688 -0.35649145 5.1496401e-39
0.66918099 3.7281945 -0.35665706 4.1362043e-39
0.63509804 3.7322555 -0.35029635 4.2294817e-39
0.63812375 3.748884 -0.3564547 4.7801317e-39
0.64134032 3.7490826 -0.35261762 3.9539738e-39
0.65835869 3.7439976 -0.35330397 4.4124296e-39
0.67064238 3.7456372 -0.3534863 4.6890179e-39
0.62921584 3.7586515 -0.35450569 4.2294789e-39
0.63945484 3.7531307 -0.35007733 4.5035421e-39
0.66050041 3.7572541 -0.35130259 4.5964678e-39
0.64352238 3.7641768 -0.35264388 4.045089e-39
0.66463143 3.7619045 -0.3544766 4.7801317e-39
0.63321698 3.7786362 -0.35805449 4.8719742e-39
0.65567809 3.7726269 -0.35263667 4.5964664e-39
0.66237384 3.7876742 -0.35502774 4.3223934e-39
0.63609844 3.7986016 -0.35311881 4.506063e-39
0.6347881 3.8109813 -0.3532441 4.6911759e-39
0.66438961 3.8245437 -0.35375741 4.9663209e-39
0.67181516 3.8262961 -0.35668096 4.690457e-39
0.65506262 3.8373671 -0.35969514 5.151438e-39
0.64750648 3.8470764 -0.35583791 4.8752112e-39
0.65373367 3.849921 -0.35982218 5.5202317e-39
0.67902231 3.8425016 -0.35870177 5.3336699e-39
0.67750609 3.8565216 -0.3584848 6.0737544e-39
0.65240473 3.8624749 -0.35994923 3.9521689e-39
0.67655158 3.8687139 -0.35908616 4.319155e-39
0.68185794 3.8649867 -0.35163867 3.0331077e-39
0.68459868 3.8773932 -0.35216236 4.2255146e-39
0.69162297 3.8896456 -0.35036224 4.9620021e-39
0.69657218 3.8934746 -0.35579205 4.5021029e-39
0.70075727 3.9012649 -0.35320741 5.23751e-39
0.70778191 3.9102571 -0.35525963 5.6995769e-39
0.73246539 3.9281058 -0.35249126 5.0552865e-39
0.74661213 3.9378192 -0.35597038 7.5460217e-39
0.74083591 3.9436901 -0.35508427 6.6226136e-39
0.76609898 3.9642816 -0.35831919 1.0039271e-38
0.78605735 3.9658933 -0.35246775 9.5764919e-39
0.80991578 3.9876604 -0.35444471 1.2432408e-38
2.2345762 -0.93111306 -0.34057367 6.6359386e-39
2.2655604 -0.92907041 -0.34536439 6.3593517e-39
2.2805049 -0.9188208 -0.34768042 6.5437429e-39
2.295449 -0.90834266 -0.34999642 6.4526235e-39
2.3603384 -0.88459951 -0.3418124 7.2809436e-39
2.4113529 -0.88908583 -0.34930706 7.8348363e-39
2.4112575 -0.87047273 -0.34930292 7.4671328e-39
2.5030329 -0.86891568 -0.34133801 7.5578977e-39
2.4821339 -0.84409124 -0.34057516 7.6511667e-39
2.5028434 -0.84919107 -0.34141293 8.0170779e-39
2.5000703 -0.83226734 -0.34308016 8.573123e-39
2.5227695 -0.83905554 -0.34420815 7.8330398e-39
2.5225787 -0.81917834 -0.34428364 8.3858633e-39
2.5425 -0.80858564 -0.34708062 9.3971383e-39
2.6674321 -0.80358958 -0.34334663 6.0852969e-39
2.6903517 -0.79258311 -0.34638342 8.6635236e-39
2.6368392 -0.78638625 -0.34182101 8.019952e-39
2.6577704 -0.7736429 -0.34458378 8.5706049e-39
2.6901486 -0.7714262 -0.3464638 7.9288354e-39
2.6787004 -0.76057965 -0.34734651 8.2029013e-39
2.7141087 -0.7662189 -0.34187961 8.3876555e-39
2.8127279 -0.76465404 -0.34331867 1.2720131e-38
2.7379687 -0.75591254 -0.34511712 7.8355607e-39
2.8157458 -0.75509059 -0.3403942 7.8348377e-39
2.8549674 -0.75199234 -0.34560868 8.2958144e-39
2.8126168 -0.74297816 -0.34331384 1.2720131e-38
2.8414896 -0.74476016 -0.34350961 7.6504464e-39
2.8798711 -0.73927784 -0.34872195 8.5724013e-39
2.8876357 -0.73479307 -0.34203434 7.8348335e-39
3.0681934 -0.73012316 -0.3464191 7.926313e-39
2.8949697 -0.72383952 -0.34998319 7.742642e-39
2.9144824 -0.72355187 -0.34546834 7.9270319e-39
3.013483 -0.71669203 -0.34504008 9.2156071e-39
3.0989137 -0.71884775 -0.34990352 7.7419218e-39
3.2959118 -0.67255402 -0.34583288 1.3180375e-38
3.307493 -0.65889394 -0.34243521 1.3456246e-38
3.3305943 -0.65967166 -0.34949937 1.3642069e-38
3.1880021 -0.6469425 -0.34269017 8.4798512e-39
3.3423059 -0.64525902 -0.34634641 1.2903069e-38
3.486141 -0.64473498 -0.34952858 1.0415222e-38
3.4068453 -0.63844609 -0.34078354 8.7542632e-39
1.1512399 2.4399824 -0.34827739 5.3336769e-39
1.0292525 2.4491386 -0.34902248 1.0867931e-38
1.0775981 2.4458432 -0.34226182 1.0038908e-38
1.2105913 2.4457703 -0.34555128 5.059241e-39
1.2834114 2.4463627 -0.34490842 4.2334572e-39
1.0484474 2.4565001 -0.34968546 4.5982642e-39
1.0949495 2.4511435 -0.34913027 2.7554306e-39
1.1083244 2.4513972 -0.34716552 2.2047764e-39
1.1623693 2.4567332 -0.34606782 5.8875583e-39
1.1999933 2.4593978 -0.34131908 5.0574459e-39
1.2617366 2.4534335 -0.3404597 4.6911759e-39
1.0175047 2.4653428 -0.34680256 9.3910091e-39
1.0299211 2.464004 -0.34954673 6.8988446e-39
1.036738 2.4670739 -0.34792942 6.8116866e-39
1.0661292 2.469487 -0.34294909 1.6537592e-39
1.084919 2.4617736 -0.34713501 3.7703042e-39
1.0984626 2.4610739 -0.34513754 3.1267313e-39
1.1080803 2.4693294 -0.34670863 1.928907e-39
1.1150391 2.4645212 -0.3487978 3.4937103e-39
1.1534336 2.4673994 -0.34518707 2.4810115e-39
1.2636793 2.468821 -0.34529844 2.9394561e-39
1.2970703 2.4660561 -0.34906641 4.1372833e-39
1.0192702 2.4782901 -0.34759635 6.9002683e-39
1.0339751 2.4797497 -0.34827024 8.8450183e-39
1.0561306 2.4797754 -0.34094882 1.1027448e-39
1.0665817 2.4733431 -0.3494696 6.4320861e-40
1.0886124 2.470614 -0.34310776 1.010552e-39
1.0916202 2.4739046 -0.3428632 1.1027448e-39
1.103642 2.4755673 -0.34677884 1.1027476e-39
1.1371118 2.4713931 -0.34217805 2.5782126e-39
1.2755976 2.4705529 -0.3444854 3.4926299e-39
1.0057731 2.4813955 -0.34458107 8.8399737e-39
1.0278876 2.4815342 -0.34603071 3.4922768e-39
1.0305521 2.4845538 -0.34798789 1.9307104e-39
1.0578282 2.4816732 -0.34754187 5.5101298e-40
1.0950565 2.4829245 -0.34477958 9.187165e-40
1.2155225 2.4813914 -0.34806144 4.4131443e-39
1.0176277 2.4938467 -0.34419817 4.9667034e-39
1.0403529 2.4979692 -0.34368306 1.2875018e-39
1.0550249 2.4949791 -0.34803772 1.0109149e-39
1.0779147 2.4972744 -0.34077981 6.4320861e-40
1.0864809 2.4901602 -0.3427799 6.4320861e-40
1.0109066 2.501883 -0.34372944 7.1786629e-39
0.97885454 2.5126414 -0.34082884 3.6878252e-40
1.0008836 2.5133209 -0.34651607 5.5173465e-40
1.0351588 2.5144103 -0.34345901 8.2723973e-40
0.9942708 2.5340128 -0.34472671 2.2083735e-39
1.0304379 2.531301 -0.34223747 9.197983e-40
0.98504627 2.5425038 -0.34561843 2.7586802e-40
0.99772203 2.5498226 -0.34685403 7.3540424e-40
0.94825214 2.5590849 -0.34750721 4.6933311e-39
0.9446786 2.560962 -0.34662452 4.5060658e-39
0.96632951 2.5661986 -0.34861749 3.1242131e-39
0.97469699 2.5606425 -0.34127325 6.4393028e-40
0.9966681 2.5619898 -0.34696668 6.4320861e-40
0.93414217 2.5742118 -0.34459096 4.5975355e-39
0.94679731 2.5728283 -0.3476463 5.4258529e-39
0.95615548 2.5776334 -0.34669414 2.7568698e-39
0.9621768 2.5733404 -0.34942254 5.0577976e-39
0.92601424 2.5891039 -0.34313676 5.3329412e-39
0.93267053 2.5874622 -0.34477735 4.4131443e-39
0.9450739 2.5876601 -0.34553367 3.5866248e-39
0.99541074 2.5866137 -0.34859344 4.5989915e-40
0.95056856 2.5907176 -0.34731027 4.876635e-39
0.98846745 2.5958641 -0.34832913 5.5173465e-40
0.99350655 2.5984917 -0.34730464 4.6025928e-40
1.0032425 2.5937994 -0.34537619 1.1949404e-39
1.7224022 2.5961165 -0.34232864 4.4131429e-39
1.7514037 2.5965891 -0.34759137 4.5968167e-39
0.91542631 2.6038346 -0.34107172 5.4276704e-39
0.92168504 2.6042829 -0.34219471 4.5064203e-39
0.93782216 2.6004717 -0.34333834 3.1252921e-39
0.96427989 2.608839 -0.34264678 5.5173465e-40
0.97204936 2.6001585 -0.34431618 3.6806365e-40
0.985811 2.6061993 -0.34556842 5.5173465e-40
0.99431711 2.6033511 -0.34354311 1.1942244e-39
1.8608233 2.6088822 -0.34955254 4.8723274e-39
0.91165859 2.6134164 -0.34070256 3.4915593e-39
0.92866933 2.6110351 -0.34281918 4.3187893e-39
0.94445783 2.6148558 -0.34566972 1.4693693e-39
0.96104497 2.6152685 -0.3483358 8.2759987e-40
1.8113068 2.6158435 -0.34110937 4.504621e-39
0.91853845 2.6250763 -0.3413246 4.041845e-39
0.93530899 2.6260929 -0.34398723 2.4799227e-39
0.94108796 2.6214895 -0.3493222 9.219563e-41
0.95312947 2.6247582 -0.34669495 5.5173184e-40
0.99139881 2.6228261 -0.34752995 4.5953902e-40
1.8596331 2.626945 -0.34972879 4.8723246e-39
0.91874951 2.6361806 -0.34224999 3.8592516e-39
0.92518705 2.6369972 -0.34205046 1.8374302e-39
0.94215393 2.633631 -0.34713376 3.6734339e-40
0.88363117 2.6470606 -0.34826896 3.3982763e-39
0.93900728 2.6456113 -0.34962827 4.5953621e-40
0.94310337 2.6460447 -0.34497029 5.5173184e-40
0.91592395 2.6574173 -0.34401768 1.8439126e-40
0.92751831 2.6516995 -0.34124219 2.7622395e-40
0.93032432 2.6532545 -0.34763056 9.219563e-41
0.95241284 2.6533928 -0.3411783 2.7622395e-40
0.87649816 2.662684 -0.34706581 4.3173473e-39
0.88746494 2.6603529 -0.34960803 3.3078743e-39
0.90821993 2.6653397 -0.34228534 2.7586802e-40
0.92637211 2.663919 -0.3414185 6.4321141e-40
0.9653424 2.6686449 -0.34227324 2.7586802e-40
0.8710804 2.6754994 -0.34620279 4.8680184e-39
0.88625246 2.6741939 -0.34990406 4.7786786e-39
0.90719855 2.6771803 -0.34243554 2.7622395e-40
0.87366003 2.6888599 -0.34738171 8.2885837e-39
0.89810419 2.6833935 -0.34530735 2.5742736e-39
0.8729099 2.6937039 -0.34634504 8.3800661e-39
0.88413405 2.6999993 -0.34895325 1.1970984e-39
0.868249 2.7016149 -0.3465178 8.0116465e-39
0.8724404 2.7065985 -0.34334707 7.828686e-39
0.90068513 2.7019911 -0.34848833 2.5760714e-39
0.85829973 2.7146025 -0.34451473 8.1027659e-39
0.8831265 2.7116809 -0.34910142 1.1045427e-39
0.89955467 2.7140434 -0.34866226 2.3920403e-39
0.84791893 2.7285762 -0.34224588 8.2875173e-39
0.85678047 2.7271335 -0.34481961 7.2747975e-39
0.87042487 2.7209384 -0.34684798 7.5531795e-39
0.88302886 2.7266347 -0.34917617 3.6813386e-39
0.89076883 2.7221103 -0.34668589 2.7593837e-39
0.84640008 2.7389758 -0.34269768 4.3202354e-39
0.85995817 2.7367938 -0.3448824 3.9518172e-39
0.87514263 2.7389069 -0.34326589 1.1945789e-39
0.88537765 2.7345729 -0.34812838 2.1158149e-39
0.8465299 2.7416985 -0.34237868 5.8843241e-39
0.850577 2.7411075 -0.34971523 4.3202438e-39
0.86989671 2.7465367 -0.34894091 7.9205299e-39
0.87417388 2.7412486 -0.3474693 1.7459506e-39
0.83607239 2.7552025 -0.34023267 8.4715457e-39
0.84711325 2.7532833 -0.34637129 8.0112878e-39
0.85893065 2.7537832 -0.34471139 4.7880449e-39
0.87338406 2.7524521 -0.3462795 2.9452155e-39
0.83469051 2.7682567 -0.34036478 8.6559397e-39
0.84592342 2.7652125 -0.34310946 8.1946028e-39
0.85840458 2.7633643 -0.34679043 8.2882222e-39
0.872679 2.7638624 -0.34578669 4.140879e-39
0.84215921 2.7771602 -0.34323478 7.4581126e-39
0.85727572 2.7779453 -0.34363145 5.3401383e-39
0.86444736 2.7729456 -0.34481642 3.220722e-39
0.83557355 2.781409 -0.34084409 8.1971154e-39
0.84074563 2.7898881 -0.34341383 6.8130921e-39
0.86300206 2.7859936 -0.34650734 3.4973117e-39
0.83192676 2.7943647 -0.34062904 5.4226299e-39
0.84479165 2.7935724 -0.3457675 2.8479906e-39
0.85624117 2.7906168 -0.34034967 2.2998447e-39
0.83339643 2.804899 -0.34161451 3.5819473e-39
0.84313655 2.8065286 -0.34705067 2.2962461e-39
0.86520457 2.8003051 -0.34771025 1.8381505e-39
0.8299951 2.8141329 -0.34172061 3.5815914e-39
0.83961099 2.8177476 -0.34880573 2.7586802e-40
0.86409557 2.8123121 -0.34794086 1.1023861e-39
0.82858819 2.8268003 -0.3418988 3.0316518e-39
0.83514005 2.8230867 -0.34354913 4.1336805e-39
0.8595323 2.8249121 -0.34770614 1.9289042e-39
0.86644101 2.8237269 -0.34863681 2.7586802e-40
0.8271814 2.839468 -0.34207699 3.5815914e-39
0.83395272 2.8366392 -0.34383899 4.3173473e-39
0.85831732 2.8372984 -0.34801981 1.928907e-39
0.85710245 2.8496845 -0.34833351 1.8374302e-39
0.8078832 2.8591821 -0.34997156 4.0414849e-39
0.82378125 2.8549483 -0.34074605 3.8581712e-39
0.83425641 2.8521626 -0.3459163 2.4795612e-39
0.82132721 2.863606 -0.34044889 3.3060779e-39
0.83340466 2.8640924 -0.3469491 2.0218158e-39
0.84114748 2.8678923 -0.34679955 3.1231285e-39
0.85588747 2.8620706 -0.34864718 1.9296258e-39
0.82187271 2.8748193 -0.34105849 3.8581726e-39
0.83686841 2.8756008 -0.34828424 2.2966077e-39
0.85467261 2.8744566 -0.34896085 2.6671853e-39
0.82804763 2.8888073 -0.34317264 3.6734212e-39
0.83972627 2.8806887 -0.34697953 2.9394561e-39
0.85345763 2.8868427 -0.34927455 8.9436767e-39
0.82920367 2.8908498 -0.34499839 3.7656169e-39
0.83512557 2.8964725 -0.34857219 1.7455947e-39
0.85224277 2.899229 -0.34958822 2.0203809e-39
0.82762116 2.9036877 -0.34457791 3.6745002e-39
0.83857816 2.9040213 -0.34015489 5.5173184e-40
0.81759834 2.9162278 -0.34229031 3.5826662e-39
0.82682914 2.9179549 -0.3455781 4.2251517e-39
0.83747822 2.9157476 -0.3403241 6.4320861e-40
0.85102791 2.9116151 -0.34990188 1.4693693e-39
0.82519585 2.9298973 -0.34538323 3.0309329e-39
0.80875558 2.9374499 -0.34004807 4.3166313e-39
0.81734324 2.9302027 -0.34555411 3.398635e-39
0.82564193 2.9315076 -0.34586796 4.0414835e-39
0.83527821 2.9392004 -0.34066248 5.5173465e-40
0.81579989 2.943826 -0.34474182 3.3064394e-39
0.83965701 2.9455037 -0.34873208 1.6537592e-39
0.80738014 2.9504433 -0.34017959 4.2251545e-39
0.81460994 2.9560688 -0.34520838 3.1231271e-39
0.83844799 2.957829 -0.3490442 1.5615636e-39
0.8060047 2.9634366 -0.34031108 4.0414835e-39
0.81536835 2.9635122 -0.34591708 3.4904691e-39
0.7876181 2.9748189 -0.34905189 3.8581726e-39
0.81277603 2.973568 -0.34546652 3.2149626e-39
0.82208008 2.9721656 -0.3467375 3.9500081e-39
0.83460867 2.9722672 -0.34526324 1.0101919e-39
0.76937407 2.9860883 -0.34472468 3.8578125e-39
0.80401498 2.9847441 -0.34339285 3.3982749e-39
0.8117308 2.9873815 -0.3448036 4.3162767e-39
0.83345419 2.984293 -0.34550393 1.1020274e-39
0.76802593 2.9988239 -0.34485358 6.3478092e-39
0.78175318 2.9996192 -0.34938353 4.134398e-39
0.79549921 2.9979951 -0.34289885 4.5046154e-39
0.82711881 2.9912932 -0.34786364 1.6541151e-39
0.79643524 3.0096273 -0.3456808 6.9074542e-39
0.80169213 3.0026994 -0.34785426 5.1532078e-39
0.81918138 3.0004315 -0.34632054 1.3775394e-39
0.75553209 3.0101478 -0.34486499 6.9985652e-39
0.77560097 3.0125408 -0.34734359 7.4577567e-39
0.78055418 3.0127587 -0.34962615 7.7375848e-39
0.79146081 3.0149279 -0.34068438 6.9960625e-39
0.80022979 3.0164418 -0.34802505 5.4334101e-39
0.81798357 3.0126433 -0.3466298 3.6802582e-39
0.77680051 3.0256214 -0.34867099 7.2748073e-39
0.78588796 3.0254066 -0.34361124 6.2620988e-39
0.79826909 3.0272398 -0.34268397 5.6149231e-39
0.81678575 3.0248551 -0.34693909 4.5082266e-39
0.77321184 3.0354612 -0.34838286 5.7982367e-39
0.7845782 3.0388813 -0.34375888 3.1256565e-39
0.79781818 3.0350153 -0.34552854 2.4824339e-39
0.80790931 3.0333121 -0.34512523 3.4969459e-39
0.76263326 3.0497673 -0.34536916 7.3648324e-39
0.79730523 3.0439262 -0.34836662 5.2479328e-39
0.80671746 3.0454631 -0.34543294 1.3786156e-39
0.78547084 3.0512238 -0.34243885 6.0766187e-39
0.79733002 3.0559456 -0.34620881 2.8526583e-39
0.76338327 3.06352 -0.34828198 6.7256006e-39
0.77146363 3.0658097 -0.34484798 3.7731951e-39
0.78627974 3.0626378 -0.34114763 3.1270844e-39
0.79763061 3.0663207 -0.3441866 2.3920431e-39
0.74980515 3.0755208 -0.34626314 6.6319519e-39
0.75743115 3.0794613 -0.34646249 5.6163804e-39
0.76910877 3.0733051 -0.3488394 4.6936898e-39
0.78318423 3.0763509 -0.34393254 2.5749924e-39
0.79644388 3.0784187 -0.344493 2.4835213e-39
0.75858873 3.0879748 -0.34575585 6.9045717e-39
0.78375918 3.0867004 -0.34343222 3.219643e-39
0.75624406 3.0924716 -0.34670275 6.8145355e-39
0.7780059 3.0954266 -0.34195384 3.3139938e-39
0.79525727 3.0905168 -0.34479937 1.5619279e-39
0.7561487 3.1030962 -0.34641385 5.5223813e-39
0.77829719 3.106566 -0.3429541 2.0229089e-39
0.78160417 3.1010861 -0.34414428 2.0229033e-39
0.75507957 3.1152108 -0.34753481 4.6022257e-39
0.77792126 3.1180508 -0.34438023 2.574275e-39
0.75454432 3.1261821 -0.34614253 5.7089166e-39
0.7695418 3.1270821 -0.3401483 2.8508647e-39
0.75268245 3.1315029 -0.34742349 6.170245e-39
0.76783544 3.1352336 -0.34259132 3.8657312e-39
0.77468359 3.1381807 -0.34173149 5.0624822e-39
0.75362664 3.1472182 -0.34407723 4.5100245e-39
0.76475132 3.1429858 -0.34678176 2.9434162e-39
0.74263203 3.1538806 -0.34493703 4.5103748e-39
0.76720113 3.1509447 -0.34075263 1.1953062e-39
0.7536124 3.1629031 -0.3447122 3.7724524e-39
0.76739722 3.1601014 -0.34048435 2.1147387e-39
0.74462414 3.1738572 -0.3462382 3.7728182e-39
0.75288922 3.1769245 -0.344412 3.497669e-39
0.76601046 3.1725872 -0.34065998 4.9720676e-39
0.73089969 3.1835186 -0.34398863 5.2461532e-39
0.74780351 3.1898613 -0.34678701 5.3372572e-39
0.75384557 3.188477 -0.3432315 3.0399264e-39
0.72972429 3.1963999 -0.34422648 4.4163911e-39
0.73949665 3.1931918 -0.3487798 6.5379486e-39
0.75587934 3.1945887 -0.34008336 1.0123471e-39
0.76166737 3.1997843 -0.34560001 4.6032991e-39
0.72854877 3.2092814 -0.34446436 4.877358e-39
0.73848546 3.2035413 -0.34693366 5.7071229e-39
0.74036604 3.2096777 -0.34875241 2.4827996e-39
0.75563967 3.20594 -0.34040678 5.3415858e-39
0.72930068 3.215719 -0.34505346 4.785175e-39
0.76022029 3.2133827 -0.34576899 3.2207136e-39
0.72774339 3.2232134 -0.34382871 5.8918631e-39
0.73532379 3.2251897 -0.34823129 2.8512248e-39
0.72648799 3.2359614 -0.34401149 3.588064e-39
0.73606044 3.2324154 -0.34961867 6.1706248e-39
0.71703422 3.2476101 -0.34310371 5.707483e-39
0.72615761 3.2476549 -0.3455233 4.6018614e-39
0.7302869 3.2406487 -0.34770882 2.8515793e-39
0.74808657 3.2425976 -0.34390408 4.1448391e-39
0.72541761 3.2569444 -0.34749392 2.0225515e-39
0.73429102 3.2500691 -0.34829098 4.5089427e-39
0.74664676 3.2561278 -0.34407222 5.0635444e-39
0.7158643 3.2604308 -0.34334046 1.9285496e-39
0.72410744 3.2621076 -0.34333819 3.0341839e-39
0.71555656 3.2720747 -0.34606975 3.6806239e-39
0.72189426 3.2732372 -0.34525895 4.5085853e-39
0.7063958 3.2851646 -0.34428045 7.5499537e-39
0.71352458 3.2860723 -0.34381396 7.0886224e-39
0.72922736 3.2895422 -0.34570587 7.7314681e-39
0.71282148 3.2984295 -0.34533709 5.708555e-39
0.72010142 3.2999513 -0.34372121 4.6890263e-39
0.73311675 3.2984638 -0.34237036 5.0657052e-39
0.74448258 3.2938714 -0.34033173 5.6152874e-39
0.73763973 3.308759 -0.3412002 2.2984055e-39
0.74165177 3.3081393 -0.34137541 4.4138702e-39
0.71403503 3.3117304 -0.34501228 3.5819515e-39
0.74088776 3.3102486 -0.3447448 2.2973265e-39
0.71372283 3.3248577 -0.34425038 4.133319e-39
0.72492576 3.3239775 -0.34483105 3.9492879e-39
0.73944807 3.3237789 -0.34491295 3.1234845e-39
0.74306327 3.3252492 -0.34339234 1.2864172e-39
0.70884502 3.3373554 -0.34476095 4.3169928e-39
0.71749371 3.3373544 -0.34694427 4.0414835e-39
0.72852957 3.3373251 -0.34030148 4.0414849e-39
0.73666406 3.3348591 -0.34344012 2.2962489e-39
0.74073309 3.3490057 -0.34399399 1.4700882e-39
0.7151897 3.3506935 -0.34565639 4.3173501e-39
0.72731322 3.3514538 -0.34174323 3.7656169e-39
0.7065053 3.3629968 -0.34523445 4.4088269e-39
0.71342474 3.3630242 -0.34435955 4.3173501e-39
0.72462958 3.3635044 -0.34454957 3.490109e-39
0.73956805 3.3608842 -0.34429479 1.2864172e-39
0.69641101 3.3747797 -0.34312508 4.2251545e-39
0.70541382 3.3743243 -0.34532762 4.1329589e-39
0.72459096 3.3781857 -0.34205592 3.8574538e-39
0.6973657 3.3882434 -0.34648502 4.3173501e-39
0.70416546 3.3886383 -0.34570792 4.2251517e-39
0.7107541 3.3882535 -0.34461489 4.0414835e-39
0.72322977 3.3915515 -0.34221226 3.7663357e-39
0.70638788 3.4024498 -0.34697849 3.8578125e-39
0.71250415 3.4073601 -0.34149572 3.1231285e-39
0.70329368 3.414804 -0.34734622 3.7656197e-39
0.68601114 3.4263747 -0.34523129 4.1336791e-39
0.69550729 3.4228034 -0.34378493 3.398635e-39
0.70065594 3.4271007 -0.34641817 4.1336805e-39
0.71107888 3.420754 -0.34166217 3.2153242e-39
0.67592961 3.4385414 -0.34316364 3.9500081e-39
0.68699837 3.4317751 -0.34193048 3.2149626e-39
0.69142038 3.4345822 -0.34601322 4.1336805e-39
0.6736294 3.4487209 -0.34035364 4.0414835e-39
0.68281281 3.4432921 -0.34447941 3.3067981e-39
0.67481214 3.4512973 -0.34343648 3.8574566e-39
0.68150973 3.4558365 -0.34463567 3.3067981e-39
0.65795702 3.4662232 -0.34970608 2.7557838e-39
0.672741 3.4645445 -0.34241992 3.582306e-39
0.65663344 3.4781411 -0.34987372 2.5724799e-39
0.6729908 3.4760623 -0.3459006 3.582306e-39
0.66618919 3.4889233 -0.3460772 3.7656225e-39
0.67527455 3.4864466 -0.3454659 3.6737814e-39
0.66890252 3.4956625 -0.34407133 4.869805e-39
0.65965271 3.5084033 -0.34215671 8.564093e-39
0.65336305 3.5131798 -0.34062147 8.1949588e-39
0.67368078 3.5162952 -0.34943062 7.3652009e-39
0.65840125 3.5212789 -0.34229776 8.1027631e-39
0.66018182 3.5268233 -0.3429825 8.2853593e-39
0.67227721 3.5294845 -0.3495945 7.3644792e-39
0.65810966 3.5368366 -0.34284642 8.4704737e-39
0.64792371 3.5466528 -0.34052157 7.4627859e-39
0.65560615 3.5477331 -0.34427232 7.7336135e-39
0.67087376 3.5426738 -0.34975842 7.1822502e-39
0.64374471 3.5582919 -0.34487993 4.9673929e-39
0.65169859 3.5554354 -0.34499148 4.3216759e-39
0.66947031 3.5558631 -0.34992233 4.2276852e-39
0.63949341 3.5689807 -0.3492648 7.2726479e-39
0.64893574 3.5637176 -0.34170234 8.9310847e-39
0.65720415 3.5650015 -0.34407252 6.25741e-39
0.64663076 3.5743175 -0.34138745 8.4719072e-39
0.65315497 3.5726228 -0.34462911 8.5637427e-39
0.63817567 3.5808456 -0.34943169 7.0889784e-39
0.64545453 3.5870423 -0.34159279 8.5641056e-39
0.65382153 3.5842304 -0.34585753 8.1027673e-39
0.64619195 3.5973291 -0.34500402 8.5637469e-39
0.65408736 3.5969782 -0.34458378 8.1953217e-39
0.64687687 3.6053426 -0.34578127 8.7481368e-39
0.65481329 3.6087985 -0.34828368 7.7346995e-39
0.64310217 3.6124916 -0.34200341 8.3800759e-39
0.65081823 3.6108496 -0.34127909 8.7484955e-39
0.64551318 3.6242537 -0.34337938 5.1467577e-39
0.65341699 3.6219196 -0.34844673 4.9634664e-39
0.63920462 3.6363583 -0.3415044 5.0523914e-39
0.64504403 3.6364608 -0.34452841 4.2258776e-39
0.64443898 3.6481733 -0.34500143 3.7659784e-39
0.64353716 3.6510973 -0.34365115 4.5006652e-39
0.64526772 3.6637762 -0.34403923 2.8479808e-39
0.65403569 3.6634498 -0.34431884 3.0316518e-39
0.63546789 3.6748033 -0.34192562 4.5928636e-39
0.64422715 3.6749127 -0.34795681 4.0414835e-39
0.65288305 3.6760807 -0.3445521 4.1336805e-39
0.64122307 3.6858211 -0.34696466 4.5013826e-39
0.65173054 3.6887119 -0.34478533 4.2247972e-39
0.66345155 3.688787 -0.34448829 2.9394575e-39
0.64278901 3.6988425 -0.34290397 3.4007972e-39
0.65767622 3.7038877 -0.34866366 3.4022406e-39
0.64164197 3.7114129 -0.3431361 5.3340314e-39
0.65134531 3.7191706 -0.34916553 5.2403938e-39
0.65559953 3.729562 -0.34827527 5.1478353e-39
0.66931963 3.7283757 -0.3432571 4.7786968e-39
0.64276069 3.7368405 -0.34004405 4.2273293e-39
0.65022784 3.7319262 -0.34943834 5.2386002e-39
0.64145011 3.7492204 -0.34016934 4.9630881e-39
0.6589303 3.7411969 -0.34118846 4.5046239e-39
0.66266525 3.7446012 -0.34995425 4.7801345e-39
0.65373468 3.7546105 -0.34807068 4.5042707e-39
0.64013976 3.7616 -0.34029463 4.7801345e-39
0.65610886 3.7677119 -0.34151796 4.4127912e-39
0.66471153 3.762188 -0.34154281 5.7899705e-39
0.66358274 3.7750731 -0.34181836 5.3322265e-39
0.63751882 3.7863593 -0.34054524 5.240391e-39
0.66245395 3.7879579 -0.34209394 5.3329412e-39
0.63620824 3.7987392 -0.34067053 5.0581606e-39
0.66081178 3.8083296 -0.34425071 4.3220277e-39
0.66441739 3.8114648 -0.34101149 5.7010062e-39
0.67679042 3.8187127 -0.34701928 5.517694e-39
0.65778524 3.8257825 -0.34493262 5.3340286e-39
0.66832161 3.8225689 -0.34665564 4.1376462e-39
0.67197371 3.8264568 -0.34341815 5.1499933e-39
0.65517396 3.8375065 -0.34707162 5.3347517e-39
0.66329849 3.8376095 -0.34112054 5.7013748e-39
0.67325366 3.8383017 -0.34631252 5.0574403e-39
0.68230861 3.847208 -0.349637 5.7953627e-39
0.65384501 3.8500605 -0.34719867 5.7071341e-39
0.67630577 3.8526311 -0.34760061 5.8897275e-39
0.66001159 3.8676081 -0.34946632 4.1358385e-39
0.68372154 3.8603082 -0.34886506 5.4301899e-39
0.68676728 3.8744736 -0.34560373 4.1347609e-39
0.65867633 3.8802228 -0.349594 4.9631049e-39
0.68445408 3.883527 -0.34852827 4.9605699e-39
0.68219334 3.8961592 -0.34341016 5.9761652e-39
0.69646496 3.892684 -0.34186071 5.0531187e-39
0.70678401 3.8961368 -0.34513599 4.226595e-39
0.70971978 3.9036298 -0.34186828 5.3289895e-39
0.71686834 3.9168611 -0.3442362 6.4360644e-39
0.72281778 3.9138598 -0.34940568 5.2385946e-39
0.73354661 3.9366117 -0.34901571 8.1906792e-39
0.74669689 3.9381192 -0.34229776 8.3761467e-39
0.75083876 3.9455042 -0.34331152 6.991043e-39
0.79082155 3.9676838 -0.34931359 1.1236375e-38
0.80070186 3.9686496 -0.34108865 8.6545286e-39
0.86328435 3.9949033 -0.34093395 1.0774679e-38
2.2055943 -0.93369597 -0.33609217 6.6362945e-39
2.2805266 -0.91882461 -0.33006516 6.9121625e-39
2.2954705 -0.90834647 -0.3322669 6.9121611e-39
2.3114157 -0.89810807 -0.33461559 6.9128814e-39
2.3443966 -0.89545506 -0.33946383 7.005077e-39
2.4113755 -0.88908988 -0.33069372 7.650445e-39
2.4112802 -0.87047678 -0.33068958 7.6500905e-39
2.4279966 -0.85507107 -0.33206195 7.2813066e-39
2.464196 -0.85564107 -0.33807003 7.0969167e-39
2.5571036 -0.83575779 -0.33129629 1.2994178e-38
2.6169074 -0.79918617 -0.33918995 7.8319832e-39
2.7352126 -0.79052031 -0.33075058 8.019952e-39
2.6683896 -0.78672802 -0.3356688 1.35546e-38
2.782244 -0.78868759 -0.33651969 8.1114232e-39
2.691252 -0.77664876 -0.33877292 7.2827527e-39
2.7217977 -0.77580154 -0.33203006 8.295097e-39
2.8061535 -0.77668977 -0.33950755 8.0192289e-39
2.7447278 -0.76278323 -0.33488095 1.1888564e-38
2.81109 -0.76791227 -0.33223355 7.9270319e-39
2.8059418 -0.75464904 -0.33959126 8.0192275e-39
2.8359396 -0.75695801 -0.33541712 7.9270333e-39
2.9096808 -0.75267851 -0.33293635 1.0047177e-38
2.8617907 -0.7460736 -0.33872432 7.8348363e-39
2.9606419 -0.7463693 -0.33887437 9.8613325e-39
2.9317167 -0.73636591 -0.33210668 9.4003683e-39
2.9794424 -0.73892713 -0.33627793 7.6515212e-39
2.9586191 -0.72342837 -0.33526027 1.0598195e-38
3.0081699 -0.7279036 -0.33953479 7.9270291e-39
2.997225 -0.71185064 -0.33201787 8.2029013e-39
3.0250545 -0.69956529 -0.33537024 8.2029013e-39
3.1942136 -0.68356657 -0.33499297 1.0692535e-38
3.2086427 -0.67348528 -0.33154657 9.4896843e-39
3.2269084 -0.67118752 -0.33844858 1.2812309e-38
3.3305569 -0.63229692 -0.33237082 8.756794e-39
1.2005107 2.4399209 -0.33120972 6.6276471e-39
1.0516596 2.4491072 -0.33999872 1.0410556e-38
1.1138053 2.4431498 -0.33977175 8.1024114e-39
1.1269559 2.4451575 -0.33798492 5.5202317e-39
1.1512616 2.4401841 -0.33445793 5.7031811e-39
1.0573235 2.4577224 -0.33818048 5.0606717e-39
1.0761609 2.459255 -0.33168393 4.5046239e-39
1.1037557 2.4539835 -0.33784807 2.4820947e-39
1.1170764 2.4550381 -0.3360281 3.7710231e-39
1.1619163 2.4589419 -0.33281136 6.5343724e-39
1.2931685 2.4500299 -0.33244824 6.6251205e-39
1.0288552 2.4638774 -0.3352021 8.7503256e-39
1.0354054 2.465343 -0.33325148 1.0690399e-38
1.1072085 2.4647822 -0.33406955 2.1132982e-39
1.1254979 2.4651389 -0.33767241 6.5375954e-39
1.1458437 2.4635952 -0.33111712 2.2966161e-39
1.1525437 2.4657001 -0.33069864 3.1270872e-39
1.1756324 2.4662867 -0.33707952 5.7045964e-39
1.2166942 2.4679489 -0.33447701 3.3089533e-39
1.2349259 2.4652605 -0.3386111 3.1238446e-39
1.0176595 2.479084 -0.33318889 6.4410908e-39
1.0470307 2.4703741 -0.3364251 6.437142e-39
1.0726275 2.4772286 -0.33894536 5.5137451e-40
1.1183176 2.4736993 -0.33694243 1.6534033e-39
1.2454894 2.4704289 -0.33788037 3.215327e-39
1.2723858 2.4742136 -0.33342311 3.4933488e-39
1.0277996 2.4818666 -0.33256465 4.1362071e-39
1.0638211 2.4862347 -0.33711743 5.5101578e-40
1.1027535 2.4882653 -0.33413669 8.268782e-40
1.1113441 2.4808474 -0.3360748 1.1027476e-39
1.2156342 2.4814463 -0.33452296 3.8610593e-39
1.0044041 2.495667 -0.33053103 7.2751857e-39
1.01754 2.4941773 -0.33080062 6.2588618e-39
1.0253537 2.4981189 -0.33329755 4.7858939e-39
1.0471184 2.4902518 -0.33919013 1.9303461e-39
1.053334 2.4958735 -0.33554208 1.4708141e-39
1.0643698 2.4987345 -0.33701849 4.5953621e-40
1.0941725 2.4955616 -0.3321982 9.187165e-40
1.0522275 2.5087011 -0.33570486 1.1938755e-39
1.0281563 2.5105009 -0.33542383 1.3793345e-39
1.0468948 2.515029 -0.33328152 1.1945873e-39
1.4997258 2.5167632 -0.33760419 4.9659677e-39
0.98786724 2.5236976 -0.33918267 6.7180336e-39
0.99875414 2.5377665 -0.33452857 5.5281084e-40
1.0141093 2.5343595 -0.33825609 9.187193e-40
1.0248113 2.5358379 -0.33007479 7.3898876e-40
1.0610861 2.5366478 -0.3373695 8.279558e-40
0.95515329 2.5477571 -0.33518717 4.9663181e-39
0.99523473 2.5481739 -0.33494622 9.187165e-40
1.008287 2.5409315 -0.33888054 7.3540424e-40
1.5394018 2.5446503 -0.33935624 4.1362071e-39
0.95856351 2.5577543 -0.33605653 6.0715782e-39
0.9675191 2.5535209 -0.33522585 3.3086016e-39
0.98524511 2.5524344 -0.33971334 5.9779561e-39
0.94460207 2.561142 -0.33322406 4.9659537e-39
0.95733887 2.5650222 -0.33337277 3.4926327e-39
0.96626931 2.5639713 -0.33625212 5.3351034e-39
0.94502109 2.5737209 -0.33361906 5.3340188e-39
0.96496886 2.5795212 -0.3358843 3.4926327e-39
0.97258317 2.5703692 -0.33745193 5.4269431e-39
1.0109181 2.5712028 -0.33859721 9.187165e-40
0.94244856 2.5871496 -0.33269075 4.7826457e-39
0.96096742 2.587821 -0.3354173 5.3383362e-39
0.99628365 2.5870633 -0.33749306 7.3540424e-40
0.9636938 2.5925212 -0.33621353 3.3071681e-39
0.98766428 2.5951099 -0.33458871 5.5137451e-40
0.93509161 2.6045516 -0.33135587 4.3198809e-39
0.94563574 2.6023037 -0.33241084 2.8497899e-39
0.96995586 2.6062632 -0.33767253 1.2871361e-39
0.98742008 2.6084263 -0.33603793 6.4320861e-40
1.7659141 2.6058052 -0.33302143 4.4131443e-39
0.90485293 2.6184292 -0.33900535 4.0425695e-39
0.9466145 2.6142063 -0.33581308 1.010552e-39
0.95431143 2.6125457 -0.33406788 5.5101298e-40
0.9628675 2.6160779 -0.33997896 6.4393028e-40
0.99243104 2.6107702 -0.33520448 5.5173465e-40
1.7503568 2.6139901 -0.3304958 4.229832e-39
0.90117496 2.626189 -0.33866227 3.9500067e-39
0.9421103 2.6248455 -0.33513966 1.2860599e-39
0.95417678 2.6241729 -0.33624297 5.5137451e-40
0.99137712 2.6229374 -0.33531713 5.5173465e-40
0.89972609 2.6392353 -0.33884576 3.215327e-39
0.90342778 2.6318922 -0.33914161 4.3169928e-39
0.93396813 2.6392214 -0.33143967 1.6537606e-39
0.94715846 2.634047 -0.33784762 3.6770352e-40
0.95198625 2.6373334 -0.33442557 6.4320861e-40
0.99032331 2.6351047 -0.33542979 4.6025928e-40
0.89287597 2.6462822 -0.33707315 3.9500067e-39
0.90737653 2.6454067 -0.33858296 2.6635909e-39
0.94312268 2.6462252 -0.33258301 2.7622395e-40
0.95314431 2.6471944 -0.33845946 2.7586802e-40
0.8935588 2.6546407 -0.33744302 3.6744988e-39
0.90695006 2.6588502 -0.33866975 2.6632322e-39
0.91594553 2.6575708 -0.33207965 2.7586802e-40
0.93034601 2.653409 -0.33558583 9.219563e-41
0.88558149 2.6626887 -0.33611798 4.2255132e-39
0.89501822 2.6612868 -0.33669114 3.8574594e-39
0.9149195 2.6694646 -0.33223051 5.5173465e-40
0.87838572 2.6772134 -0.33518675 4.5013869e-39
0.88358396 2.6753991 -0.33523741 5.5169653e-39
0.90646613 2.6744022 -0.33477011 1.6533991e-39
0.91754216 2.6724553 -0.3395099 5.5173184e-40
0.87951714 2.6871891 -0.33527303 8.7499276e-39
0.89441389 2.6852436 -0.33843103 8.1045582e-39
0.9044742 2.6840925 -0.33930901 5.1525058e-39
0.91640168 2.6846139 -0.33968532 1.0105492e-39
0.87695116 2.6901307 -0.33536845 7.2755164e-39
0.88223672 2.6915224 -0.33481631 8.1045554e-39
0.89346951 2.6954896 -0.33843502 4.9717159e-39
0.90854782 2.6934438 -0.33803493 2.5757155e-39
0.86900884 2.7011697 -0.3332004 8.5644574e-39
0.87363374 2.7053146 -0.33423662 7.7354142e-39
0.89248443 2.7058053 -0.33852172 3.2218052e-39
0.90741223 2.7055492 -0.33820957 2.6679111e-39
0.85832143 2.7147622 -0.33144557 8.0109304e-39
0.88292432 2.7139266 -0.33713764 4.6036522e-39
0.89624763 2.7170284 -0.33740199 3.9572052e-39
0.85670692 2.7273064 -0.33194476 7.3659114e-39
0.86249137 2.7234435 -0.33811626 7.6442989e-39
0.87050843 2.7211986 -0.33317453 7.6453709e-39
0.88181412 2.7266877 -0.33735973 3.12709e-39
0.89078766 2.7222857 -0.33464146 2.7593837e-39
0.86926579 2.7348161 -0.33342597 5.8861164e-39
0.88488394 2.7332299 -0.33634353 2.6679041e-39
0.85301399 2.7406888 -0.33401051 4.7808548e-39
0.86791301 2.7482486 -0.33465722 4.6969226e-39
0.88153499 2.7440894 -0.33594623 1.5622824e-39
0.84715927 2.753453 -0.33305871 7.827251e-39
0.85898262 2.7539873 -0.33212271 4.8805964e-39
0.87381494 2.7519412 -0.33332521 4.0497624e-39
0.84578407 2.7666948 -0.33322358 7.6432213e-39
0.85848981 2.7636654 -0.33304927 8.1042051e-39
0.86552542 2.7632887 -0.33369225 5.7056908e-39
0.8729313 2.7628522 -0.33167112 2.5757155e-39
0.84208614 2.7773321 -0.33042854 7.6425011e-39
0.86443335 2.7731555 -0.33283374 3.1288865e-39
0.84738481 2.781291 -0.33377856 7.8294048e-39
0.8633256 2.7850866 -0.33304414 3.036688e-39
0.8454572 2.794343 -0.3334727 3.7677833e-39
0.85617673 2.7919612 -0.33315665 8.2759987e-40
0.86292309 2.7946491 -0.33035207 1.6555571e-39
0.82250983 2.8075159 -0.33873305 4.6846865e-39
0.84515905 2.8069878 -0.33108249 4.2255132e-39
0.85518217 2.8034909 -0.33330292 2.7586802e-40
0.8618806 2.800447 -0.33463329 2.4799227e-39
0.84571767 2.8101311 -0.33772552 2.1125765e-39
0.85985291 2.819108 -0.3350721 2.7586802e-40
0.86066574 2.8128333 -0.33494699 1.928907e-39
0.82305729 2.8220413 -0.3392871 4.2255146e-39
0.84449911 2.8228717 -0.33788547 2.1125765e-39
0.85945088 2.8252194 -0.33526066 2.2040519e-39
0.81975895 2.8335025 -0.33899605 4.4088283e-39
0.82376254 2.8369174 -0.33995605 3.8578125e-39
0.83403713 2.8369377 -0.33023489 4.5013841e-39
0.84328067 2.8356128 -0.33804542 2.1129367e-39
0.8582359 2.8376055 -0.33557433 1.8367113e-39
0.81838351 2.8464961 -0.33912757 4.2251545e-39
0.8350181 2.8409727 -0.33132374 3.3067995e-39
0.84307504 2.8467674 -0.33598709 2.1125765e-39
0.85702103 2.8499916 -0.33588803 1.8367113e-39
0.84183979 2.8545673 -0.33677492 2.3884432e-39
0.83870935 2.8650727 -0.33725265 3.7663343e-39
0.84127694 2.866225 -0.33550954 2.4802787e-39
0.85580605 2.8623776 -0.3362017 1.7452346e-39
0.8396855 2.8753874 -0.33324793 3.5815858e-39
0.84770358 2.875586 -0.33978316 3.9496438e-39
0.85459119 2.874764 -0.33651537 1.9289084e-39
0.81425732 2.8854761 -0.33952206 3.7656169e-39
0.83907253 2.8849349 -0.33382195 3.3071583e-39
0.84356868 2.8849928 -0.33987558 2.2044134e-39
0.85337621 2.88715 -0.33682907 1.8381547e-39
0.81288189 2.8984697 -0.33965358 3.9500067e-39
0.83661884 2.8949764 -0.33719102 1.8370701e-39
0.85216135 2.8995361 -0.33714274 1.9285482e-39
0.82802546 2.9046569 -0.33195153 3.3982749e-39
0.83469844 2.9063387 -0.33770475 3.6737814e-39
0.84092164 2.9088793 -0.33982506 2.5721128e-39
0.81150645 2.911463 -0.33978507 4.1336805e-39
0.82637733 2.917161 -0.3315241 3.6741415e-39
0.85094649 2.9119222 -0.33745641 1.561565e-39
0.81013101 2.9244564 -0.33991659 4.3173501e-39
0.82977444 2.9229777 -0.33859724 5.5173465e-40
0.83336151 2.920094 -0.33785546 3.9492879e-39
0.8497315 2.9243083 -0.3377701 1.5619279e-39
0.81959128 2.9302666 -0.33553213 2.5721128e-39
0.82372451 2.9342971 -0.33394343 6.0632979e-39
0.83396798 2.9320464 -0.33482468 3.2146039e-39
0.84851664 2.9366946 -0.33808377 1.6537592e-39
0.8167398 2.9456549 -0.33305338 3.2149626e-39
0.82758445 2.9463243 -0.33893412 4.5953902e-40
0.83254677 2.9448428 -0.33500469 3.3064436e-39
0.84730166 2.9490805 -0.33839744 1.6530389e-39
0.82494038 2.9560149 -0.33667684 2.0207425e-39
0.80980527 2.9666553 -0.33377635 4.041838e-39
0.81360853 2.9635119 -0.33090243 3.4904691e-39
0.8245585 2.9684081 -0.33816552 2.6646643e-39
0.8460868 2.9614668 -0.33871114 1.7452346e-39
0.78773218 2.974962 -0.33611602 3.9500081e-39
0.81231439 2.976588 -0.33113569 3.4904691e-39
0.84487194 2.9738529 -0.33902481 1.8370729e-39
0.77842528 2.9870751 -0.33420956 3.7652609e-39
0.80848229 2.9802663 -0.33392549 3.9500081e-39
0.81370974 2.985539 -0.33621901 2.8476235e-39
0.835949 2.9827857 -0.33728397 1.6530403e-39
0.76813883 2.9989655 -0.33204722 6.5314858e-39
0.78183377 2.9998703 -0.33618996 4.3180718e-39
0.79791427 2.9962494 -0.33192676 4.3169928e-39
0.82320446 2.9930172 -0.33960789 2.7586802e-40
0.8347401 2.9951112 -0.33759612 1.4697267e-39
0.77392536 3.0072458 -0.33619118 6.5361423e-39
0.80383575 3.0051875 -0.33412951 6.1673696e-39
0.83353108 3.0074368 -0.33790827 1.4693721e-39
0.77571446 3.0126832 -0.33446872 7.5477985e-39
0.78973424 3.0121372 -0.33867487 7.4599077e-39
0.81076896 3.013175 -0.33656245 5.3419347e-39
0.83232218 3.0197623 -0.33822042 3.6802582e-39
0.76544243 3.0244372 -0.33230501 6.6294393e-39
0.78852904 3.0253448 -0.33891878 6.8156397e-39
0.79528165 3.0233355 -0.33222353 5.8951085e-39
0.81670552 3.0251579 -0.33466879 4.4156736e-39
0.76409429 3.037173 -0.33243391 4.0465436e-39
0.78274739 3.0356274 -0.33460313 3.7738943e-39
0.79891038 3.030371 -0.33437687 2.8519324e-39
0.80782944 3.0336134 -0.33291584 3.0370468e-39
0.76594806 3.0449667 -0.33361793 4.7855436e-39
0.77045327 3.0468793 -0.33703882 6.5393877e-39
0.80723298 3.0432878 -0.33506471 3.5891416e-39
0.76795709 3.0530956 -0.33491442 7.6417962e-39
0.79431736 3.0541384 -0.33361936 4.5114524e-39
0.80544573 3.0579157 -0.33353129 3.8646522e-39
0.76277548 3.0634079 -0.33431259 3.9561444e-39
0.7821207 3.065995 -0.33051705 3.0352699e-39
0.76725471 3.0779705 -0.3352569 6.4471963e-39
0.7760483 3.0748158 -0.33512068 4.8798776e-39
0.79001629 3.0775073 -0.33281705 5.0653478e-39
0.80425388 3.0700669 -0.33383903 1.6555543e-39
0.76758224 3.0895071 -0.33524624 4.1419552e-39
0.79306114 3.0853403 -0.33506 3.4036741e-39
0.80306202 3.0822179 -0.33414674 2.6682671e-39
0.75632381 3.0927203 -0.33363867 4.6004166e-39
0.78869998 3.0910504 -0.33296543 4.6032935e-39
0.79265743 3.0934479 -0.33292013 2.5749938e-39
0.76470649 3.1038456 -0.33562785 3.3104163e-39
0.75578195 3.1137857 -0.33471102 6.9063723e-39
0.76199353 3.1184509 -0.33612129 6.5379486e-39
0.77654082 3.1152668 -0.33464265 5.6170755e-39
0.75453222 3.1267252 -0.334916 6.3521322e-39
0.77155739 3.1226439 -0.33995745 4.2312824e-39
0.75303566 3.1354055 -0.33391225 4.8791713e-39
0.76904392 3.1319773 -0.33108082 5.0664184e-39
0.77557218 3.1333685 -0.33125523 6.631233e-39
0.75157499 3.1447618 -0.33459967 2.298428e-39
0.7610423 3.1447685 -0.33823442 2.2987769e-39
0.74409896 3.1502559 -0.33154935 2.2065813e-39
0.7539556 3.1567128 -0.33702627 2.6686314e-39
0.76614988 3.1591742 -0.33141881 4.8784272e-39
0.74529696 3.1648152 -0.33841142 4.0486876e-39
0.75061268 3.1645312 -0.33372286 6.9049332e-39
0.76003712 3.1657796 -0.33958176 6.5383199e-39
0.74942231 3.175916 -0.33551738 4.4181918e-39
0.75417781 3.1751132 -0.3382116 2.7601068e-39
0.73899496 3.183778 -0.33306178 2.8523066e-39
0.74007374 3.1882815 -0.33193418 2.1147528e-39
0.75704449 3.1827104 -0.33978254 1.1953034e-39
0.72980332 3.196646 -0.33129191 2.8523066e-39
0.73957795 3.1934795 -0.3356556 2.8526667e-39
0.74271739 3.1913552 -0.3387022 3.6860161e-39
0.75552231 3.1944695 -0.33893353 2.1165324e-39
0.76180887 3.1999693 -0.33192578 5.0646276e-39
0.7286278 3.2095275 -0.3315298 4.6029333e-39
0.73873204 3.2009568 -0.33206248 6.0773474e-39
0.74441278 3.2043819 -0.33806857 5.1575505e-39
0.72956067 3.2117894 -0.33014306 2.9434232e-39
0.74352837 3.2160263 -0.33889872 1.7470408e-39
0.75276238 3.2193198 -0.33928308 2.4835213e-39
0.76036179 3.2135677 -0.33209476 1.749182e-39
0.72830373 3.222296 -0.33208483 5.4326898e-39
0.73913389 3.2217419 -0.33722195 3.4043902e-39
0.72627699 3.2352903 -0.33200553 3.7710231e-39
0.73574162 3.2339211 -0.33698642 3.7738972e-39
0.75138241 3.2317452 -0.33945784 5.1553883e-39
0.7171129 3.2478549 -0.33023009 4.0490435e-39
0.73645973 3.2451665 -0.33795869 4.6958478e-39
0.74327558 3.2412553 -0.33781168 2.4835199e-39
0.73488086 3.254164 -0.33650619 3.2200087e-39
0.74678755 3.2563119 -0.33046657 3.4969459e-39
0.71594298 3.2606757 -0.33046684 6.5404779e-39
0.7260651 3.2633128 -0.33359045 4.141951e-39
0.732853 3.262547 -0.33607692 5.2475839e-39
0.74534786 3.2698421 -0.33063471 3.0341867e-39
0.71477306 3.2734964 -0.33070359 3.2189269e-39
0.72345948 3.2725062 -0.33738327 3.0345384e-39
0.73706591 3.2746735 -0.33895415 2.9452197e-39
0.71405303 3.2858112 -0.33214611 7.4581056e-39
0.72426891 3.2868233 -0.33637884 6.2595722e-39
0.72139657 3.298928 -0.33454049 6.1680983e-39
0.73239899 3.2975152 -0.33986533 6.5386856e-39
0.74246836 3.2969024 -0.330971 5.0653478e-39
0.72021335 3.3000915 -0.33103675 4.5968223e-39
0.71905124 3.3126426 -0.33229858 3.6737884e-39
0.72926944 3.3111508 -0.33817226 3.3060863e-39
0.73503107 3.3154888 -0.33885586 2.9398219e-39
0.74258947 3.3120492 -0.33114776 2.0214599e-39
0.75068516 3.3100998 -0.3300294 5.0624682e-39
0.71381819 3.3250501 -0.33147132 4.0411248e-39
0.72011298 3.3241861 -0.33644274 4.1336791e-39
0.73662293 3.325912 -0.3351686 3.214964e-39
0.7089237 3.3376002 -0.33188733 4.0414849e-39
0.71759015 3.3375678 -0.33407041 4.31699e-39
0.73814905 3.3374929 -0.33147544 3.2156801e-39
0.74569428 3.3338165 -0.33252731 1.2860585e-39
0.73318261 3.3423805 -0.33471036 2.204412e-39
0.70775378 3.350421 -0.33212408 4.3173501e-39
0.71635246 3.3503819 -0.3342734 4.5006624e-39
0.73380911 3.3518143 -0.33551076 3.3986336e-39
