# .PCD v0.7 - Point Cloud Data file format
VERSION 0.7
FIELDS x y z
SIZE 4 4 4
TYPE F F F
COUNT 1 1 1
WIDTH 1388
HEIGHT 1
VIEWPOINT 0 0 0 1 0 0 0
POINTS 1388
DATA ascii
3.0644915 0.30102766 1.1097273
2.9811244 0.24210426 1.1163116
3.2037058 0.31379211 1.1196746
3.204638 0.33782089 1.1191155
3.0980878 0.23162706 1.1244162
3.1541126 0.23072889 1.1207165
2.9619589 0.24927217 1.124274
3.3060813 0.25357464 1.1242467
2.9640946 0.2563163 1.1208054
3.0980759 0.2552534 1.1242911
3.0380905 0.26701272 1.1238568
3.7804298 0.3381449 1.1206647
3.0610003 0.37589666 1.1216182
3.0609889 0.39930904 1.1214042
2.9879959 0.4020772 1.1246246
3.0069437 0.42400974 1.1243808
3.0609775 0.42272139 1.1211903
3.0069325 0.44701067 1.1241707
3.1001546 0.51071823 1.1231099
3.0531776 0.54789639 1.1229311
2.9549999 0.24441274 1.1291648
3.1710107 0.24524981 1.1268228
3.1450007 0.2524581 1.1294919
3.2430594 0.25410038 1.1275229
3.0430548 0.25571427 1.1275109
3.4280419 0.25694567 1.1262212
3.3610015 0.26160422 1.129864
2.9870477 0.26761889 1.1274501
3.1583118 0.28315449 1.1286496
3.0070117 0.28600407 1.1256417
3.3609889 0.2873022 1.1296291
3.4924684 0.29066056 1.1250043
3.1983569 0.29751357 1.1291467
3.0430315 0.30212885 1.1272651
3.1743152 0.301229 1.1256174
3.0070002 0.30900502 1.1254315
3.1583617 0.30720776 1.1286595
2.9549665 0.31222707 1.1285453
3.4528263 0.3143245 1.1279523
3.2928324 0.3171382 1.1256555
3.0430198 0.32533616 1.1271421
2.9384699 0.33418095 1.1296486
3.2937911 0.34184432 1.1250807
3.0430083 0.34854344 1.1270192
3.2339103 0.34747171 1.1289253
2.9549444 0.3574366 1.1281322
3.0069778 0.35500693 1.1250112
3.4279904 0.36177933 1.1252635
3.2348511 0.37172127 1.1283611
2.9549332 0.38004136 1.1279258
2.954922 0.40264612 1.1277193
2.954911 0.42525092 1.1275127
3.1586108 0.42747417 1.128709
3.144906 0.4448767 1.1277339
2.9548998 0.44785568 1.1273062
3.1586607 0.45152742 1.1287189
3.0453908 0.46756124 1.127776
3.608907 0.46518987 1.1286118
2.9548886 0.47046044 1.1270996
3.1587105 0.47558072 1.1287287
2.9548776 0.49306521 1.1268932
3.0607698 0.51169932 1.12923
2.947284 0.52939087 1.1297101
2.9991312 0.5499835 1.1262131
2.9470861 0.55199403 1.1294332
3.6011038 0.55479228 1.1295891
3.114938 0.2389906 1.1307082
3.1830368 0.25460249 1.1309067
3.4030395 0.25282937 1.1313298
2.9496596 0.25815305 1.133033
3.2969615 0.26605585 1.1335191
2.9900222 0.27896208 1.1305293
3.0646884 0.27904627 1.1346331
3.1023004 0.27820235 1.1322572
3.1260014 0.27892098 1.13434
2.9494617 0.28075624 1.1327561
3.8950062 0.28428376 1.130573
2.938159 0.29010797 1.1305747
3.2969491 0.2912662 1.1332887
2.9492636 0.30335936 1.1324792
2.9900107 0.30176556 1.1304084
3.0621603 0.30218825 1.1328028
3.1023493 0.30182898 1.1322669
3.1392679 0.30428648 1.1324983
3.1830125 0.30315036 1.1306496
3.3379886 0.30428386 1.1348743
3.5339496 0.30373186 1.1336045
3.8892865 0.30801344 1.1323637
2.9383144 0.31214428 1.1301116
3.2940583 0.31433874 1.1346576
3.6298115 0.3110348 1.1306175
3.8949916 0.31405014 1.1303011
2.9490657 0.32596251 1.1322023
3.0622787 0.32528836 1.1323583
3.0889275 0.32765955 1.1323252
3.1259775 0.32660031 1.1340874
3.1830003 0.32742432 1.1305209
3.337976 0.32973874 1.1347395
2.8904243 0.33380318 1.1328984
3.5339363 0.33074787 1.1333576
3.8890257 0.3377777 1.131999
3.2969244 0.34168699 1.1328281
2.9488678 0.3485657 1.1319253
3.0858414 0.35462636 1.1337898
3.1259656 0.35043997 1.1339612
3.177006 0.35248125 1.1329309
2.8905771 0.35547411 1.1324431
3.1852264 0.35511741 1.1347195
3.5339231 0.35776389 1.1331109
3.2026281 0.36183894 1.1342455
3.0126562 0.36938262 1.1347241
3.9489851 0.36886936 1.1318122
2.9486697 0.37116882 1.1316484
3.822494 0.370965 1.133131
2.8907299 0.37714493 1.1319877
3.0338721 0.37705916 1.1349152
3.2968996 0.39210773 1.1323675
2.8908827 0.39881575 1.1315323
3.102545 0.39633542 1.1323057
3.0338607 0.40026581 1.1347032
3.1788542 0.40011239 1.1318227
3.1025941 0.41996208 1.1323155
3.5272346 0.42203805 1.1348792
3.1238449 0.42799544 1.1347885
3.3279684 0.42647362 1.1336018
3.0074711 0.43288827 1.1338172
3.20048 0.43063593 1.1338607
3.4029484 0.43448013 1.1303675
3.102643 0.44358867 1.1323252
3.2338419 0.44354552 1.1349692
3.0888696 0.44578794 1.131246
3.1247523 0.4513849 1.1342443
3.2005579 0.45490634 1.1334362
3.0338266 0.46988574 1.1340671
3.0888579 0.46941361 1.1310301
3.1026921 0.4672153 1.1323349
3.2338297 0.4682759 1.1347432
2.945442 0.47333121 1.134847
2.9944203 0.47056985 1.1313131
3.1816261 0.47155929 1.1301603
3.2006361 0.47917676 1.1330116
3.2896347 0.48866093 1.134095
3.0338151 0.49309239 1.1338551
3.0888462 0.49303928 1.1308142
3.102741 0.49084193 1.1323447
3.2338176 0.49300629 1.1345173
3.29685 0.49294922 1.1314461
2.9462965 0.4953506 1.1343347
3.0076911 0.50128883 1.1326207
3.2894139 0.51386952 1.1337862
2.9471507 0.51736999 1.1338224
3.0338037 0.51629907 1.133643
3.0888345 0.51666498 1.1305984
3.2338054 0.51773667 1.1342914
3.2968378 0.51815963 1.1312158
3.0077646 0.5240891 1.1322218
3.0813186 0.52333546 1.1334442
3.1274748 0.52155304 1.1326118
3.3108089 0.52349257 1.1326575
3.0337923 0.53950572 1.1334311
3.5930245 0.55879736 1.1325637
3.0700049 0.23213643 1.1376525
3.2472236 0.24155672 1.1357137
3.0287082 0.24741766 1.1399732
3.7392399 0.24907377 1.1369518
3.0068839 0.25048661 1.137008
3.5800169 0.25142393 1.1356615
2.9367943 0.25548196 1.1371239
3.0339293 0.26102591 1.1359752
3.0835946 0.26347157 1.1366278
3.187264 0.26143965 1.1390066
3.1999331 0.26074278 1.1368326
3.3358305 0.26168185 1.1383337
2.9558928 0.26707226 1.139889
2.9808962 0.26511532 1.138905
3.2285261 0.26949012 1.1399746
3.0285048 0.27062264 1.1396888
3.173892 0.27460364 1.1397018
3.233927 0.27043277 1.1365508
2.9368517 0.27789402 1.1367475
3.0120187 0.27898192 1.1366239
3.2739804 0.27887464 1.1381838
3.3380015 0.27882898 1.1350092
3.4073007 0.279212 1.1398007
3.5069795 0.27877432 1.1390704
3.580003 0.27872261 1.1355168
3.4629223 0.28110969 1.1375002
2.9559648 0.28948396 1.1394969
2.980885 0.28791821 1.1386968
3.1460686 0.28963888 1.1395894
3.7259188 0.29344642 1.13836
3.0070307 0.29608709 1.1362103
3.1738801 0.29887688 1.1394801
3.4629092 0.30758476 1.1372583
3.5799894 0.30602127 1.1353722
2.956037 0.31189567 1.139105
3.0831809 0.31071955 1.1360489
3.1462352 0.31325972 1.139093
3.2022889 0.31374407 1.1352562
3.5281808 0.31398168 1.1362031
3.0071039 0.31888723 1.1358114
3.0280986 0.31703267 1.1391203
3.2280929 0.3189474 1.1393688
3.803179 0.3159118 1.1365665
3.4570856 0.32104668 1.139944
3.1749752 0.32590783 1.1363716
3.2739551 0.32880914 1.1379193
2.9561093 0.33430731 1.1387129
2.9808626 0.33352393 1.13828
3.033895 0.33064586 1.1353393
3.1874146 0.33426237 1.1390365
3.4628961 0.33405986 1.1370164
3.5069525 0.33225927 1.138787
3.5799756 0.33331993 1.1352276
3.5971434 0.33227736 1.1398166
3.7394171 0.3345136 1.136987
3.1464019 0.33688056 1.1385968
3.8609731 0.33748013 1.1361465
3.0278952 0.34023762 1.138836
3.2474287 0.34048223 1.1357545
2.962446 0.34598243 1.1386192
3.0124969 0.34678245 1.1351991
3.1431682 0.34948736 1.1389149
3.1738563 0.34742343 1.1390365
3.8029242 0.34502086 1.13621
3.2739427 0.3537764 1.137787
3.7258909 0.35040402 1.1378397
2.9561813 0.35671902 1.1383208
3.0276921 0.36344263 1.1385517
3.0672333 0.36296928 1.1398003
3.2907386 0.36261806 1.1356391
3.579962 0.36061859 1.135083
3.2276597 0.36840463 1.1387628
3.2474799 0.36521363 1.1357646
3.8609583 0.3669197 1.1359906
3.0699344 0.37261444 1.1369083
3.143245 0.37332362 1.1384979
3.1758871 0.37399679 1.1355958
2.9562535 0.37913072 1.1379288
3.7258768 0.37888286 1.1375794
3.0274887 0.38664761 1.1382675
3.0681248 0.3859477 1.1392657
3.2905178 0.38782665 1.1353303
3.3938348 0.38917452 1.1397924
2.9627595 0.39042091 1.1376854
3.227443 0.39313325 1.1384599
3.5274711 0.39502388 1.1352102
3.1229374 0.40460587 1.1353327
2.942879 0.40727305 1.136384
3.1875656 0.40708509 1.1390666
3.7193298 0.40896186 1.1393273
3.725863 0.40736166 1.1373192
2.9629161 0.41264033 1.1372185
3.290297 0.41303521 1.1350214
3.2272265 0.41786188 1.1381569
2.9563978 0.42395413 1.1371447
3.1738203 0.42024326 1.1383712
3.0920084 0.42920101 1.1399989
3.273905 0.42867821 1.1373903
3.4561582 0.42693943 1.1386467
2.963073 0.43485951 1.1367515
3.0270822 0.43305761 1.1376989
3.0699079 0.43190444 1.1381965
3.4628441 0.43996021 1.1360489
3.7190804 0.43743861 1.1389784
3.22701 0.44259053 1.137854
3.3554823 0.44317812 1.1376761
3.3938093 0.4410733 1.1393182
2.95647 0.44636583 1.1367526
2.9445877 0.45131183 1.1353594
3.0921719 0.45240295 1.1395113
3.4559262 0.45341262 1.1383224
2.9632297 0.45707893 1.1362847
3.0268791 0.45626259 1.1374146
3.0476742 0.45899945 1.1354607
3.1737964 0.46878979 1.1379278
3.2267933 0.46731913 1.1375511
3.3937964 0.46702272 1.1390812
3.462831 0.46643528 1.135807
3.7188311 0.46591538 1.1386296
2.8974774 0.47631097 1.1380206
3.0266759 0.47946757 1.1371304
3.071691 0.47786117 1.1371272
3.4556944 0.47988582 1.1379981
3.0875509 0.48218161 1.1397295
3.0158575 0.48601669 1.1392761
2.9566143 0.49118918 1.1359686
3.1436286 0.49250472 1.1364131
3.1737845 0.49306306 1.1377059
3.2265768 0.49204773 1.137248
3.3937838 0.49297211 1.1388441
2.8983176 0.4979651 1.1375169
2.9154737 0.49803555 1.138849
3.0264726 0.50267255 1.1368461
3.0725825 0.50083959 1.1365925
3.1877668 0.50418198 1.1391065
2.9734211 0.50552648 1.1398816
3.015846 0.5090183 1.1391543
3.4554625 0.50635898 1.1376737
2.9566865 0.51360089 1.1355765
2.8991578 0.51961911 1.137013
2.980773 0.51594675 1.1366135
3.2263601 0.51677638 1.1369451
3.3937709 0.51892149 1.138607
3.462805 0.51938546 1.1353233
3.0262694 0.52587754 1.1365618
3.2118161 0.53062105 1.1386878
3.4552307 0.53283221 1.1373494
2.9807618 0.53874964 1.1364051
3.1660948 0.54381955 1.13992
3.1737607 0.54160959 1.1372625
3.2261436 0.54150498 1.1366422
3.3937583 0.54487085 1.1383699
3.0743656 0.54679656 1.1355232
3.2738426 0.5535146 1.1367289
3.2114875 0.55743289 1.1398264
3.4549987 0.55930537 1.1370251
3.1658823 0.56809103 1.1396226
3.2259271 0.56623363 1.1363392
3.3937454 0.57082027 1.1381329
3.6467409 0.57649928 1.1395012
3.0159845 0.23299932 1.1406164
3.1302037 0.23299357 1.1424606
3.0677352 0.24755824 1.1410068
3.0867972 0.24808532 1.1438246
3.342236 0.24850422 1.143495
3.1168673 0.25473011 1.143258
3.1428611 0.25414246 1.1405828
2.9137783 0.25764513 1.1439005
2.9618192 0.25710523 1.1404868
3.1302531 0.25683355 1.1424704
3.2908413 0.25841892 1.1441642
3.0137212 0.26013911 1.1437721
3.201561 0.26630485 1.1448377
3.6468916 0.26985309 1.1423028
3.0636673 0.2710557 1.1419389
3.5238914 0.27022511 1.1445488
2.9139326 0.2794987 1.1434413
3.1168556 0.2785691 1.1430402
3.1684332 0.27683264 1.1431909
3.2129586 0.2789194 1.1414502
3.4369566 0.27882406 1.1425104
3.5048387 0.27987313 1.1420641
3.6949532 0.27871501 1.1438719
3.2909217 0.28338259 1.1437275
3.7738636 0.28529173 1.143055
3.2024932 0.29033363 1.1442786
3.4573174 0.29457349 1.1402683
3.646878 0.29773003 1.1420481
3.7203274 0.29505476 1.1407228
2.9140866 0.30135238 1.1429821
3.1168437 0.3024081 1.1428224
3.1539266 0.3030152 1.1443866
3.3882225 0.30196136 1.1435919
3.6412244 0.30291116 1.1445078
3.291002 0.30834633 1.1432909
3.4369435 0.30503324 1.1423715
3.6949391 0.30688986 1.1437227
3.393873 0.31132635 1.1405036
3.7739372 0.31407994 1.1425714
3.3423944 0.32486984 1.1435264
3.5240636 0.32370234 1.1436132
3.0159383 0.32500565 1.1401291
3.1680081 0.32537574 1.1425961
3.2913089 0.32669449 1.1417221
3.3879952 0.32790887 1.1432741
3.6468642 0.32560694 1.1417934
3.6604011 0.32752812 1.1408373
3.4202404 0.33055925 1.1426148
3.4369304 0.33124238 1.1422328
3.0663419 0.33999085 1.140335
3.0913539 0.33639336 1.1419492
3.3938603 0.33727574 1.1402665
3.6949251 0.33506468 1.1435734
3.0870988 0.34172386 1.1421865
3.9398551 0.34220088 1.143115
3.0151942 0.34664363 1.141824
3.1677954 0.34964725 1.1422988
3.5844426 0.34810692 1.1444533
3.1304507 0.35219333 1.1425096
3.2914832 0.35141981 1.1412026
3.342447 0.35032502 1.1435368
3.387768 0.35385644 1.1429561
3.5241497 0.35044098 1.1431456
3.0331056 0.3572228 1.1449525
3.4369171 0.35745153 1.1420939
3.6437933 0.35607246 1.1426818
3.660459 0.35540614 1.1408488
2.9619389 0.36266488 1.144976
3.3938475 0.36322513 1.1400294
3.9336994 0.36428031 1.1446584
3.0153377 0.36786258 1.1431154
3.0871742 0.36513346 1.141777
3.3288093 0.36576408 1.1436096
3.167583 0.3739188 1.1420014
3.9398403 0.3723101 1.1428399
3.1305003 0.37603328 1.1425195
3.1538904 0.37517419 1.1440045
3.2129095 0.37692943 1.140931
3.0331795 0.38022101 1.1445502
3.436904 0.38366067 1.141955
3.5707989 0.38374373 1.1447484
3.0872495 0.38854307 1.1413676
3.640492 0.386536 1.1434833
2.9744196 0.39152032 1.1412783
3.0162139 0.39044511 1.1425899
3.6948967 0.39141437 1.1432749
3.9334357 0.39438739 1.1442896
3.1538782 0.39922717 1.143877
3.1673703 0.39819032 1.1417041
3.0360212 0.40375116 1.1439637
2.9620545 0.40786976 1.1442168
3.0918448 0.40599906 1.1404865
3.2913234 0.40820098 1.1415441
3.4368908 0.40986985 1.1418163
3.8714976 0.40588927 1.1434565
2.9148571 0.41062081 1.1406859
2.9742198 0.41432154 1.140999
3.2071548 0.4104774 1.1414833
3.5707855 0.41104162 1.1444991
3.6402478 0.41441095 1.1431417
3.3287842 0.41667241 1.1431445
3.1538663 0.42328018 1.1437496
3.1671576 0.42246184 1.1414068
3.933172 0.42449448 1.1439208
3.0389497 0.42708135 1.1433004
3.1100895 0.42683604 1.144839
3.2128849 0.42593449 1.1406714
2.9150114 0.43247461 1.1402267
2.9621124 0.43047225 1.1438371
3.208087 0.43450618 1.1409242
3.2914038 0.43316466 1.1411074
3.5846124 0.43000391 1.1444869
2.97402 0.43712276 1.1407195
3.5707722 0.43833953 1.1442497
3.6468093 0.43711466 1.1407747
3.3287718 0.4421266 1.1429119
3.6400037 0.44228584 1.1428003
3.0362563 0.44954765 1.1430824
3.1538541 0.44733319 1.1436222
3.1669452 0.44673342 1.1411093
2.9621704 0.45307472 1.1434574
3.1098807 0.45067334 1.144547
3.2120547 0.45493633 1.1410069
3.4352217 0.45074311 1.1426448
2.9738204 0.45992398 1.1404402
3.0874755 0.45877194 1.140139
3.2914841 0.45812833 1.1406708
3.3698437 0.45876303 1.1449524
3.3868589 0.45764661 1.1416847
3.5846689 0.4573029 1.1444981
3.4368646 0.46228814 1.1415385
3.152627 0.46511275 1.1442567
3.5707586 0.46563745 1.1440003
3.0334756 0.4722141 1.142941
3.1096718 0.47451064 1.1442549
3.1667325 0.47100493 1.140812
3.6397595 0.47016078 1.1424588
2.9622283 0.47567719 1.1430777
3.3427107 0.4776009 1.1435893
2.9736207 0.4827252 1.1401609
3.0197186 0.48077571 1.1404883
3.3866317 0.48359412 1.1413667
3.9326446 0.48470861 1.1431831
3.5707452 0.49293536 1.1437509
3.6467819 0.49286851 1.1402653
3.6607478 0.49479628 1.1409061
3.9397812 0.49274698 1.1417396
2.9622862 0.49827963 1.142698
3.0394323 0.49547589 1.1418632
3.1094632 0.49834794 1.1439629
3.1665199 0.49527645 1.1405147
3.2128479 0.49944198 1.140282
3.6395154 0.49803573 1.1421173
3.3427634 0.50305611 1.1435997
3.3864043 0.50954163 1.1410489
2.9885244 0.51459861 1.144679
3.9323809 0.51481569 1.1428143
3.1307967 0.51907301 1.1425782
3.1663074 0.519548 1.1402173
2.9623442 0.52088207 1.1423185
3.5707319 0.52023327 1.1435015
3.6467683 0.52074546 1.1400106
2.9714622 0.52787745 1.1427966
3.6392713 0.52591068 1.1417758
2.981621 0.53036362 1.1449081
3.1557891 0.53234935 1.1424756
3.3211229 0.53799844 1.1444303
3.3683918 0.5378195 1.1445875
3.1167266 0.54079813 1.1406444
3.2646909 0.54302466 1.1449546
3.5707183 0.54753119 1.1432521
3.3209 0.56345075 1.1441184
3.3859499 0.56143671 1.140413
3.1088369 0.56985986 1.1430868
3.4368119 0.56712472 1.1409832
3.638783 0.58166051 1.1410928
3.0741944 0.2288951 1.1454285
3.1447999 0.24911904 1.1490656
3.5708661 0.24725418 1.1459955
3.0742428 0.25230837 1.1454382
3.4538176 0.26303726 1.1482037
3.0328095 0.2652297 1.1465617
3.2782772 0.26878798 1.1465696
3.4347517 0.26730287 1.1457261
3.1457157 0.27272141 1.1485164
3.5708525 0.27455211 1.1457461
3.0742915 0.27572164 1.1454479
3.1517191 0.27628493 1.147622
3.2298515 0.27639019 1.1471943
3.7118676 0.27573723 1.1490155
3.9039249 0.27864867 1.1491345
3.1113422 0.28381222 1.1465912
3.3233521 0.28347489 1.1475484
3.3677332 0.28086603 1.1489037
3.3859656 0.2891854 1.1499225
3.4524608 0.28925878 1.1468534
3.8518417 0.28675157 1.1475002
2.9617651 0.2948575 1.1461151
3.0379851 0.29029191 1.1461749
3.0552559 0.29066411 1.1494968
3.2648137 0.29335889 1.1472355
3.2783289 0.29375556 1.1465799
3.434819 0.29350865 1.145286
3.0743399 0.29913494 1.1454575
3.1466315 0.29632401 1.1479672
3.2299304 0.30088913 1.1467657
3.3058991 0.30413026 1.1491901
3.5922101 0.30137372 1.1464722
3.7803614 0.30934072 1.1494454
3.9039099 0.30841589 1.1489768
3.0381458 0.31309021 1.1456958
2.961823 0.31745994 1.1457354
3.1475472 0.31992662 1.1474181
3.1709404 0.31782001 1.1496086
3.2648015 0.31832546 1.1470075
3.2783806 0.31872308 1.1465901
3.8518271 0.31619033 1.1472312
3.9092088 0.31729603 1.1496444
3.0743885 0.32254824 1.145467
3.230634 0.3258386 1.1457925
3.5932572 0.32836318 1.1458442
3.6929142 0.32800192 1.1460291
3.0330315 0.33422452 1.1453549
3.1109245 0.33148688 1.1460072
3.3229063 0.33437961 1.1469249
3.7120488 0.33207881 1.1480299
3.3563585 0.33626342 1.1465293
3.5648868 0.33776399 1.1477152
2.9618809 0.34006244 1.1453557
3.148463 0.34352911 1.1468689
3.2588234 0.34074366 1.149936
3.2647891 0.343292 1.1467793
3.0744369 0.34596148 1.1454767
3.1743734 0.34940016 1.1484487
2.9874179 0.35773027 1.1479753
3.0936995 0.35947353 1.1454873
3.3698955 0.3559683 1.145497
3.5234139 0.36100078 1.1491637
3.7121396 0.36024958 1.1475372
3.0744855 0.36937478 1.1454864
3.1493788 0.36713159 1.1463197
3.2647769 0.3682586 1.1465513
3.2944615 0.36713696 1.1492286
3.3865042 0.36553228 1.1483182
3.5646477 0.36505994 1.1473808
3.6159604 0.3688246 1.1490709
3.7804806 0.36692539 1.149469
2.9654322 0.37246311 1.1464127
3.1745415 0.37323427 1.1479478
3.8456044 0.37101731 1.1486261
3.110507 0.37916145 1.1454231
3.305861 0.37976348 1.1487895
3.8517981 0.37506786 1.1466933
3.095942 0.38297498 1.1491162
3.3871593 0.38453186 1.1495588
3.1711726 0.38996863 1.1483465
3.2175195 0.3863728 1.1497813
3.3583128 0.38663483 1.1453573
3.4977629 0.38603228 1.1480414
3.5244403 0.38744998 1.1485484
3.6178734 0.3891221 1.1470028
2.9811845 0.39475077 1.1472803
3.0745339 0.39278805 1.145496
3.2647645 0.39322519 1.1463231
3.2954202 0.39184308 1.1486537
3.3866837 0.39098132 1.1477834
3.511538 0.39458153 1.1479025
3.0966222 0.39624268 1.1480863
3.1747096 0.39706838 1.147447
3.2037313 0.39514023 1.1493715
3.2302458 0.39888507 1.1450514
3.7805402 0.39571768 1.1494809
3.1102982 0.40299875 1.145131
3.3058484 0.40497452 1.1486559
3.8453467 0.40045395 1.1482655
3.8517838 0.40450662 1.1464244
3.0542307 0.40771753 1.1480628
3.1712501 0.41401815 1.1479259
3.3872421 0.41022682 1.1491092
3.4977498 0.41277403 1.1477971
2.9671552 0.41686714 1.1453795
3.0745826 0.41620135 1.1455057
3.2647524 0.41819176 1.146095
3.2963786 0.41654921 1.1480789
3.3040364 0.41986382 1.1499972
2.9192097 0.42039919 1.1487234
3.0978458 0.42076278 1.1470408
3.1748776 0.42090261 1.1469462
3.4543238 0.42026955 1.1454532
3.5115933 0.42132431 1.1479136
3.7806001 0.42450997 1.1494927
3.8450887 0.42989063 1.1479049
3.3698566 0.43306434 1.1450886
3.074631 0.43961465 1.1455153
3.1713274 0.43806773 1.1475052
3.3220146 0.436189 1.1456776
2.9200571 0.44223595 1.1482152
2.9389894 0.44482827 1.1493685
3.0428171 0.44149548 1.1497343
3.0978339 0.4443891 1.1469157
3.1750457 0.44473672 1.1464453
3.2973373 0.44125545 1.1475041
3.6178458 0.44429848 1.1467105
3.304101 0.44507167 1.1495738
3.5116489 0.44806713 1.1479245
3.5639305 0.44694781 1.1463776
3.0961235 0.45384482 1.1479257
3.6161723 0.45157835 1.1476809
3.7806597 0.45330232 1.1495045
3.3058231 0.45539668 1.1483889
3.0428054 0.46470279 1.1496114
3.324569 0.46454024 1.1458668
3.6354091 0.46098733 1.1495888
3.8517547 0.46338418 1.1458864
2.9391448 0.46686471 1.1489055
2.9848056 0.46616817 1.1458575
3.097822 0.46801546 1.1467905
3.1191509 0.46572685 1.149191
3.1733093 0.46534401 1.1465144
3.2982957 0.46596158 1.1469293
3.5275187 0.46679735 1.1467022
3.5428123 0.46793741 1.1497781
3.3041656 0.47027946 1.1491504
3.5117042 0.47480991 1.1479355
3.5636914 0.47424376 1.1460432
3.6178319 0.47188663 1.1465644
3.9022291 0.47090808 1.1488603
3.096184 0.47746804 1.147529
3.3058105 0.48060775 1.1482552
3.7807193 0.48209465 1.1495165
3.074728 0.48644122 1.1455345
3.1193159 0.48913443 1.1486992
3.5563514 0.4896214 1.1494051
3.8445733 0.48876393 1.1471835
2.9883664 0.49218881 1.1451498
3.0978103 0.49164176 1.1466653
3.1753819 0.49240494 1.1454436
3.2392726 0.49354446 1.1498059
3.2787428 0.49349606 1.1466621
3.4977105 0.49299926 1.1470641
3.5427988 0.49495417 1.1496351
3.8517404 0.49282295 1.1456175
3.4595649 0.49640751 1.1496716
3.6178181 0.49947482 1.1464183
3.0962446 0.50109136 1.1471322
3.5117595 0.50155264 1.1479465
3.5634522 0.50153971 1.1457088
3.7125928 0.50110346 1.1450733
3.0412219 0.5092926 1.149806
3.0747766 0.5098545 1.1455442
3.3057978 0.50581884 1.1481217
3.0468929 0.51366305 1.1495118
3.0988412 0.51326829 1.1464248
3.3235085 0.51432168 1.1485058
3.2036712 0.51764941 1.1482522
3.2787945 0.51846373 1.1466724
3.6355865 0.51615578 1.1486237
3.8443153 0.51820064 1.1468229
3.1155534 0.52287996 1.1493706
3.3042946 0.52069509 1.1483035
3.4605708 0.5223316 1.1490684
3.7666895 0.52168483 1.1488086
2.9234459 0.52958274 1.1461829
3.5632133 0.52883565 1.1453744
3.6163845 0.53433216 1.1462908
3.0452738 0.53538412 1.1491121
3.0977864 0.53889447 1.146415
3.6356754 0.54374003 1.1481413
3.4976842 0.54648274 1.1465755
3.8440576 0.54763728 1.1464623
2.9242933 0.5514195 1.1456748
3.7666755 0.55047601 1.1485456
3.8517113 0.55170047 1.1450796
3.1016834 0.55763626 1.1452307
3.6164551 0.56191677 1.1458275
3.2036471 0.56665307 1.1478046
3.0527954 0.57159227 1.1460552
3.8437998 0.57707393 1.1461017
2.980675 0.23653573 1.1500479
3.3035841 0.24340934 1.1529611
2.9306867 0.2531749 1.1527339
3.5429208 0.25180331 1.1509231
3.3867457 0.2560569 1.1518061
3.4412489 0.25574449 1.151167
3.0956392 0.26485872 1.1511003
3.321748 0.26470673 1.1537511
3.1707854 0.26972103 1.15045
3.3036487 0.26861715 1.1525378
3.6347873 0.2678979 1.1529665
3.0406272 0.27724987 1.1537037
3.3742909 0.27654004 1.1544572
3.5548427 0.27573097 1.1538998
3.8178997 0.27870736 1.152894
3.3868284 0.28175187 1.1513567
3.9208419 0.28193867 1.1539053
3.0956998 0.28848195 1.1507034
3.321924 0.28966832 1.1532266
3.4515185 0.28901577 1.1544969
3.1708629 0.29377055 1.1500293
3.3037133 0.29382497 1.1521144
3.6348763 0.29548216 1.1524839
3.0406868 0.3004542 1.153314
3.0917888 0.30261326 1.1511643
3.3743443 0.30223906 1.1544678
3.5418134 0.30296877 1.1520331
3.5550313 0.30246723 1.153338
3.6993465 0.30279568 1.1529847
3.7053304 0.30460668 1.1541682
3.2407012 0.30657178 1.1547087
3.3869112 0.3074469 1.1509072
3.4413574 0.30816343 1.1511886
3.8178849 0.30781931 1.1527398
3.9209378 0.31170154 1.1533847
3.3037779 0.31903273 1.151691
3.7610192 0.31994277 1.1528724
3.0407462 0.32365847 1.1529242
3.3229175 0.32483906 1.1541029
3.7667887 0.32014656 1.1506499
3.1584044 0.33125111 1.1527226
3.8168468 0.33657327 1.1537405
3.3038425 0.34424055 1.1512675
3.4535301 0.34086382 1.1532906
3.4917977 0.34446603 1.1510893
3.0408058 0.34686273 1.1525344
3.760767 0.34873191 1.1525197
3.6350539 0.35065049 1.1515189
3.5418692 0.35699877 1.1514363
3.3224521 0.36455274 1.1516531
3.4414661 0.36058235 1.1512102
3.3039072 0.3694483 1.1508441
3.454536 0.36678779 1.1526874
3.5600641 0.36873245 1.1544907
3.8168769 0.36568332 1.1534189
3.0428522 0.37187362 1.1501031
3.1184905 0.37209666 1.1511586
3.4915633 0.37120584 1.1507617
3.3230798 0.37525398 1.153221
3.3745041 0.37933603 1.1544995
3.4214818 0.37709957 1.1540359
3.6351426 0.37823474 1.1510364
3.760515 0.37752098 1.1521671
2.9878485 0.38039327 1.1547168
3.2408912 0.38075536 1.1534626
3.5409408 0.38114041 1.1520683
3.6857231 0.38026589 1.1535137
3.2615707 0.38788044 1.1545626
3.3226283 0.38951421 1.1511285
3.4415205 0.38679183 1.1512209
3.6995218 0.38732123 1.1530195
3.3039718 0.39465606 1.1504207
3.4555418 0.39271176 1.1520842
3.8159728 0.39443159 1.1539176
3.0416989 0.39651594 1.1519585
3.4913292 0.3979457 1.1504341
3.5601511 0.39574528 1.1540183
3.1151733 0.40476531 1.1514367
3.2418928 0.4040505 1.1522574
3.4212523 0.40330613 1.1537149
3.9212253 0.40099025 1.1518227
3.3745573 0.40503505 1.1545101
3.4857216 0.40730619 1.1547277
3.5410099 0.40815359 1.1516145
3.6857092 0.40843993 1.1532563
3.2617433 0.41237724 1.1540478
3.3228042 0.41447568 1.150604
3.4277153 0.41443551 1.1509919
3.4415746 0.41300127 1.1512318
3.0409842 0.41647547 1.151365
3.4565475 0.41863561 1.151481
3.4699848 0.41927767 1.15482
3.0433574 0.42254102 1.151632
3.1152494 0.42838818 1.1510235
3.4210227 0.42951268 1.1533939
3.2410181 0.43021107 1.152632
3.9213209 0.43075323 1.1513021
3.0410435 0.4396798 1.1509753
3.2619162 0.43687415 1.1535331
3.4416289 0.43921074 1.1512425
3.541079 0.4351669 1.1511607
3.5559742 0.43614876 1.1505288
3.4575534 0.44455969 1.1508778
3.5603249 0.44977105 1.1530732
3.4860911 0.45971227 1.1536264
3.0411031 0.4628841 1.1505855
3.0650897 0.46297169 1.152335
3.262089 0.46137094 1.1530184
3.5411484 0.46218011 1.150707
3.8251686 0.46104085 1.1505435
3.9214168 0.4605161 1.1507814
3.2383318 0.46929491 1.1503701
3.4416833 0.46542022 1.1512533
3.1827762 0.47319648 1.1540228
3.4585593 0.47048366 1.1502748
3.4701204 0.47222248 1.1539307
3.699697 0.47184676 1.1530542
3.7118137 0.47170424 1.1502804
3.2419691 0.47823888 1.1514378
3.3265085 0.47651684 1.1544287
3.0411625 0.48608837 1.1501958
3.1811216 0.48861158 1.1545894
3.5412176 0.48919335 1.1502533
3.0460091 0.49088264 1.1500418
3.2604084 0.49031484 1.1540873
3.4417377 0.49162966 1.1512641
3.4717784 0.49067652 1.1530395
3.7595062 0.49267745 1.1507562
3.1827641 0.49747044 1.1538942
3.394558 0.4988842 1.1535741
3.2412081 0.50439465 1.1513859
3.560499 0.50379676 1.1521281
3.0654142 0.5089643 1.1513686
3.8355083 0.50642884 1.1538471
3.1811838 0.51288235 1.1541817
3.4864607 0.51211846 1.1525252
3.744489 0.51400137 1.1532863
3.8162711 0.51086432 1.1519618
3.260488 0.5150423 1.1536548
3.4717653 0.51715231 1.1528991
3.1827519 0.52174437 1.1537657
3.7558808 0.52173871 1.1537313
3.985641 0.52330744 1.1548219
3.0135081 0.52806056 1.1539989
3.2420201 0.5276978 1.1508914
3.6998136 0.52819705 1.1530775
3.2035346 0.53067815 1.1547545
3.4201047 0.53433889 1.1521096
3.5605857 0.53080964 1.1516556
2.9882574 0.53999692 1.152036
2.9967656 0.53827834 1.1521577
3.4866455 0.53832161 1.1519746
3.18343 0.54479492 1.1529833
3.3606181 0.54451662 1.1529782
3.4717519 0.54362822 1.152759
3.7446876 0.54216969 1.1526943
3.6856399 0.54931027 1.1519693
3.7333148 0.54917336 1.1547102
3.470324 0.55163962 1.1525967
2.9486027 0.56193137 1.1548319
3.0885866 0.56413203 1.1537913
3.4868302 0.56452465 1.1514239
3.144618 0.56535792 1.1506864
3.3606055 0.57021457 1.1527435
3.1804998 0.24590379 1.1586663
3.6273773 0.2571398 1.159176
3.4505126 0.26309204 1.1551001
3.5472627 0.26349661 1.1596196
3.6222754 0.2689853 1.156556
3.4224 0.27227336 1.1553202
3.8347585 0.2735666 1.1579206
3.5598032 0.2876938 1.1559083
3.7428997 0.2886548 1.1580217
3.180624 0.29444534 1.1578509
3.5473187 0.29051366 1.1596308
3.7326581 0.29289019 1.1590151
3.4006321 0.30034971 1.159809
3.8348522 0.30267441 1.1574113
3.9102874 0.30054104 1.1584924
3.4888139 0.30644029 1.1590523
3.4697134 0.31338817 1.1565987
3.1806862 0.31871605 1.1574432
3.5473747 0.31753075 1.1596419
3.7430983 0.31682312 1.1574298
3.6223898 0.32416233 1.1565788
3.4181154 0.32811177 1.159933
3.485167 0.32869685 1.1563796
3.6799219 0.32737607 1.1563523
3.488899 0.33291227 1.1585891
3.8349462 0.33178216 1.1569022
3.4697814 0.33986062 1.156154
3.6305516 0.33895326 1.1572725
3.1807485 0.34298688 1.1570355
3.2599308 0.34194976 1.1566827
3.5474305 0.34454787 1.1596529
3.8946939 0.34408829 1.1597941
3.3886383 0.34630883 1.157124
3.7328041 0.34984201 1.1580584
3.4871681 0.35714212 1.1569775
3.734834 0.36420143 1.1558204
3.1808107 0.36725771 1.1566279
3.260704 0.36503038 1.1556637
3.4698491 0.36633295 1.1557093
3.5474865 0.37156492 1.159664
3.4008317 0.37818992 1.1585015
3.622504 0.37933937 1.1566014
3.732877 0.37831789 1.1575801
3.7520492 0.37963331 1.15955
3.4873033 0.38347965 1.1564707
2.9417679 0.38577628 1.1589305
3.1808729 0.39152843 1.1562202
3.4699171 0.39280534 1.1552646
3.6326678 0.39349556 1.1560035
3.3105402 0.39742538 1.1578171
3.5597618 0.39865875 1.1595978
3.6666255 0.39907825 1.1595851
3.1238506 0.40176868 1.1591846
3.401849 0.40640199 1.1572602
3.418659 0.40518999 1.1583133
3.6225612 0.40692788 1.1566128
3.73295 0.40679383 1.1571018
3.752141 0.40810877 1.1590518
3.9085655 0.40898004 1.1586452
3.1809351 0.41579926 1.1558125
3.6557844 0.41820467 1.1589196
3.9148517 0.4181807 1.1557553
3.7348053 0.42116064 1.1555187
3.1239116 0.4256053 1.1587843
3.5607982 0.42537427 1.1589762
3.7438929 0.42949629 1.1550621
3.4188402 0.43088269 1.1577734
3.8946497 0.4333874 1.1589783
3.9856858 0.43192846 1.1556567
3.4892399 0.43880028 1.1567369
3.7330229 0.43526971 1.1566235
3.7522326 0.43658423 1.1585537
3.9086273 0.43874761 1.1586574
3.1809971 0.44006997 1.1554048
3.734791 0.44964021 1.1553677
3.999649 0.44887376 1.1551814
3.4202454 0.45438516 1.1595328
3.6670146 0.45424175 1.1584259
3.9788327 0.45231879 1.1568524
3.4010313 0.45603001 1.1571939
3.4190214 0.45657551 1.1572335
3.7330959 0.46374565 1.1561451
3.985671 0.46238813 1.1553785
3.7523243 0.46505982 1.1580555
3.3106968 0.47305951 1.1578482
3.6540685 0.47431132 1.1593649
3.5616417 0.47779459 1.1551669
3.7347767 0.47811982 1.1552169
3.9997122 0.47933465 1.155194
3.4019294 0.48424724 1.1564002
3.4192026 0.48226821 1.1566936
3.4203289 0.48033148 1.1590788
3.6227326 0.48969343 1.1566468
3.3360689 0.49117428 1.1599352
3.4894104 0.49174434 1.1558107
2.9632835 0.50198627 1.1575692
3.1472921 0.50272489 1.1587418
3.3305807 0.50189197 1.1568197
3.2018871 0.50525177 1.1560578
3.4011641 0.50792348 1.1563222
3.4193838 0.50796092 1.1561537
3.4204123 0.50627786 1.158625
3.7347624 0.50659943 1.155066
3.9997754 0.50979555 1.1552066
3.4027476 0.51246786 1.1559048
3.124156 0.52095139 1.1571827
3.7332418 0.52069747 1.1551886
3.8946059 0.52268654 1.1581625
3.0681345 0.52887166 1.159696
3.2004871 0.52814317 1.1564312
3.2705395 0.52900183 1.1595899
3.3315485 0.52683413 1.1562394
3.355484 0.52902317 1.1592695
3.9088123 0.5280503 1.1586941
3.3377151 0.53351247 1.1591151
3.419565 0.53365374 1.1556138
3.143482 0.54059511 1.1594137
3.3361993 0.54207736 1.1590803
3.9780324 0.54369128 1.155733
3.9998386 0.54025644 1.1552191
2.9635971 0.54642487 1.1566354
3.0740976 0.54734194 1.158517
3.2714894 0.55347967 1.1590204
3.3325162 0.55177617 1.1556591
3.3556619 0.55422831 1.1587398
3.4012971 0.55981696 1.1554506
3.4197462 0.55934644 1.1550739
3.5927091 0.55936718 1.159573
3.6677928 0.564569 1.1561075
3.2965729 0.56881058 1.1559644
3.5335596 0.5741387 1.1581511
3.6085901 0.57579148 1.1551899
3.5256104 0.58445168 1.1599079
3.6006534 0.5827139 1.1568369
3.2885606 0.58980238 1.1580685
3.836627 0.59587014 1.1555425
3.1172197 0.26482463 1.1620032
3.8086977 0.26010221 1.1640382
3.0633993 0.27160108 1.1649327
3.6535685 0.27919281 1.1626424
3.8243513 0.2794776 1.162904
3.8223042 0.2836161 1.1622075
3.6658475 0.28875101 1.1619035
3.0642908 0.29457939 1.1643981
3.5556157 0.29179668 1.1620841
3.7517743 0.2942068 1.1610444
3.4179342 0.30241919 1.160473
3.1236062 0.30642247 1.1607862
3.8254673 0.30824041 1.1622348
3.5566521 0.31851208 1.1614625
3.5909946 0.31627262 1.1646813
3.4198277 0.32465327 1.1618022
3.1236672 0.33025897 1.1603857
3.6537113 0.33494097 1.161706
3.4764154 0.33772889 1.1629114
3.3548346 0.34181952 1.1649063
3.5911851 0.34328294 1.1641138
3.2716651 0.35043633 1.1649963
3.4199111 0.35059971 1.1613482
3.0677145 0.36500192 1.1624485
3.5913756 0.3702935 1.1635461
3.946806 0.37516981 1.1637284
3.5797782 0.38806176 1.1622365
3.6538541 0.39068913 1.1607696
3.0697768 0.39615139 1.160197
3.5915661 0.39730406 1.1629785
3.6730559 0.39747632 1.1627234
3.7479088 0.39989936 1.1639594
3.9487824 0.39913884 1.1617622
3.0697651 0.4195644 1.1600729
3.5797646 0.41536039 1.1620919
3.8667295 0.41938853 1.1640309
3.9528039 0.42217433 1.1600254
3.354773 0.42820227 1.161388
3.6731455 0.42535001 1.1622359
3.749001 0.42804587 1.1633044
3.9487674 0.42924887 1.1616027
3.8086119 0.43476921 1.1624424
3.5797508 0.44265908 1.1619473
3.5919471 0.45132506 1.1618433
3.8607306 0.4553943 1.1649618
3.8877578 0.45719734 1.1603049
3.9487524 0.45935893 1.1614432
3.8085976 0.46388036 1.1621765
3.5210636 0.47468233 1.164889
3.2920663 0.47556806 1.1633289
3.3551285 0.47861266 1.1603287
3.8671401 0.47759902 1.1628076
3.6737599 0.48428503 1.1635339
3.7511849 0.48433876 1.1619947
3.8607159 0.48483387 1.1648059
3.9663231 0.48209566 1.1636138
3.3553262 0.49452674 1.162235
3.8085833 0.49299154 1.1619105
3.9471145 0.49559432 1.1617055
3.2922409 0.50029349 1.1628094
3.5923281 0.50534606 1.1607082
3.8673453 0.50670421 1.162196
3.4269135 0.51087809 1.1641235
3.5781138 0.51176918 1.1619043
3.7522771 0.51248527 1.1613399
3.8607011 0.51427346 1.16465
3.3554082 0.51997805 1.1617898
3.9487221 0.51957905 1.1611242
3.0923917 0.52249813 1.1612496
3.5050888 0.5209741 1.1647584
3.5797098 0.52455509 1.1615134
3.0874071 0.52941132 1.1623183
3.2924151 0.52501881 1.1622897
3.9471917 0.52570045 1.1611998
3.2110891 0.53334594 1.164735
3.2914112 0.53345698 1.1643225
3.5925186 0.53235662 1.1601405
3.4279096 0.536551 1.1635262
3.5781837 0.53906429 1.1614459
3.8591595 0.53545403 1.1645468
3.0394874 0.54155314 1.1637022
3.8606863 0.54371309 1.164494
3.9665167 0.54230708 1.1625606
3.0220838 0.54905975 1.1615098
3.2325158 0.54521585 1.1649255
3.2925894 0.54974413 1.1617702
3.8009191 0.54913914 1.1628231
3.9487071 0.54968911 1.1609647
3.2736871 0.55364674 1.1616956
3.5975027 0.55111372 1.1632895
3.2118101 0.5565328 1.1632485
3.7846665 0.55930877 1.1646508
3.2134006 0.57924914 1.1616147
3.7392313 0.24906208 1.1654319
3.2714093 0.25058031 1.1666735
3.2714732 0.27554429 1.1662542
3.7392905 0.27754202 1.1654435
3.9465744 0.28485143 1.1652454
3.5197568 0.2893945 1.1687826
3.6603351 0.29963863 1.1687039
3.8659084 0.30296767 1.1664773
3.0133219 0.32323337 1.166764
3.5776241 0.32070339 1.1651137
3.2716012 0.32547235 1.1654155
3.7830601 0.33152485 1.1694374
3.8661137 0.33207285 1.1658657
3.9658384 0.33156711 1.166247
3.668848 0.34967077 1.1690133
2.9643118 0.35078788 1.1691463
3.8778493 0.35143816 1.1695088
3.7832608 0.35999775 1.1688391
3.8663189 0.36117816 1.1652541
3.9659355 0.36167288 1.1657203
3.4367406 0.38379943 1.1681637
3.877944 0.3808735 1.1689938
3.7834616 0.38847077 1.1682408
3.8607602 0.39651513 1.1652738
3.6709867 0.40479159 1.1677308
3.4229293 0.40818691 1.1665128
3.5970633 0.41464001 1.1656768
3.8780389 0.41030884 1.168479
3.7395854 0.41994172 1.1655022
3.8588579 0.41771108 1.1665246
3.4347959 0.42497838 1.1692885
3.5206902 0.42174292 1.1660014
3.3425975 0.42668009 1.1690235
3.8607454 0.4259547 1.1651179
3.4076154 0.43490386 1.1658152
3.4239254 0.43385983 1.1659155
3.9582314 0.43112659 1.168039
3.8781335 0.43974417 1.167964
3.7396445 0.44842166 1.1655139
3.7838633 0.44541681 1.1670442
3.8589332 0.44714689 1.1660302
3.4249213 0.4595325 1.1653181
3.5241575 0.45786428 1.1680112
3.6731253 0.45991242 1.1664484
3.4076693 0.46085426 1.1658258
3.9593854 0.46086371 1.1673471
3.8782282 0.46917951 1.1674491
3.7840641 0.47388983 1.1664457
3.8590088 0.47658259 1.1655358
3.7739856 0.48729384 1.1684555
3.5050204 0.4942351 1.1652076
3.5992253 0.49094105 1.1690842
3.9605391 0.49060094 1.1666552
3.7051852 0.49806559 1.169495
3.5243297 0.51134163 1.1670758
3.1752715 0.51674199 1.1687759
3.6002724 0.51793063 1.1684562
3.9616928 0.52033806 1.1659633
3.4543314 0.52555048 1.1698231
3.8784177 0.52805018 1.1664193
3.5244157 0.53808022 1.166608
3.7756686 0.53793925 1.1676116
3.1520677 0.54123819 1.1672258
3.4366617 0.54105437 1.1673306
3.6013198 0.54492021 1.1678282
3.7934196 0.5433535 1.1693465
3.0942988 0.54721773 1.1653609
3.4544158 0.55175591 1.1693647
3.3648593 0.56353235 1.166458
3.0526183 0.57187754 1.1694661
3.6023669 0.57190967 1.1672002
3.452729 0.57520735 1.1659076
3.7057748 0.58167934 1.167738
3.9533212 0.29319677 1.1719396
3.6924562 0.30030483 1.1746711
3.703809 0.30296695 1.1735948
3.9536164 0.31217778 1.1708065
3.8677735 0.31933177 1.1745887
3.4345272 0.3201555 1.1710492
3.9533837 0.32330719 1.171952
3.7040057 0.33083808 1.1730092
3.9547703 0.34191489 1.1701146
3.4345944 0.34636116 1.1706091
3.868902 0.3484143 1.173912
3.7042022 0.35870934 1.1724235
3.8700302 0.37749696 1.1732354
3.8711586 0.40657961 1.1725587
3.692745 0.41298962 1.1727782
3.872287 0.43566215 1.171882
3.8734155 0.46474493 1.1712054
3.7049885 0.47019434 1.1700808
3.9536958 0.47385925 1.172014
3.6929617 0.4975031 1.1713586
3.9964232 0.49550322 1.1732059
3.953758 0.50396961 1.1720264
3.5292625 0.52032351 1.1719383
3.9103181 0.52394629 1.1747463
3.9984069 0.52913618 1.170948
3.6946509 0.53243768 1.1707029
3.3873322 0.5391522 1.172555
3.1153321 0.54691696 1.1725783
3.4612744 0.5488708 1.1744065
3.5302889 0.54677272 1.1713228
3.6176186 0.55479723 1.1737137
3.0483947 0.55976462 1.1712476
3.0654697 0.55544174 1.1733975
3.1195378 0.55985105 1.17063
3.7124197 0.55793893 1.1722565
2.9973733 0.56120217 1.1740439
3.3235691 0.56477118 1.1724172
3.6160772 0.56238103 1.1734097
3.4622803 0.57479489 1.1738033
3.6296878 0.57590592 1.1711822
3.4894874 0.58545029 1.174881
3.0377884 0.28639853 1.177608
3.9924512 0.30766499 1.1784167
2.9878166 0.31488633 1.179775
3.9969206 0.31841457 1.1753761
3.9925292 0.33812159 1.1779052
3.786042 0.3549298 1.1773223
3.7069616 0.41555899 1.1753484
3.9927633 0.42949128 1.1763704
3.7125695 0.50021482 1.1775008
4.0122275 0.50418657 1.1767308
3.71365 0.52806461 1.1768528
3.203254 0.53118551 1.1788009
4.0071025 0.53421569 1.1788105
3.1838429 0.54413688 1.1761614
3.2602565 0.54020339 1.1779479
3.1278367 0.54605269 1.1788779
3.0134039 0.55113745 1.1761231
3.3233306 0.55214804 1.1753399
3.9213297 0.5503267 1.1789801
3.2034235 0.555233 1.1782956
3.184767 0.56795251 1.1756073
3.5410552 0.57068777 1.1759028
3.8256445 0.57678938 1.1769079
3.4194472 0.5870713 1.1776743
3.4867094 0.59128052 1.1770753
3.916791 0.47769856 1.1838164
3.917932 0.50710845 1.1831321
3.0678737 0.5526756 1.1827106
3.2002599 0.55283922 1.1802752
3.3322253 0.55236816 1.1806179
3.419446 0.55988848 1.1807656
3.420253 0.55862552 1.1836617
3.4009416 0.56025362 1.1813949
3.7345564 0.56370938 1.1832434
3.0924482 0.56939161 1.1834754
3.335916 0.56795728 1.1841019
3.8175721 0.5699811 1.1804632
3.8353295 0.56515473 1.1819345
3.4893329 0.5716244 1.1808916
3.3555455 0.57996535 1.1834141
3.8362918 0.59655285 1.1843246
3.0871127 0.52982169 1.1857264
3.7530408 0.54129982 1.1888505
3.9532959 0.54184353 1.1872828
3.291739 0.55456203 1.1876711
3.1561544 0.55707216 1.1891633
3.2108164 0.55825758 1.1888206
3.5923939 0.559937 1.1865822
3.4286065 0.56283295 1.188619
3.8251321 0.30892313 1.1910169
3.6010051 0.54556072 1.1948359
3.5971594 0.55159229 1.1905823
3.1011426 0.5587368 1.1916296
3.9468563 0.55631334 1.1907976
3.0481291 0.56030536 1.1940434
3.3645656 0.56413007 1.1916605
3.301554 0.56595898 1.1940755
3.5048597 0.57490218 1.1905966
3.6020522 0.57255018 1.1942079
3.9662349 0.57294077 1.1921374
3.452426 0.57575464 1.1918507
3.1150351 0.54733115 1.1961995
3.0652013 0.5559268 1.1963927
3.1844893 0.5685178 1.199439
3.2415297 0.56744373 1.1966449
3.3232777 0.56529784 1.1973774
3.3037331 0.57195914 1.1978676
3.5310068 0.57384944 1.1971745
3.7931502 0.57264608 1.1976286
3.461978 0.57541013 1.1997448
3.6293693 0.5764817 1.1984733
3.7054493 0.58226728 1.1956079
3.6381168 0.61021477 1.1965017
3.1999547 0.55326474 1.2045438
3.2031426 0.55574024 1.2023418
3.7120655 0.55843282 1.2004251
3.1284716 0.56999719 1.201739
3.0744534 0.57141101 1.2039702
3.3329022 0.57790232 1.2049965
3.4864035 0.59183323 1.2032771
3.4199266 0.55908042 1.2096061
3.0921774 0.56988108 1.2066764
3.4889998 0.57208854 1.2073616
3.3552511 0.58049703 1.2086183
3.4193273 0.58612311 1.2059172
3.6394386 0.58568811 1.2061409
3.2104807 0.55866992 1.2133178
3.2914376 0.55504167 1.212514
3.4283071 0.56344235 1.2143091
3.2321203 0.570508 1.2129498
3.1017721 0.58247101 1.2142898
3.5922689 0.58751702 1.213024
3.1750512 0.56541586 1.2154404
3.5044935 0.57535219 1.2173333
3.182261 0.56586623 1.2247213
3.2412469 0.56801927 1.2209107
3.3229861 0.56582439 1.2223378
3.3867686 0.56574821 1.2234915
3.3033879 0.5723834 1.2230731
3.6017377 0.57319081 1.2212157
3.7051239 0.58285522 1.2234778
3.1996493 0.55369025 1.2288126
3.7117109 0.5589267 1.2285938
3.3326113 0.57849431 1.2299554
3.4616756 0.57602549 1.2256862
3.2030313 0.58029485 1.2258829
3.6347232 0.57277507 1.230405
3.4693038 0.57944864 1.2315619
3.2125602 0.58096004 1.2337494
3.7151616 0.58508575 1.2312934
3.2879882 0.59072387 1.2336949
3.2905493 0.55973363 1.2387712
3.4280078 0.56405163 1.2399992
3.174773 0.56591868 1.2392734
3.3009777 0.56713176 1.2435211
3.4518201 0.57684922 1.2437365
3.5919535 0.58808684 1.2400334
3.183934 0.56964827 1.2471023
3.3226948 0.56635094 1.2472981
3.3030427 0.57280767 1.2482785
3.3867512 0.57127154 1.2458313
3.3323207 0.5790863 1.2549143
3.396332 0.57758629 1.2535845
3.4651573 0.57826746 1.2548299
3.6343763 0.57325864 1.2579873
3.3546624 0.58156049 1.2590264
3.2877975 0.59103101 1.2589039
3.4192739 0.55999023 1.2614949
3.6377444 0.55971158 1.2613544
3.2902353 0.56017125 1.263733
3.2916093 0.57655597 1.2601476
3.3006897 0.56771815 1.2682438
3.4515173 0.57739663 1.2696793
3.5916381 0.58865666 1.2670426
3.3016484 0.59242427 1.267669
3.6011083 0.57447195 1.2752311
3.4610713 0.57725608 1.2775689
3.3543682 0.58209217 1.2842305
3.4685786 0.58033973 1.2845019
3.4184272 0.58774912 1.2829919
3.7134316 0.55855823 1.2876782
3.4189475 0.56044513 1.2874393
3.3345215 0.5696708 1.285899
3.3004017 0.56830454 1.2929667
3.4274092 0.5652703 1.2913793
3.5913227 0.58922648 1.2940519
3.3957391 0.57879341 1.3044772
3.4607689 0.57787132 1.3035104
3.6007936 0.57511258 1.3022388
3.3317389 0.58027041 1.3048322
3.7041476 0.58461905 1.307088
3.4181273 0.58829117 1.3086834
3.7141874 0.5870688 1.3148987
3.7131069 0.55921924 1.3155466
3.6381667 0.58827734 1.3152989
3.4524379 0.5545125 1.3265852
3.4604666 0.57848668 1.3294519
3.6004789 0.57575321 1.3292466
3.6277757 0.57936037 1.3349289
3.7038221 0.58520699 1.334958
3.7102935 0.5609023 1.3412685
3.6378486 0.58892453 1.3425885
3.590692 0.59036601 1.3480704
3.7427826 0.60266572 1.3486799
3.6001642 0.57639384 1.3562541
3.7034967 0.58579493 1.3628279
3.6329882 0.57519311 1.3683159
3.6375308 0.58957183 1.3698779
3.7135379 0.58839083 1.3706353
3.5903766 0.59093583 1.3750798
3.6654105 0.59680557 1.3761724
3.7424536 0.60325998 1.3768471
3.730267 0.58148336 1.3820182
3.6900911 0.58580983 1.3952879
3.7132132 0.58905184 1.3985038
3.6650884 0.59738743 1.4037527
3.6509178 0.59002995 1.4083357
3.7421248 0.60385418 1.4050142
3.6745105 0.57604122 1.4120939
3.7128885 0.58971286 1.4263721
3.7417958 0.60444838 1.4331812
3.6741891 0.57669532 1.4396728
