# .PCD v0.7 - Point Cloud Data file format
VERSION 0.7
FIELDS x y z
SIZE 4 4 4
TYPE F F F
COUNT 1 1 1
WIDTH 154
HEIGHT 1
VIEWPOINT 0 0 0 1 0 0 0
POINTS 154
DATA ascii
2.9004574 2.7737048 -0.97953415
2.8788795 2.7875237 -0.97221148
2.8583064 2.8013325 -0.96523601
2.8851171 2.6779599 -0.96063298
2.8405526 2.7653565 -0.94752121
2.8407006 2.7863345 -0.94796199
2.895937 2.6706843 -0.93548292
2.896744 2.6914859 -0.93596691
2.8366959 2.7949896 -0.9374525
2.8374839 2.8153038 -0.93792516
2.8382721 2.8356183 -0.93839782
2.8390603 2.8559327 -0.93887049
2.8403077 2.765799 -0.92654443
2.8404558 2.786777 -0.9269852
2.8546512 2.7204072 -0.9223544
2.8364592 2.7954717 -0.91712427
2.8372471 2.8157861 -0.91759694
2.8396118 2.8767295 -0.91901487
2.8956943 2.6711781 -0.91466731
2.8176713 2.8292885 -0.91126674
2.8184536 2.8494508 -0.91173589
2.874155 2.6858222 -0.90786695
2.8749557 2.7064564 -0.90834707
2.8544126 2.7208931 -0.90186626
2.8193593 2.8197255 -0.90003562
2.8187718 2.7364545 -0.89828581
2.8338575 2.7350104 -0.89537817
2.8189187 2.7572722 -0.89872324
2.8190656 2.77809 -0.89916068
2.8158717 2.7894428 -0.89015269
2.816654 2.8096049 -0.89062184
2.7973509 2.8304768 -0.89328891
2.7974966 2.8511269 -0.89372283
2.8190007 2.8700917 -0.89202917
2.8731139 2.6656778 -0.88673884
2.8150895 2.7692804 -0.8896836
2.8525853 2.6804307 -0.88042545
2.8533797 2.7009048 -0.88090187
2.7970736 2.8229516 -0.88444036
2.7978499 2.8429618 -0.88490593
2.8191161 2.8201647 -0.87921888
2.819263 2.8409824 -0.87965637
2.7962358 2.7070112 -0.87003595
2.7963815 2.7276616 -0.87046987
2.7968183 2.7896118 -0.87177169
2.8156366 2.7899213 -0.86997688
2.8531411 2.7013907 -0.86041379
2.7753849 2.7393389 -0.86421949
2.7945113 2.7633965 -0.86302018
2.7960639 2.8034165 -0.86395133
2.7968404 2.8234265 -0.8644169
2.7976167 2.8434367 -0.86488247
2.7543862 2.7506967 -0.85796237
2.7965772 2.7900476 -0.8511225
2.7967229 2.8106976 -0.85155642
2.7968686 2.8313479 -0.8519904
2.7970142 2.8519981 -0.85242432
2.7961404 2.728097 -0.84982067
2.7752903 2.7602613 -0.84416074
2.7942779 2.7638714 -0.84299678
2.7950542 2.7838814 -0.84346235
2.7958305 2.8038914 -0.84392792
2.796607 2.8239014 -0.84439349
2.7540057 2.7307951 -0.83720577
2.8120375 2.7102294 -0.82774884
2.8128197 2.7303915 -0.82821792
2.8143842 2.7707162 -0.82915616
2.7932682 2.7443364 -0.82250762
2.7750509 2.7606936 -0.82367146
2.7751954 2.7811837 -0.82410204
2.794821 2.7843564 -0.82343876
2.7963738 2.8243763 -0.82436991
2.7537682 2.7312241 -0.81687641
2.7752461 2.7976923 -0.81771439
2.8118024 2.7107079 -0.80757296
2.8125846 2.7308702 -0.80804205
2.7930348 2.7448113 -0.80248415
2.7748117 2.7611256 -0.80318224
2.7938113 2.7648213 -0.80294973
2.7535307 2.7316527 -0.79654706
2.8115673 2.7111864 -0.78739721
2.8123496 2.7313488 -0.78786629
2.8131318 2.7515111 -0.78833538
2.7532935 2.7320817 -0.77621782
2.7732422 2.7589195 -0.77704793
2.8105497 2.6915028 -0.76675224
2.8113322 2.7116652 -0.76722139
2.7894628 2.6657212 -0.76057488
2.7917919 2.7257514 -0.76197159
2.8087502 2.6516569 -0.74563819
2.8110971 2.7121437 -0.74704558
2.7892294 2.6661961 -0.74055141
2.7900059 2.6862061 -0.74101698
2.8085151 2.6521354 -0.72546238
2.8092973 2.6722977 -0.72593153
2.7944024 2.6894107 -0.72505742
2.8100796 2.6924598 -0.72640061
2.8077328 2.6319733 -0.72499329
2.7942567 2.6687603 -0.72462344
2.8371184 2.6653361 -0.71457267
2.80828 2.6526141 -0.7052865
2.8090622 2.6727762 -0.70575565
2.8161438 2.6779537 -0.7096222
2.8074977 2.6324518 -0.70481741
2.8367257 2.6448007 -0.69315517
2.8080449 2.6530926 -0.68511075
2.8157537 2.6575751 -0.68836784
2.8088272 2.6732547 -0.6855799
2.8159006 2.6783929 -0.68880534
2.8072627 2.6329303 -0.68464166
2.79392 2.6902819 -0.68375897
2.8085921 2.6737332 -0.66540408
2.8156576 2.6788321 -0.6679886
2.8070276 2.633409 -0.66446584
2.8078098 2.6535711 -0.66493493
2.7548563 2.6653821 -0.66419482
2.793679 2.6907175 -0.66310966
2.8363836 2.6666636 -0.65164238
2.7977967 2.6889806 -0.65360779
2.8151207 2.6376357 -0.64629686
2.7766316 2.6568127 -0.6483289
2.8278627 2.6595385 -0.6495499
2.8154144 2.6792712 -0.6471718
2.8206379 2.7017801 -0.63783741
2.7973976 2.6473892 -0.6318959
2.7974651 2.6683688 -0.63226289
2.8361387 2.6671062 -0.63066566
2.8148777 2.6380749 -0.62548006
2.8268375 2.6397061 -0.62874907
2.8276258 2.6600206 -0.62922174
2.8151715 2.6797104 -0.62635499
2.8201673 2.6386867 -0.61557406
2.7971337 2.6477571 -0.61091793
2.7761078 2.6575427 -0.60669285
2.8358936 2.6675487 -0.60968894
2.8146346 2.638514 -0.60466319
2.7860436 2.6295006 -0.59945589
2.7716966 2.6629972 -0.59613645
2.8199012 2.6390576 -0.59442085
2.8586204 2.6558414 -0.59311759
2.7969372 2.6691043 -0.59030688
2.8263638 2.6406705 -0.58809274
2.7968698 2.6481247 -0.58993989
2.8356488 2.6679912 -0.58871216
2.8196352 2.6394284 -0.57326776
2.8583734 2.6562877 -0.57196569
2.8197031 2.6605833 -0.57363778
2.8354039 2.6684337 -0.56773537
2.8644843 2.6416204 -0.56053811
2.8414595 2.6511996 -0.55641657
2.8415282 2.6725216 -0.55678952
2.8581264 2.6567338 -0.55081373
2.8873057 2.6537433 -0.54336143
2.8799877 2.6656344 -0.53379458
