# .PCD v0.7 - Point Cloud Data file format
VERSION 0.7
FIELDS x y z
SIZE 4 4 4
TYPE F F F
COUNT 1 1 1
WIDTH 121
HEIGHT 1
VIEWPOINT 0 0 0 1 0 0 0
POINTS 121
DATA ascii
1.5885987 -0.81112963 -0.71558326
1.5806024 -0.80702811 -0.69993442
1.5736338 -0.79144251 -0.69683015
1.5806524 -0.78293669 -0.69992453
1.5886666 -0.77481967 -0.69135493
1.5806236 -0.79498738 -0.68788379
1.5736052 -0.80343974 -0.68484271
1.5736549 -0.77945507 -0.68483287
1.5806699 -0.77090091 -0.67582816
1.588688 -0.76271808 -0.67924339
1.5736265 -0.79145235 -0.67284542
1.5957034 -0.75394297 -0.67007089
1.5736476 -0.77946496 -0.66084808
1.5806663 -0.77090585 -0.66378248
1.5806913 -0.75886017 -0.66377753
1.6027188 -0.74506128 -0.66079175
1.5887058 -0.75062132 -0.65502501
1.573644 -0.77946985 -0.64885575
1.573669 -0.76747745 -0.6488508
1.5736938 -0.75548512 -0.64884585
1.6027151 -0.74506629 -0.64857841
1.5736901 -0.75549006 -0.63685352
1.580709 -0.74682432 -0.63968116
1.5957174 -0.74179792 -0.63358593
1.5737114 -0.74350268 -0.62485611
1.6027331 -0.73286307 -0.62414676
1.5807016 -0.74683422 -0.61558968
1.5887198 -0.73852962 -0.61870009
1.6027294 -0.73286813 -0.61193341
1.5807229 -0.73479354 -0.60353899
1.6107444 -0.72427893 -0.60270846
1.6027257 -0.73287314 -0.59972006
1.5887126 -0.73853958 -0.59448671
1.6107407 -0.72428399 -0.59043413
1.602722 -0.73287815 -0.58750677
1.5887089 -0.73854452 -0.58238006
1.6027184 -0.73288316 -0.57529336
1.610737 -0.724289 -0.57815987
1.580712 -0.73480844 -0.56740183
1.6107333 -0.72429407 -0.5658856
1.6027147 -0.73288816 -0.56308007
1.5807083 -0.73481339 -0.55535614
1.602711 -0.73289317 -0.55086678
1.6107296 -0.72429907 -0.55361128
1.5807046 -0.73481834 -0.5433104
1.61772 -0.72747099 -0.54368943
1.595713 -0.72967798 -0.5363009
1.580701 -0.73482329 -0.53126466
1.6027035 -0.73290324 -0.52644008
1.6107221 -0.72430921 -0.52906269
1.6107184 -0.72431421 -0.51678842
1.6026998 -0.73290825 -0.51422673
1.6337212 -0.72227538 -0.51171297
1.6107147 -0.72431928 -0.50451416
1.5887082 -0.72647268 -0.4976283
1.6337174 -0.7222805 -0.49926344
1.6107109 -0.72432429 -0.49223983
1.6487272 -0.71639389 -0.49127835
1.6026924 -0.73291826 -0.48980004
1.6407079 -0.7253992 -0.48889971
1.6026887 -0.73292333 -0.47758672
1.640704 -0.72540438 -0.47639686
1.6107072 -0.72432935 -0.47996551
1.6487234 -0.71639907 -0.47871453
1.6107035 -0.72433442 -0.46769121
1.6487195 -0.7164042 -0.46615073
1.6407002 -0.72540951 -0.46389401
1.6106998 -0.72433943 -0.45541695
1.6487157 -0.71640939 -0.45358691
1.6337024 -0.72230095 -0.44946533
1.610696 -0.72434449 -0.44314265
1.6487119 -0.71641451 -0.44102311
1.6406927 -0.72541976 -0.43888828
1.6106923 -0.7243495 -0.43086836
1.6567014 -0.71991736 -0.43053833
1.6406889 -0.72542489 -0.42638543
1.6487043 -0.71642488 -0.41589549
1.6647173 -0.71073449 -0.41992643
1.6406851 -0.72543001 -0.41388258
1.6106849 -0.72435963 -0.4063198
1.6406813 -0.7254352 -0.4013797
1.6487005 -0.71643001 -0.40333167
1.6176752 -0.72753173 -0.39575806
1.6646833 -0.72343063 -0.39456022
1.6406775 -0.72544032 -0.38887686
1.6566862 -0.7199381 -0.38003927
1.6726993 -0.71418691 -0.38370445
1.6406738 -0.72544545 -0.37637401
1.6806889 -0.71762896 -0.37273204
1.6566824 -0.71994328 -0.36741456
1.6406699 -0.72545058 -0.36387119
1.6406661 -0.7254557 -0.35136834
1.6566786 -0.71994847 -0.35478976
1.6806811 -0.71763951 -0.34711683
1.6566746 -0.71995366 -0.34216499
1.6406623 -0.72546089 -0.33886549
1.664664 -0.72345668 -0.33113167
1.6806772 -0.71764475 -0.33430916
1.6486515 -0.72902483 -0.32795402
1.6336387 -0.73480159 -0.32497525
1.6806734 -0.71765 -0.32150155
1.6486477 -0.72902995 -0.3153902
1.6646602 -0.72346187 -0.31844592
1.6976821 -0.71202165 -0.31181121
1.6646564 -0.72346711 -0.3057602
1.6726762 -0.71421838 -0.30722445
1.6486439 -0.72903514 -0.3028264
1.6806656 -0.71766055 -0.29588631
1.6976782 -0.71202695 -0.29887408
1.64864 -0.72904032 -0.29026258
1.6726458 -0.72697014 -0.29448304
1.672642 -0.72697538 -0.28173637
1.6896541 -0.72153234 -0.28459466
1.6566294 -0.73260432 -0.27904639
1.6976435 -0.72497463 -0.2730051
1.6566256 -0.73260951 -0.26642165
1.6726381 -0.72698063 -0.26898974
1.6976397 -0.72498 -0.26006797
1.7056597 -0.71541893 -0.26128829
1.6896195 -0.73441911 -0.25884759
1.7146482 -0.71922237 -0.24960044
