# .PCD v0.7 - Point Cloud Data file format
VERSION 0.7
FIELDS x y z
SIZE 4 4 4
TYPE F F F
COUNT 1 1 1
WIDTH 284
HEIGHT 1
VIEWPOINT 0 0 0 1 0 0 0
POINTS 284
DATA ascii
1.5661623 1.0466999 -0.15013157
1.5674284 0.90216768 -0.14836089
1.5673227 0.91421199 -0.14850844
1.5600126 0.94901848 -0.14828783
1.5599077 0.9610095 -0.14843473
1.5528097 0.97156727 -0.14791702
1.5596976 0.98499155 -0.14872853
1.5665843 0.99852246 -0.14954135
1.5664787 1.0105668 -0.1496889
1.5663733 1.0226111 -0.14983645
1.5592775 1.0329556 -0.14931615
1.567548 0.87822574 -0.13602133
1.5674424 0.89027011 -0.13616888
1.5603418 0.90120053 -0.13570908
1.5602369 0.91319156 -0.13585597
1.567126 0.92640316 -0.13661155
1.5670207 0.93844748 -0.1367591
1.5599217 0.94916463 -0.13629669
1.5598168 0.96115559 -0.13644359
1.5597119 0.97314668 -0.13659048
1.5596068 0.9851377 -0.13673739
1.5595019 0.99712867 -0.13688429
1.5593967 1.0091197 -0.1370312
1.5523012 1.0194634 -0.13656421
1.5521967 1.0314012 -0.13671046
1.5590818 1.0450928 -0.1374719
1.5659657 1.0588909 -0.13823466
1.5588717 1.0690749 -0.13776571
1.5587666 1.0810659 -0.1379126
1.5586617 1.0930569 -0.13805951
1.5585566 1.1050479 -0.13820641
1.5653327 1.1311572 -0.13912
1.5582416 1.141021 -0.13864712
1.5667183 0.96268296 -0.12500975
1.5593059 1.0092659 -0.12504005
1.5590959 1.0332478 -0.12533386
1.56598 1.0469934 -0.12604263
1.5658746 1.0590377 -0.12619019
1.565769 1.0710821 -0.12633774
1.5586758 1.0812119 -0.12592146
1.5585709 1.0932029 -0.12606837
1.5514789 1.1031728 -0.12565012
1.5651362 1.1433482 -0.12722307
1.560251 0.90134662 -0.12371793
1.5601461 0.91333765 -0.12386483
1.567035 0.92654991 -0.12456708
1.5669293 0.93859422 -0.12471463
1.566824 0.95063853 -0.12486218
1.5596211 0.97329277 -0.12459934
1.559516 0.98528379 -0.12474625
1.559411 0.99727476 -0.12489314
1.5522108 1.019609 -0.12462637
1.5711267 1.0868998 -0.11818619
1.5670493 0.91465223 -0.11237503
1.5669436 0.92669666 -0.11252259
1.5668383 0.93874097 -0.11267014
1.5667326 0.95078528 -0.1128177
1.5666273 0.96282971 -0.11296525
1.5665216 0.97487402 -0.11311281
1.5664163 0.98691839 -0.11326036
1.5593202 0.99742091 -0.11290199
1.5592153 1.0094119 -0.1130489
1.5591102 1.021403 -0.11319579
1.5590053 1.033394 -0.11334269
1.5589001 1.045385 -0.1134896
1.5587952 1.057376 -0.1136365
1.5656779 1.0712289 -0.11429325
1.5655723 1.0832732 -0.11444081
1.55848 1.0933491 -0.11407721
1.5583751 1.1053401 -0.11422411
1.5670636 0.90275472 -0.100183
1.5667472 0.93888777 -0.10062566
1.5666416 0.95093209 -0.10077322
1.5665362 0.96297646 -0.10092077
1.5664306 0.97502077 -0.10106833
1.5663252 0.9870652 -0.10121588
1.5662196 0.99910951 -0.10136344
1.5591245 1.0095581 -0.10105775
1.5590196 1.021549 -0.10120465
1.5589144 1.03354 -0.10135155
1.5657978 1.0472869 -0.10195367
1.5587044 1.0575221 -0.10164536
1.5585995 1.0695132 -0.10179226
1.5654812 1.0834199 -0.10239633
1.5652702 1.1075087 -0.10269144
1.5649538 1.1436417 -0.10313411
1.5656011 1.059478 -0.090056755
1.5654955 1.0715224 -0.090204313
1.5653901 1.0835667 -0.090351865
1.5730567 1.1220729 -0.091258302
1.5728445 1.1462834 -0.09155491
1.5669725 0.90290147 -0.088138528
1.5665505 0.95107883 -0.088728756
1.5592437 0.98572206 -0.088772796
1.5661285 0.99925625 -0.089318976
1.5660229 1.0113006 -0.089466535
1.5659175 1.023345 -0.089614086
1.5588236 1.0336862 -0.089360401
1.5657065 1.0474336 -0.089909196
1.5662482 0.97531432 -0.076979384
1.5661428 0.98735869 -0.077126935
1.5660372 0.999403 -0.077274494
1.5659318 1.0114474 -0.077422053
1.5658264 1.0234917 -0.077569604
1.558733 1.0338323 -0.077369258
1.5656154 1.0475805 -0.077864721
1.5733891 1.0737991 -0.078559674
1.5652988 1.0837135 -0.078307383
1.5582078 1.0937874 -0.078103773
1.5650878 1.1078022 -0.078602493
1.5649824 1.1198465 -0.078750052
1.572859 1.1343256 -0.079301186
1.5660515 0.98750544 -0.065082461
1.5658405 1.0115941 -0.065377571
1.5657351 1.0236385 -0.065525122
1.5586421 1.0339785 -0.065378107
1.5655241 1.0477271 -0.065820232
1.5734036 1.0618414 -0.06630595
1.5732975 1.0739467 -0.066454254
1.5652077 1.0838602 -0.066262901
1.5581169 1.0939336 -0.066112623
1.5649967 1.1079489 -0.066558011
1.5728734 1.1223679 -0.067047462
1.5727673 1.1344731 -0.067195766
1.5726614 1.1465784 -0.067344069
1.5725553 1.1586838 -0.067492373
1.5727136 0.93513077 -0.06162297
1.5663681 0.95137239 -0.064639792
1.5727745 0.95889878 -0.062022209
1.5592723 0.96203226 -0.064496696
1.5591671 0.97402334 -0.064643599
1.5728049 0.97078276 -0.062221833
1.5726757 1.1346207 -0.055090345
1.5725696 1.1467259 -0.055238646
1.5724638 1.1588311 -0.055386949
1.5668042 0.8912974 -0.051857546
1.5666988 0.90334177 -0.052005097
1.5664878 0.92743039 -0.052300211
1.5593915 0.9381963 -0.052211743
1.5592864 0.95018733 -0.052358646
1.5726117 0.95909876 -0.050139293
1.5591815 0.96217835 -0.052505549
1.5590765 0.97416937 -0.052652448
1.5726421 0.97098279 -0.050338909
1.5726726 0.98286676 -0.050538525
1.5589714 0.9861604 -0.052799352
1.5658548 0.99969649 -0.053185545
1.5657494 1.0117409 -0.0533331
1.565644 1.0237852 -0.053480655
1.5655384 1.0358295 -0.053628214
1.5734179 1.0498836 -0.054052226
1.5733118 1.0619888 -0.05420053
1.5732057 1.0740942 -0.054348834
1.5730999 1.0861995 -0.054497134
1.5729938 1.0983047 -0.054645438
1.5649054 1.1080956 -0.054513548
1.5727818 1.1225154 -0.054942042
1.5724595 0.89967877 -0.049141198
1.5724899 0.9115628 -0.049340814
1.5725508 0.93533081 -0.049740054
1.5725813 0.94721478 -0.04993967
1.5665023 0.91553283 -0.040108178
1.5663967 0.9275772 -0.040255733
1.5593007 0.93834245 -0.040220596
1.5591958 0.95033348 -0.040367499
1.5590909 0.9623245 -0.040514402
1.5589857 0.97431552 -0.040661305
1.5588808 0.98630655 -0.040808205
1.5587757 0.99829757 -0.040955108
1.5586708 1.0102886 -0.041102011
1.5655529 1.023932 -0.04143618
1.5654473 1.0359763 -0.041583735
1.5653419 1.0480207 -0.041731291
1.5582507 1.0582527 -0.041689619
1.5651309 1.0721095 -0.042026401
1.5730083 1.086347 -0.042391714
1.5649199 1.0961981 -0.042321514
1.5578306 1.1062168 -0.042277232
1.5577254 1.1182077 -0.042424131
1.5725842 1.1347681 -0.042984925
1.5723722 1.1589787 -0.043281529
1.5735383 0.88427591 -0.038464617
1.5597208 0.89037836 -0.039632987
1.5596159 0.90236938 -0.039779887
1.5723271 0.91176277 -0.037457898
1.5723881 0.93553078 -0.037857138
1.5724794 0.97118282 -0.038455993
1.5725099 0.9830668 -0.038655609
1.5649343 1.0843005 -0.030129479
1.5578446 1.0943718 -0.030139178
1.5647233 1.1083891 -0.030424591
1.5576346 1.1183538 -0.030432981
1.5645123 1.1324779 -0.030719701
1.574507 0.90491498 -0.028061755
1.5663056 0.92772394 -0.028211255
1.5592098 0.93848848 -0.028229445
1.5722252 0.93573081 -0.02597422
1.5591049 0.95047957 -0.028376348
1.559 0.96247053 -0.028523251
1.5588949 0.97446162 -0.028670153
1.55879 0.98645264 -0.028817056
1.5586848 0.9984436 -0.028963957
1.5585799 1.0104346 -0.02911086
1.5734468 1.025968 -0.029544778
1.5653563 1.036123 -0.029539257
1.5582647 1.0464077 -0.029551568
1.5581598 1.0583987 -0.029698469
1.5650396 1.0722561 -0.029981924
1.5661089 0.93991506 -0.016314335
1.5660033 0.95195937 -0.016461892
1.5658979 0.9640038 -0.016609447
1.5657923 0.97604811 -0.016757004
1.5656869 0.98809248 -0.016904559
1.5585942 0.99858975 -0.016972808
1.5584891 1.0105808 -0.017119711
1.5653706 1.0242255 -0.017347226
1.558279 1.0345628 -0.017413516
1.5581741 1.0465539 -0.017560419
1.558069 1.0585449 -0.017707322
1.5579641 1.0705359 -0.017854223
1.5648429 1.0844473 -0.018085005
1.5647376 1.0964916 -0.018232562
1.5646319 1.108536 -0.018380117
1.5645266 1.1205803 -0.018527672
1.5644209 1.1326246 -0.018675227
1.5721889 1.1592736 -0.019070681
1.5721234 0.95969886 -0.014490539
1.5654902 1.0002836 -0.00500764
1.5583985 1.0107269 -0.0051285643
1.5582933 1.022718 -0.0052754665
1.5581884 1.034709 -0.0054223686
1.5580833 1.0467 -0.0055692713
1.5649629 1.0605053 -0.0057454184
1.5728393 1.0746841 -0.0059271427
1.5647519 1.084594 -0.0060405303
1.5576632 1.0946641 -0.0061568813
1.5575583 1.1066551 -0.0063037835
1.5644352 1.1207271 -0.0064831972
1.5723093 1.1352106 -0.0066686547
1.5720973 1.1594212 -0.0069652591
1.5765659 0.90275246 -0.0027107322
1.5765281 0.91477382 -0.0028851409
1.5729904 0.92683375 -0.0030781403
1.5660176 0.94006181 -0.0042698616
1.5659122 0.95210612 -0.0044174176
1.5737936 0.96573651 -0.0045924215
1.5657012 0.97619486 -0.0047125285
1.5763018 0.98690164 -0.0039315918
1.5728632 0.9270075 0.0089160288
1.5659266 0.94020855 0.0077746147
1.5658212 0.95225286 0.0076270588
1.5587277 0.96290886 0.0074501936
1.5586226 0.97489995 0.0073032915
1.5655046 0.98838598 0.0071843918
1.5653992 1.0004303 0.0070368364
1.5583076 1.0108731 0.006862584
1.5582025 1.022864 0.0067156819
1.5650828 1.0365634 0.006594169
1.5649772 1.0486077 0.006446613
1.5648718 1.060652 0.006299058
1.5727477 1.0748317 0.0061782785
1.5575724 1.0948101 0.005834267
1.5574675 1.1068012 0.0056873648
1.5643442 1.1208738 0.0055612791
1.5738223 0.94182098 0.019915026
1.5587418 0.95106399 0.019588243
1.5586369 0.96305501 0.01944134
1.558532 0.97504604 0.019294439
1.5654135 0.98853278 0.019228868
1.5653079 1.0005771 0.019081311
1.5582168 1.0110191 0.018853731
1.5650971 1.0246658 0.018786199
1.5649915 1.0367101 0.018638644
1.5648861 1.0487545 0.018491089
1.5647805 1.0607989 0.018343534
1.572444 1.0991898 0.017987095
1.5723379 1.1112951 0.017838793
1.5791068 1.1376412 0.01761568
1.5790005 1.1497998 0.017466724
1.5653222 0.98867953 0.031273343
1.5732007 1.0024949 0.031278934
1.558126 1.0111653 0.03084488
1.5729885 1.0267055 0.03098233
1.5616869 0.9266901 0.036873829
