# .PCD v0.7 - Point Cloud Data file format
VERSION 0.7
FIELDS x y z
SIZE 4 4 4
TYPE F F F
COUNT 1 1 1
WIDTH 958
HEIGHT 1
VIEWPOINT 0 0 0 1 0 0 0
POINTS 958
DATA ascii
1.6300755 1.6179394 -0.70014042
1.5865742 1.5359875 -0.68020356
1.621834 1.6040065 -0.68440765
1.6076313 1.5646243 -0.67780101
1.6006265 1.5748829 -0.67502171
1.6006647 1.5867667 -0.67522955
1.6802362 1.6710602 -0.67707664
1.6216825 1.6042176 -0.67236471
1.6950245 1.6930075 -0.6716305
1.7243664 1.7011858 -0.67189127
1.5858561 1.4026464 -0.66761565
1.5859374 1.4141636 -0.66785771
1.5860999 1.4371979 -0.66834176
1.586181 1.4487151 -0.66858375
1.5863435 1.4717494 -0.6690678
1.5863123 1.5008624 -0.66780913
1.5863502 1.5126396 -0.66801518
1.5863881 1.5244168 -0.66822118
1.6075581 1.5887079 -0.66628236
1.6301441 1.6211226 -0.66673529
1.687559 1.6821215 -0.66841149
1.7098891 1.6910641 -0.66583121
1.600477 1.5750912 -0.66313869
1.6162784 1.6009343 -0.66055971
1.6237084 1.6108739 -0.66386336
1.586368 1.5154536 -0.65737903
1.5862399 1.5246233 -0.65644485
1.5862778 1.5364004 -0.6566509
1.5933582 1.5497506 -0.65978998
1.6586478 1.6630704 -0.65610558
1.6661009 1.6736369 -0.65931714
1.6874199 1.6824045 -0.65647662
1.5955701 1.5600091 -0.65126824
1.6019893 1.5698315 -0.65413028
1.6073694 1.5769801 -0.65413731
1.6013969 1.5841627 -0.65292847
1.6028669 1.5924522 -0.65465659
1.6511991 1.6526108 -0.65289652
1.6729615 1.67277 -0.65042788
1.7017465 1.6925379 -0.65048891
1.5864182 1.5056882 -0.64693201
1.5866263 1.5176017 -0.64709771
1.5862055 1.5601614 -0.64528662
1.5933616 1.59728 -0.64878815
1.6377609 1.643378 -0.64717412
1.6018574 1.5700999 -0.64281231
1.6022962 1.5814103 -0.64307547
1.602735 1.5927206 -0.64333862
1.597187 1.6053352 -0.64104438
1.6303222 1.633177 -0.64397103
1.6585112 1.6633486 -0.64438397
1.6872809 1.6826876 -0.64454174
1.586265 1.5185469 -0.63548595
1.5863463 1.5300641 -0.63572794
1.5880275 1.5507998 -0.63675648
1.5954388 1.5602765 -0.63999599
1.5931747 1.585657 -0.63675153
1.5932128 1.5974874 -0.63695848
1.6440694 1.6541402 -0.63834512
1.6728237 1.6730505 -0.63859963
1.5860573 1.5603678 -0.63351029
1.5860952 1.572145 -0.63371634
1.6026032 1.5929891 -0.63202065
1.6030421 1.6042994 -0.63228387
1.630188 1.6334502 -0.63245511
1.6306345 1.6449585 -0.63272285
1.6583745 1.6636266 -0.6326623
1.5878967 1.5510659 -0.62553751
1.5953075 1.5605439 -0.62872368
1.5957445 1.5718086 -0.62898576
1.5946038 1.5844688 -0.62708485
1.6167647 1.6245652 -0.62683976
1.6439341 1.6544157 -0.62673008
1.6801431 1.6840611 -0.62982661
1.6024714 1.5932575 -0.62070268
1.6029103 1.6045679 -0.6209659
1.6093365 1.6146218 -0.62369603
1.6305003 1.6452316 -0.62120688
1.6656892 1.6744747 -0.62399232
1.5939884 1.5616111 -0.61506498
1.5942261 1.5731586 -0.61529946
1.5960503 1.5833406 -0.61797571
1.6161889 1.6134267 -0.61515731
1.6240631 1.6348873 -0.61851567
1.6800047 1.6843429 -0.61794508
1.5930176 1.5519981 -0.61422598
1.5929152 1.5979023 -0.61329925
1.6096448 1.6262473 -0.61259663
1.6373565 1.6442013 -0.61246622
1.665552 1.674754 -0.61221737
1.5959189 1.5836079 -0.6067034
1.5980809 1.5973866 -0.60555267
1.6027783 1.6048363 -0.60964799
1.6230401 1.6122342 -0.60651195
1.6234848 1.6236968 -0.60677862
1.6299196 1.6339965 -0.6094231
1.5931371 1.55366 -0.60441053
1.592652 1.5626181 -0.60084879
1.5885053 1.574021 -0.60362142
1.6156132 1.6022882 -0.60347492
1.5998442 1.6117845 -0.60434765
1.5957875 1.5838753 -0.59543121
1.6022075 1.5937943 -0.59806687
1.6063895 1.6002734 -0.59882683
1.6067338 1.613838 -0.5950824
1.6067723 1.6257751 -0.5952912
1.6237959 1.6354315 -0.59557503
1.630232 1.6457779 -0.59817493
1.5996565 1.600109 -0.59225678
1.6159228 1.6139684 -0.59232336
1.6163656 1.6253777 -0.59258884
1.5925413 1.5746561 -0.58922613
1.6025146 1.6053733 -0.58701205
1.6300979 1.646051 -0.5866589
1.5952041 1.5869806 -0.58393943
1.5960933 1.5954074 -0.58442104
1.599221 1.6004714 -0.5845114
1.5993029 1.6120876 -0.58475548
1.6236622 1.6357036 -0.58410478
1.6060346 1.5890962 -0.57524359
1.5942154 1.5970997 -0.57547963
1.606117 1.6007657 -0.57548881
1.5925068 1.6103551 -0.57801729
1.6045104 1.6146936 -0.57584566
1.613314 1.6242607 -0.57857454
1.6032604 1.6282623 -0.57622045
1.6304101 1.6578324 -0.57541066
1.5926437 1.5761983 -0.57379162
1.5963989 1.6069394 -0.57341093
1.6235286 1.6359756 -0.57263452
1.6239734 1.6474382 -0.57290119
1.5922437 1.5750709 -0.56556678
1.5922817 1.5869014 -0.56577373
1.5923198 1.598732 -0.56598067
1.6091151 1.6273254 -0.56714201
1.6058984 1.5893424 -0.56357461
1.6059808 1.6010119 -0.56381983
1.5990316 1.6125777 -0.56152409
1.6026897 1.6172204 -0.56463933
1.6085421 1.616239 -0.55551416
1.6094233 1.6389509 -0.55604261
1.5921711 1.5989394 -0.55415112
1.6029966 1.6287992 -0.55358452
1.5926248 1.5780214 -0.5470469
1.5987322 1.5895903 -0.54942036
1.592788 1.6011623 -0.54753315
1.5928696 1.6127329 -0.54777634
1.6870939 1.708806 -0.54961777
1.6028647 1.6290677 -0.54226661
1.6092908 1.6392205 -0.54467893
1.6300075 1.6586518 -0.54086274
1.6721797 1.6871153 -0.54424858
1.5924897 1.5782654 -0.53547692
1.5925714 1.589836 -0.53572005
1.596005 1.6077416 -0.53959411
1.5964421 1.6190062 -0.5398562
1.6161431 1.6381409 -0.53576952
1.6235723 1.6482544 -0.53849036
1.6577365 1.6775645 -0.53916192
1.6794963 1.6981893 -0.53505033
1.6027329 1.6293361 -0.53094858
1.6650482 1.6884761 -0.53006661
1.5958736 1.6080089 -0.52832186
1.5963107 1.6192735 -0.52858394
1.6234387 1.6485264 -0.52702004
1.6298734 1.6589251 -0.52934676
1.6506084 1.6789761 -0.52508783
1.6085855 1.6284037 -0.52168739
1.6090261 1.6397595 -0.52195162
1.6371752 1.6695197 -0.52044982
1.5961794 1.6195409 -0.51731169
1.6237499 1.660261 -0.51581645
1.6579179 1.6898344 -0.51599121
1.6154344 1.6272733 -0.5126701
1.615877 1.6386826 -0.51293558
1.6163197 1.6500919 -0.51320106
1.6434814 1.680385 -0.51112032
1.6052995 1.6022428 -0.50547487
1.5956109 1.6085436 -0.50577736
1.6020303 1.6185627 -0.50804943
1.6300515 1.6709795 -0.50658256
1.6231714 1.6490705 -0.50407946
1.6236162 1.6605331 -0.50434613
1.6573268 1.6783986 -0.50399703
1.6018984 1.6188312 -0.49673152
1.6083207 1.6289427 -0.49896017
1.6087613 1.6402986 -0.49922439
1.6299174 1.6712527 -0.49506661
1.5968077 1.6056213 -0.49304557
1.6230378 1.6493425 -0.49260923
1.6234826 1.6608052 -0.49287593
1.6502005 1.6798064 -0.49008286
1.6026442 1.6417203 -0.48593992
1.5957854 1.620343 -0.48349488
1.5962224 1.6316078 -0.48375699
1.6159205 1.6509042 -0.47895005
1.6050553 1.6263204 -0.47095832
1.596091 1.631875 -0.47248474
1.6025124 1.6419888 -0.47462198
1.6153449 1.6397657 -0.46726766
1.6227705 1.6498867 -0.46966863
1.6232153 1.6613493 -0.46993533
1.6019416 1.6309469 -0.46304077
1.613626 1.6411116 -0.45504767
1.6226368 1.6501588 -0.45819831
1.6049702 1.6282866 -0.45205599
1.6018097 1.6312153 -0.45172283
1.5968033 1.6053005 -0.44806695
1.6048201 1.6284958 -0.44011974
1.6016779 1.6314838 -0.44040486
1.6021167 1.6427941 -0.44066805
1.6118895 1.642397 -0.44225502
1.611928 1.6543875 -0.44246477
1.597713 1.6028175 -0.43777847
1.6079668 1.6419159 -0.4310424
1.6117386 1.6426072 -0.43026546
1.6046699 1.6287051 -0.4281835
1.6222359 1.650975 -0.42378747
1.6078345 1.6421854 -0.41967875
1.6043741 1.6275512 -0.41261336
1.6114804 1.6394457 -0.41470852
1.6146797 1.6411197 -0.41018283
1.6221023 1.651247 -0.41231722
1.6155651 1.6639383 -0.41071373
1.6154599 1.2277536 -0.39612174
1.6088631 1.288008 -0.395596
1.6011504 1.6325576 -0.39513308
1.6145468 1.6413906 -0.39876586
1.6165385 1.1751189 -0.39318979
1.6169871 1.1866803 -0.39345878
1.6142107 1.2057019 -0.39297861
1.6085324 1.2411165 -0.39461064
1.6080364 1.2747698 -0.39369774
1.6136627 1.2821581 -0.3938348
1.6081818 1.2961798 -0.39257923
1.6252943 1.3206261 -0.39225051
1.6034801 1.3561585 -0.39212933
1.6302636 1.3554349 -0.39050099
1.6039227 1.3675678 -0.39239481
1.6223322 1.2263632 -0.38605016
1.6294255 1.236607 -0.38800398
1.622499 1.2500221 -0.38654736
1.6225824 1.2618515 -0.38679594
1.6100894 1.2715329 -0.38779446
1.6215534 1.2765639 -0.38554302
1.610128 1.2835233 -0.38800421
1.6297607 1.2841382 -0.3890028
1.6158209 1.298659 -0.38583088
1.6121171 1.3070369 -0.38682386
1.614982 1.3145814 -0.3857533
1.6159869 1.3222113 -0.38632581
1.6222353 1.3256929 -0.3851175
1.6140513 1.3340828 -0.38617668
1.6122217 1.3432599 -0.38744485
1.6135737 1.3540497 -0.38640967
1.6223967 1.364803 -0.38690931
1.603374 1.3667154 -0.3877807
1.6163192 1.369316 -0.38731566
1.6240296 1.3719389 -0.38619351
1.6034124 1.3786526 -0.38798952
1.6223302 1.3807932 -0.38869047
1.6072192 1.3897026 -0.38500291
1.6034509 1.3905898 -0.38819835
1.6164852 1.3928683 -0.38781059
1.6142783 1.4038354 -0.38685784
1.6143094 1.4159937 -0.38706207
1.6055902 1.6356755 -0.38742208
1.6144137 1.6416614 -0.38734889
1.621835 1.6517912 -0.38937664
1.6222798 1.6632538 -0.38964334
1.6164038 1.1753933 -0.3816205
1.6149904 1.1808975 -0.38335627
1.6150733 1.1926736 -0.38360372
1.6229146 1.204975 -0.38472533
1.6231816 1.2166933 -0.38498467
1.6121891 1.2479064 -0.38151553
1.6195439 1.2563238 -0.3835035
1.6199925 1.2678854 -0.38377249
1.6208895 1.2910084 -0.38431051
1.608493 1.3079143 -0.38137564
1.6217867 1.3141315 -0.38484851
1.6241932 1.3448529 -0.38455307
1.6252588 1.3571526 -0.38078189
1.6116061 1.3881524 -0.38324255
1.6253757 1.3934668 -0.38141713
1.6051178 1.4020665 -0.38177422
1.6254147 1.4055716 -0.3816289
1.6126114 1.4496238 -0.38163704
1.6039923 1.6056679 -0.38002077
1.6001409 1.6102054 -0.3832888
1.611058 1.6194671 -0.38188758
1.6029168 1.6263672 -0.38442191
1.618175 1.6521921 -0.38147908
1.6296221 1.2843888 -0.37712055
1.6252303 1.2937772 -0.37505573
1.6297897 1.3081543 -0.37761995
1.6171159 1.3202339 -0.37827849
1.6155398 1.3316841 -0.37598225
1.6262531 1.3347244 -0.37596828
1.6300411 1.3438028 -0.37836906
1.6289327 1.3468075 -0.37552345
1.6293831 1.3584145 -0.37579352
1.6301249 1.3556856 -0.37861875
1.6172709 1.3684092 -0.37912121
1.6210452 1.3694341 -0.37568361
1.6302087 1.3675684 -0.37886846
1.6298335 1.3700217 -0.37606359
1.610286 1.3796574 -0.37769261
1.6302925 1.3794512 -0.37911817
1.6210765 1.3816457 -0.37588871
1.6302837 1.381629 -0.37633365
1.6305552 1.3922851 -0.37798578
1.6308223 1.4040301 -0.37824565
1.6291704 1.4083874 -0.37812558
1.617426 1.4165844 -0.37996396
1.6292019 1.4206599 -0.37833172
1.603416 1.4266106 -0.37688854
1.604602 1.4326162 -0.37966064
1.6212016 1.4304919 -0.37670919
1.6142052 1.4405148 -0.37531337
1.6035538 1.5699421 -0.37638029
1.6044049 1.5949506 -0.37661669
1.6048918 1.6070731 -0.37527373
1.6109871 1.6284647 -0.37929526
1.6145405 1.6429079 -0.37573281
1.6212566 1.6406007 -0.37763965
1.6217014 1.6520633 -0.37790635
1.6221461 1.6635258 -0.37817305
1.623979 1.2191285 -0.37255272
1.6185119 1.2334752 -0.37139618
1.6222775 1.2384422 -0.37446985
1.6223609 1.2502716 -0.37471843
1.617646 1.2658694 -0.37275803
1.621417 1.2768259 -0.37384391
1.6119237 1.2951698 -0.37454352
1.6127348 1.3067365 -0.37361312
1.6143137 1.3180807 -0.37243861
1.622481 1.3236079 -0.37487906
1.613956 1.3432487 -0.37367958
1.6139871 1.355407 -0.37388378
1.6140805 1.3918817 -0.37449646
1.6094989 1.4174538 -0.37486112
1.6128067 1.422812 -0.37257236
1.6043689 1.5840476 -0.37476426
1.6178948 1.6094965 -0.37129197
1.6064236 1.6205516 -0.3736957
1.6068642 1.6319076 -0.37395993
1.6109457 1.6316679 -0.37010774
1.6299862 1.3559363 -0.36673647
1.63007 1.3678191 -0.36698619
1.6301538 1.3797019 -0.3672359
1.6304182 1.3925481 -0.36623716
1.6306853 1.4042931 -0.36649704
1.6231171 1.4060291 -0.36680678
1.6253015 1.4178886 -0.36973682
1.6344595 1.4156463 -0.36756462
1.6253405 1.4299934 -0.36994857
1.630489 1.427233 -0.36823469
1.6440911 1.42533 -0.36937284
1.6125007 1.4374621 -0.36925167
1.6441228 1.4377168 -0.36958089
1.6169472 1.4406765 -0.36679578
1.6361237 1.4476012 -0.36802024
1.6033912 1.5347171 -0.36540362
1.6103541 1.558375 -0.36609489
1.6055398 1.5708748 -0.36565167
1.6037652 1.5820029 -0.36766687
1.6146103 1.5839996 -0.36567679
1.6138048 1.5957597 -0.36680651
1.6152368 1.6058757 -0.36622477
1.6037467 1.6168664 -0.3656922
1.6109071 1.6196773 -0.36989799
1.6202334 1.6179476 -0.36563596
1.6161886 1.6259906 -0.36771411
1.6145371 1.6352513 -0.36642385
1.6075389 1.6443133 -0.36506525
1.6179544 1.6406643 -0.36945602
1.6211228 1.6408727 -0.36616936
1.6275483 1.6512408 -0.36785525
1.6279948 1.6627491 -0.36812302
1.6224926 1.1845825 -0.36012757
1.6238437 1.219404 -0.36093774
1.617244 1.254462 -0.36082733
1.6175098 1.2661308 -0.36108556
1.6153797 1.2756035 -0.3617847
1.6260954 1.2774398 -0.36228809
1.6154628 1.2873797 -0.36203218
1.6265457 1.2890471 -0.36255816
1.6225566 1.297839 -0.36388382
1.6283236 1.3045297 -0.36428297
1.6215171 1.3146803 -0.36170989
1.6223445 1.3238699 -0.36317995
1.6228068 1.3333275 -0.36462957
1.6162672 1.3425257 -0.36364132
1.6263826 1.3467091 -0.36450183
1.6119392 1.3557491 -0.36350507
1.6233114 1.3609263 -0.36278591
1.6119741 1.3678236 -0.36371207
1.62376 1.3724878 -0.3630549
1.612009 1.3798978 -0.36391908
1.6301484 1.3819045 -0.36471868
1.6120439 1.3919723 -0.36412603
1.6260028 1.4302953 -0.36439994
1.6210968 1.4551206 -0.36490896
1.6029273 1.5267416 -0.36197436
1.6033701 1.5447899 -0.36391461
1.603668 1.5554068 -0.363998
1.6040882 1.564041 -0.36101097
1.6109642 1.5719225 -0.36463171
1.607446 1.6079986 -0.36445525
1.6316911 1.6176084 -0.36034769
1.6232449 1.6266459 -0.36356768
1.6317749 1.6294912 -0.3605974
1.6328765 1.6379036 -0.36299667
1.6318587 1.641374 -0.36084709
1.6329156 1.6500616 -0.36320934
1.6399809 1.6642436 -0.36497611
1.6466465 1.6842558 -0.36154398
1.6183771 1.2337496 -0.35982689
1.6299312 1.3680696 -0.35510394
1.630015 1.3799525 -0.35535365
1.6170067 1.3808752 -0.3552461
1.6300988 1.3918353 -0.35560334
1.6170841 1.4049629 -0.35566744
1.6301826 1.4037181 -0.35585305
1.6251491 1.4181008 -0.35763299
1.6308153 1.4163013 -0.3550083
1.6373644 1.4267545 -0.35791564
1.6348298 1.4349535 -0.35877377
1.6322503 1.4433743 -0.35959378
1.6519831 1.4403678 -0.35890204
1.643985 1.4503121 -0.35740331
1.6104475 1.5239637 -0.35623038
1.6103296 1.5474221 -0.35538808
1.6140211 1.5829741 -0.35686111
1.6251817 1.5939729 -0.35500047
1.614149 1.5968119 -0.35593465
1.6107177 1.607897 -0.35769862
1.6251078 1.6055681 -0.35689312
1.6237056 1.615533 -0.35545057
1.6279607 1.6291018 -0.35654855
1.6281997 1.640992 -0.35678554
1.6294631 1.6542507 -0.35770565
1.6408215 1.6607522 -0.35958523
1.6294945 1.6665233 -0.3579118
1.6548822 1.6687965 -0.35598168
1.6412718 1.6723593 -0.35985526
1.6220012 1.2389412 -0.35081196
1.6221681 1.2626002 -0.35130912
1.6222515 1.2744297 -0.3515577
1.6264104 1.2893226 -0.35094315
1.6246812 1.305424 -0.3517583
1.6213822 1.3149548 -0.3501406
1.6257133 1.3235273 -0.35225737
1.6226686 1.333577 -0.35280061
1.6227521 1.3454065 -0.35304919
1.6298474 1.3561869 -0.35485423
1.6236252 1.3727622 -0.35148561
1.6300131 1.38218 -0.35310367
1.6137475 1.3922911 -0.35018218
1.6247967 1.3948883 -0.35461655
1.6228876 1.4069633 -0.35208535
1.6288656 1.421073 -0.35378891
1.625868 1.4305698 -0.35283062
1.6289599 1.4578905 -0.35440734
1.6095557 1.4648397 -0.35240188
1.6139345 1.4652405 -0.35140753
1.6156524 1.503594 -0.35149875
1.6097785 1.5259173 -0.3520385
1.6102583 1.5378722 -0.35357448
1.6211487 1.5408071 -0.35413441
1.6211799 1.5530187 -0.35433954
1.607156 1.5597827 -0.35153806
1.610418 1.5565857 -0.35406885
1.6178762 1.5609069 -0.35283223
1.6151141 1.5723039 -0.35490236
1.6230044 1.5860591 -0.3548438
1.6326061 1.6016425 -0.35020146
1.6326452 1.6138005 -0.35041413
1.6326844 1.6259587 -0.35062683
1.645676 1.6300987 -0.35177299
1.6327236 1.6381167 -0.3508395
1.6387403 1.6418564 -0.35049486
1.6376678 1.6520923 -0.3537465
1.6540009 1.6857724 -0.35112652
1.623258 1.2080723 -0.3490527
1.624609 1.2428939 -0.34986287
1.6200366 1.2802701 -0.34933361
1.6147295 1.3540581 -0.34947348
1.6149684 1.3658915 -0.34970948
1.6152858 1.3806096 -0.34659058
1.6249969 1.418313 -0.34552911
1.6346836 1.4351859 -0.3467274
1.6339417 1.4458017 -0.34540373
1.6173979 1.5496998 -0.34615272
1.6232543 1.564503 -0.34520209
1.6248087 1.5842543 -0.34596738
1.6267519 1.593585 -0.34542203
1.6320132 1.5927052 -0.34502736
1.6349514 1.6044841 -0.34741783
1.6387283 1.6162915 -0.3484416
1.633359 1.6273898 -0.34583437
1.6380224 1.6353586 -0.34695327
1.629295 1.6544573 -0.34543425
1.634256 1.6505128 -0.3463724
1.6363544 1.6698812 -0.34709755
1.6481167 1.6714671 -0.34979185
1.6627556 1.6713277 -0.34531119
1.6627955 1.6837144 -0.34552789
1.6708643 1.6985379 -0.34740093
1.622447 1.3219972 -0.3407231
1.6225305 1.3338265 -0.34097168
1.6226139 1.345656 -0.34122026
1.6226974 1.3574855 -0.34146884
1.6297925 1.3683203 -0.34322169
1.6298763 1.3802032 -0.34347141
1.6264223 1.3941164 -0.34309372
1.6300439 1.4039688 -0.34397081
1.624897 1.4069648 -0.34302035
1.6306782 1.4165642 -0.34325969
1.6286975 1.4212795 -0.34151751
1.6302115 1.4277344 -0.3444702
1.6272311 1.432198 -0.3414925
1.6260784 1.4551092 -0.34279671
1.6132686 1.4643703 -0.34269243
1.6207937 1.4677432 -0.34069318
1.6133294 1.4762535 -0.34292105
1.6101809 1.4882025 -0.34361157
1.6208563 1.4921664 -0.34110343
1.6096669 1.5002555 -0.34141859
1.6128691 1.5020297 -0.34192491
1.6208875 1.5043778 -0.34130856
1.6131108 1.513756 -0.34216312
1.6209189 1.5165894 -0.34151366
1.6098323 1.5237011 -0.34191129
1.6135429 1.5257339 -0.3416914
1.609915 1.535424 -0.34215763
1.6171061 1.5379548 -0.34338531
1.6209815 1.5410126 -0.34192392
1.6099976 1.5471468 -0.34240395
1.617098 1.5587281 -0.34417251
1.6263757 1.5579991 -0.34323311
1.623733 1.573742 -0.34492835
1.6291692 1.6053672 -0.34460968
1.6292007 1.6176398 -0.34481582
1.6525553 1.6305312 -0.34125969
1.6379433 1.6427393 -0.34340572
1.6456206 1.6423411 -0.34003606
1.6470108 1.6562839 -0.34393442
1.6528102 1.6666595 -0.34201887
1.6221133 1.2746792 -0.33972877
1.6165638 1.3755896 -0.33839697
1.6319444 1.4438006 -0.33527943
1.6132952 1.4465533 -0.33869496
1.6103402 1.5514703 -0.33955732
1.6312746 1.556738 -0.33505976
1.6346419 1.5669136 -0.33580047
1.6331286 1.5731999 -0.33543992
1.6327426 1.5843462 -0.33504453
1.636282 1.6049706 -0.33614841
1.639133 1.6153502 -0.33748785
1.6454515 1.6183622 -0.33953217
1.6378076 1.6244113 -0.3369295
1.6461711 1.6251019 -0.33703828
1.6441216 1.6365309 -0.33575296
1.6535968 1.6354361 -0.33880413
1.6441535 1.6489176 -0.33596101
1.6540512 1.6471498 -0.33907667
1.6545057 1.6588635 -0.33934921
1.6441852 1.6613044 -0.33616909
1.6536041 1.6739355 -0.33880162
1.6554147 1.6822909 -0.33989429
1.6776922 1.6883886 -0.33613169
1.6593074 1.6929469 -0.33959529
1.6777323 1.7008895 -0.33635035
1.6294861 1.3448055 -0.33084002
1.6296537 1.368571 -0.33133942
1.6297375 1.3804538 -0.33158913
1.6298213 1.3923366 -0.33183882
1.6251159 1.4057751 -0.33498991
1.6306431 1.4059453 -0.33041379
1.6274167 1.4173137 -0.33288175
1.6300727 1.4279851 -0.33258793
1.6248835 1.43063 -0.33363703
1.6301565 1.4398679 -0.33283764
1.6264956 1.4542415 -0.33023003
1.6311119 1.4538547 -0.33428973
1.6436456 1.4507291 -0.33263201
1.6162962 1.4647672 -0.33041719
1.6356487 1.4605494 -0.33125311
1.6250004 1.4669442 -0.33427227
1.6286552 1.4705762 -0.3300707
1.6157308 1.477265 -0.33432165
1.6170526 1.4896919 -0.33305636
1.623477 1.4878592 -0.33237427
1.6261393 1.4974051 -0.33155292
1.6287496 1.5073937 -0.33068913
1.6227158 1.5127399 -0.33148283
1.6229808 1.5244088 -0.33174098
1.6171689 1.5258232 -0.33368841
1.6245224 1.537375 -0.33445567
1.626369 1.545609 -0.33246237
1.6288754 1.5564837 -0.33151373
1.6353797 1.5944923 -0.3348482
1.6604363 1.6309917 -0.33084297
1.6605216 1.6430955 -0.3310973
1.6615834 1.6571786 -0.33203027
1.667712 1.6676434 -0.33303162
1.6706276 1.673861 -0.33451885
1.6677977 1.6798005 -0.33328709
1.6692404 1.6803451 -0.331065
1.6219351 1.3246558 -0.32808256
1.6223924 1.3340762 -0.32914272
1.6225593 1.357735 -0.32963988
1.6233556 1.373311 -0.328347
1.6238042 1.3848726 -0.32861602
1.6242528 1.3964341 -0.32888502
1.6251673 1.4183375 -0.32584706
1.6186622 1.433404 -0.32821986
1.6285609 1.4337586 -0.32945228
1.6191088 1.4449122 -0.3284876
1.614051 1.4697505 -0.32775804
1.6206577 1.4801602 -0.32868785
1.6149404 1.4926757 -0.32829145
1.6167194 1.5385259 -0.32935825
1.6171641 1.5499885 -0.32962492
1.6321828 1.5655946 -0.32524911
1.6386007 1.5750747 -0.32598409
1.6380407 1.5826794 -0.3253696
1.6387045 1.5931165 -0.32634169
1.6387663 1.6051903 -0.32657391
1.6460947 1.6168154 -0.32724044
1.6524779 1.6258563 -0.32575426
1.6474293 1.630385 -0.329294
1.6474688 1.6426573 -0.32950866
1.6221602 1.6473149 -0.32558051
1.6531914 1.6558747 -0.32637215
1.6618028 1.66969 -0.32934508
1.6591362 1.6931573 -0.32709536
1.6627158 1.693224 -0.32989264
1.6876831 1.6923046 -0.3254357
1.7016573 1.708426 -0.32845402
1.6225617 1.4067618 -0.32428339
1.629934 1.4282358 -0.32070565
1.6247703 1.4429469 -0.32174489
1.6300178 1.4401186 -0.32095537
1.6309661 1.4540865 -0.32227001
1.6240101 1.4658031 -0.32110828
1.6240714 1.4777703 -0.32133842
1.6156983 1.485558 -0.3245191
1.630353 1.4876497 -0.32195416
1.6304368 1.4995325 -0.32220387
1.6161625 1.5030425 -0.32489115
1.6169786 1.5139906 -0.32143486
1.6246777 1.5145593 -0.32465446
1.6305206 1.5114152 -0.32245356
1.6306044 1.523298 -0.32270327
1.6170174 1.5260345 -0.32164553
1.6249175 1.5264459 -0.32489154
1.6331787 1.5349463 -0.32156181
1.6314383 1.5441711 -0.3240132
1.6354594 1.5564526 -0.32407132
1.6437731 1.5670764 -0.3240135
1.6442255 1.5787369 -0.32428479
1.6518224 1.5779214 -0.32386222
1.6446779 1.5903974 -0.32455611
1.6518544 1.590369 -0.32407132
1.6451303 1.6020578 -0.3248274
1.6518862 1.6028168 -0.32428041
1.615514 1.6057193 -0.32373053
1.6519182 1.6152647 -0.32448947
1.663873 1.6329088 -0.32431626
1.6519819 1.6401601 -0.32490766
1.6635509 1.6455768 -0.32308939
1.6674844 1.6557429 -0.32061973
1.6725101 1.6649368 -0.32205099
1.6767888 1.6778109 -0.32202131
1.6746753 1.680452 -0.32250407
1.6765436 1.6913884 -0.32090583
1.6293473 1.3450561 -0.31895775
1.6225046 1.369814 -0.3180595
1.6296029 1.3818555 -0.31898278
1.6269002 1.3946478 -0.31863612
1.6215287 1.4061995 -0.31702596
1.6305078 1.4062208 -0.31879878
1.620334 1.4193081 -0.3154518
1.6309582 1.417828 -0.31906885
1.6283928 1.4339652 -0.31718087
1.6231544 1.4433428 -0.31712687
1.6233943 1.4552293 -0.31736395
1.6198676 1.4682018 -0.31750715
1.6244006 1.4752464 -0.31778711
1.6204904 1.4803659 -0.31647739
1.6152515 1.5044103 -0.31708789
1.6225466 1.5372512 -0.31911373
1.6258345 1.5465887 -0.31920883
1.6287073 1.5566902 -0.31924233
1.6460173 1.5822053 -0.31548119
1.654256 1.6053703 -0.31556684
1.6602095 1.6191434 -0.31848544
1.6463058 1.623992 -0.31720418
1.6528692 1.6242783 -0.3150883
1.6622845 1.6222156 -0.31967309
1.6647964 1.6339734 -0.31901318
1.6541648 1.6414136 -0.31888857
1.6672964 1.645975 -0.3168233
1.661209 1.6582023 -0.31729636
1.6616656 1.6699693 -0.31757015
1.6669625 1.6844714 -0.31586793
1.7014569 1.6959647 -0.31554934
1.6750243 1.7006987 -0.3175624
1.6977699 1.7067825 -0.31515241
1.7095243 1.7110887 -0.31724483
1.6830866 1.7170482 -0.31925896
1.7175921 1.7263345 -0.3189424
1.6316385 1.444227 -0.31096512
1.6246959 1.4673687 -0.31006455
1.6302142 1.4879004 -0.31007195
1.6247739 1.4915782 -0.31048805
1.6329362 1.4987588 -0.31493559
1.6248128 1.503683 -0.31069979
1.6349586 1.5128499 -0.31464228
1.632672 1.5250894 -0.31441286
1.6305494 1.5354315 -0.31107077
1.6351256 1.5447989 -0.31192422
1.6383729 1.5571282 -0.31357202
1.6431847 1.5556927 -0.31207386
1.639052 1.5674087 -0.31442529
1.6505967 1.5657097 -0.31372559
1.6378171 1.5709951 -0.31318319
1.6440895 1.5790136 -0.31261647
1.6516519 1.5781308 -0.31141561
1.6155288 1.593423 -0.31112978
1.6455669 1.5931154 -0.31477225
1.6516838 1.5905786 -0.31162471
1.6454467 1.6139951 -0.3134304
1.6587727 1.6183615 -0.31333554
1.6588047 1.6308625 -0.31354553
1.6301444 1.6397641 -0.31445551
1.675557 1.6650515 -0.31255284
1.6825544 1.6811624 -0.31180304
1.6933899 1.6809628 -0.31385601
1.6976825 1.694397 -0.31489214
1.6295438 1.392838 -0.30807433
1.6247315 1.4068556 -0.30579188
1.6271257 1.4177766 -0.30889565
1.6289942 1.4251928 -0.30676338
1.6223885 1.4313898 -0.30643788
1.629879 1.4403691 -0.30907315
1.6269485 1.454102 -0.3087557
1.6300466 1.4641348 -0.30957255
1.6216486 1.478256 -0.30736336
1.6245041 1.4935129 -0.30623344
1.6210728 1.5029997 -0.30679443
1.6215193 1.5145078 -0.30706221
1.6289175 1.5241594 -0.30870545
1.6293659 1.5357209 -0.30897444
1.6372113 1.5574913 -0.3051306
1.6670852 1.6195283 -0.30769688
1.6651434 1.6220366 -0.30519095
1.6657829 1.6336411 -0.30605698
1.6675889 1.6454452 -0.30658343
1.6722543 1.6467404 -0.30935735
1.6827505 1.6538422 -0.30551094
1.6746919 1.6561692 -0.30898833
1.6754838 1.6679231 -0.30847177
1.6827829 1.6665262 -0.30572399
1.6759446 1.6797967 -0.30874804
1.6764052 1.6916702 -0.3090243
1.6768659 1.7035438 -0.30930057
1.6828804 1.7045778 -0.30636317
1.7173487 1.7009478 -0.30568975
1.6989709 1.7247167 -0.30942339
1.6335788 1.513828 -0.30375794
1.636405 1.5230479 -0.30394164
1.6372353 1.5337821 -0.30330503
1.6371759 1.5452225 -0.30492026
1.6445242 1.5471843 -0.30205381
1.6500057 1.554274 -0.30173147
1.6446087 1.5591738 -0.30230576
1.6504601 1.5659877 -0.30200401
1.6539445 1.5710555 -0.30495781
1.6443233 1.5752268 -0.30175292
1.637762 1.5831831 -0.30149847
1.6526766 1.5863981 -0.30386126
1.6459322 1.5945702 -0.30358434
1.6561098 1.6056318 -0.30379498
1.6302695 1.6147923 -0.30158523
1.6522781 1.6128427 -0.30309418
1.638129 1.6320927 -0.30320716
1.6220803 1.635118 -0.30042425
1.697363 1.6698872 -0.30198666
1.6587616 1.6810771 -0.30188555
1.6894295 1.6818186 -0.30079913
1.7092819 1.6858227 -0.30405518
1.6975378 1.6946583 -0.30250719
1.7056469 1.7076197 -0.30421782
1.7077459 1.7115412 -0.30377018
1.6933531 1.7190523 -0.30189663
1.629405 1.3930887 -0.29619202
1.6269802 1.4180081 -0.29690254
1.6266161 1.4424982 -0.29666039
1.6268066 1.454348 -0.29690388
1.6324888 1.4648076 -0.29691914
1.6237197 1.466265 -0.29717547
1.6260395 1.4753875 -0.29531851
1.6308392 1.4845327 -0.29881781
1.6274369 1.4897493 -0.29632917
1.6264176 1.4937656 -0.29602647
1.6338398 1.4996291 -0.29772931
1.6246605 1.5038952 -0.29859591
1.6301593 1.5000339 -0.29843935
1.6356052 1.5110925 -0.29770002
1.6347406 1.5228436 -0.29826945
1.6351908 1.5344507 -0.29853952
1.6356412 1.5460579 -0.29880959
1.6698774 1.5873828 -0.29565474
1.6556348 1.5931175 -0.29647428
1.6699977 1.6247256 -0.29630795
1.6735028 1.6207106 -0.29548514
1.6755114 1.6358135 -0.29675925
1.6759923 1.6539373 -0.29714489
1.6823226 1.6670434 -0.2978752
1.6827854 1.6789703 -0.29815269
1.683248 1.6908971 -0.2984302
1.6837108 1.702824 -0.29870769
1.6272597 1.4078746 -0.29437122
1.6283081 1.5325584 -0.29428723
1.6443843 1.5474373 -0.2900649
1.6450598 1.5539227 -0.29416561
1.6514833 1.5592909 -0.29157245
1.6508865 1.5660791 -0.29452115
1.6618133 1.5731034 -0.29403505
1.6511297 1.5781598 -0.29476196
1.6516532 1.5833764 -0.29207855
1.6743873 1.5875173 -0.29041058
1.6557643 1.6044786 -0.2925624
1.6591084 1.6116928 -0.29265133
1.6619329 1.6102633 -0.2946851
1.6674511 1.6457257 -0.29475519
1.6973932 1.6949195 -0.29012224
1.7033401 1.7084877 -0.29108882
1.7129717 1.7111101 -0.29217342
1.713443 1.7232578 -0.29245606
1.6270802 1.4662147 -0.28583241
1.6323535 1.4650831 -0.28530413
1.6298529 1.4765189 -0.28605768
1.6323521 1.4847125 -0.28656653
1.6299367 1.4884017 -0.28630736
1.6337045 1.4999046 -0.28611431
1.6307744 1.5028641 -0.28713563
1.6362398 1.5132509 -0.28659362
1.635646 1.5232939 -0.28598425
1.6379563 1.5334466 -0.2889615
1.6425985 1.5355979 -0.28637022
1.6386662 1.5434141 -0.28957707
1.6424603 1.5445858 -0.28846595
1.65827 1.556277 -0.2872858
1.6583021 1.568778 -0.28749576
1.6375383 1.5714988 -0.28931203
1.6665114 1.5963438 -0.28607109
1.6583982 1.6062812 -0.28812572
1.6900898 1.6901265 -0.28772944
1.6975373 1.7011063 -0.28924352
1.6931942 1.7192736 -0.28927481
1.6275547 1.4423242 -0.28449622
1.6278207 1.4540462 -0.28475556
1.6339045 1.4751977 -0.28386775
1.6262574 1.493975 -0.28383887
1.6616575 1.5733206 -0.28164932
1.6595294 1.5835983 -0.28141299
1.6724429 1.5972452 -0.28305101
1.6659373 1.6105455 -0.28210187
1.6529139 1.6368262 -0.28019601
1.6603409 1.6472731 -0.28169772
1.7128301 1.7113985 -0.28001767
1.7282718 1.7216334 -0.28283861
1.6366413 1.4643254 -0.27511907
1.6367254 1.4762616 -0.27536988
1.6339461 1.5019903 -0.27530929
1.637706 1.5156376 -0.27653086
1.63447 1.5233946 -0.27503949
1.644075 1.5237113 -0.27757213
1.6385126 1.5436282 -0.27736661
1.6512578 1.5475022 -0.27927721
1.6571451 1.564904 -0.27978125
1.6661565 1.5720476 -0.2762863
1.6661888 1.5846095 -0.27649733
1.6822729 1.6035337 -0.2792933
1.7116688 1.6086527 -0.27838707
1.7053664 1.7041974 -0.27893949
1.6340233 1.4860874 -0.27375633
1.6348991 1.4985642 -0.27025065
1.6280645 1.5134212 -0.27372858
1.6429559 1.5137054 -0.27174404
1.6510128 1.5289686 -0.27323946
1.6363835 1.5344756 -0.27498958
1.6510766 1.553864 -0.27365765
1.6815187 1.5960401 -0.27318582
1.6657995 1.610826 -0.27027357
1.733681 1.6840881 -0.27084023
1.7276531 1.7096628 -0.27028331
1.7430981 1.7200146 -0.27299264
1.712217 1.6995393 -0.26757929
1.6337417 1.4549394 -0.26274091
1.6365019 1.4645773 -0.2631835
1.6325332 1.4772413 -0.26234424
1.6435969 1.4760065 -0.26457545
1.6348269 1.4886489 -0.26314971
1.6311831 1.4937119 -0.26318714
1.6374977 1.5037968 -0.2642256
1.6368387 1.5123217 -0.2641868
1.6343346 1.5236701 -0.26342449
1.641736 1.533479 -0.26485804
1.743434 1.7326843 -0.26089635
1.6427227 1.4891403 -0.25894228
1.6347303 1.4987717 -0.25792599
1.6427863 1.5139139 -0.25935841
1.7120754 1.6998276 -0.25542355
1.7195297 1.7110319 -0.25678283
1.7349708 1.7213255 -0.25937653
1.6493813 1.448534 -0.2520754
1.6388856 1.4637929 -0.25156191
1.6351836 1.4741523 -0.25119659
1.7582606 1.7311877 -0.25071037
1.7667321 1.7427838 -0.25217476
1.6506081 1.504492 -0.24792811
1.6576602 1.519405 -0.24915612
1.7348272 1.7216178 -0.24705321
1.644778 1.4385267 -0.2403979
1.6580812 1.4391199 -0.24205138
1.645756 1.4478059 -0.24017377
1.6364758 1.5008892 -0.24006478
1.6429785 1.4285545 -0.23958987
1.6504693 1.5171492 -0.23569061
1.6589656 1.4461837 -0.23093849
1.6424152 1.5019441 -0.23437899
1.6515743 1.436584 -0.22966988
1.6502988 1.5173588 -0.22324401
1.6573498 1.5323269 -0.22436625
1.651437 1.4368633 -0.21789494
1.6525021 1.4616371 -0.21674401
1.643206 1.5009971 -0.21712376
1.6476862 1.5210789 -0.21886244
1.6503848 1.5246868 -0.21856
1.6809491 1.4270267 -0.21289688
1.6809816 1.4397106 -0.21310994
1.6501282 1.5175683 -0.2107974
1.6512998 1.4371426 -0.20612001
1.6603637 1.4631441 -0.20538509
1.6522279 1.4248762 -0.2037724
1.6726918 1.3996603 -0.19887756
1.6727242 1.4122833 -0.19908959
1.6569753 1.5202466 -0.19915646
1.6724865 1.3872498 -0.18604374
1.6648554 1.5358417 -0.18772732
1.6565688 1.4956653 -0.17373665
1.6566007 1.5081663 -0.17394663
