# .PCD v0.7 - Point Cloud Data file format
VERSION 0.7
FIELDS x y z
SIZE 4 4 4
TYPE F F F
COUNT 1 1 1
WIDTH 1369
HEIGHT 1
VIEWPOINT 0 0 0 1 0 0 0
POINTS 1369
DATA ascii
1.6094522 0.57337582 -0.68607908
1.6184963 0.5198524 -0.67748916
1.618535 0.53189623 -0.67769986
1.5876392 0.69784546 -0.67872787
1.6048434 0.5077759 -0.67412102
1.5967047 0.52069771 -0.6709187
1.6045152 0.54975647 -0.67198789
1.6420653 0.50659961 -0.66749644
1.5942069 0.57705241 -0.66771019
1.5811884 0.68853414 -0.6658709
1.5819639 0.70181072 -0.66814607
1.6651196 0.35844111 -0.66342837
1.645635 0.36724138 -0.66132873
1.6651133 0.37106568 -0.66349524
1.6456985 0.39201492 -0.66174489
1.6570683 0.42085308 -0.66057068
1.6008084 0.52600718 -0.66162342
1.5871392 0.56673586 -0.66458595
1.5872004 0.5906105 -0.66498697
1.5969746 0.60909683 -0.66186911
1.5803155 0.65159786 -0.66306049
1.5803459 0.66348183 -0.6632601
1.5804373 0.69913387 -0.66385895
1.6376283 0.38239259 -0.65833265
1.6376915 0.40704423 -0.65874678
1.5896916 0.50925505 -0.65567756
1.5895853 0.52141368 -0.65582657
1.6009864 0.53950256 -0.65798414
1.5973748 0.56475687 -0.65735161
1.6189777 0.56470048 -0.6584627
1.6109518 0.57547164 -0.65527052
1.5904982 0.61493295 -0.65527058
1.5819012 0.67788976 -0.65602702
1.6650348 0.37113252 -0.65087092
1.6387943 0.37784463 -0.65096909
1.6420377 0.40707076 -0.65451968
1.6123323 0.43349788 -0.6514951
1.6420252 0.4319694 -0.65465158
1.6122246 0.44582409 -0.65164614
1.6157722 0.48726037 -0.65115511
1.6339746 0.49313951 -0.6517874
1.6339684 0.50552791 -0.65185302
1.6077256 0.51408976 -0.65217459
1.6133283 0.51544136 -0.65129554
1.6077197 0.52630258 -0.65228617
1.5869451 0.55499941 -0.65244919
1.5833552 0.58224201 -0.65173978
1.6039286 0.58631635 -0.65248489
1.5870368 0.59081137 -0.65305072
1.6039225 0.59847617 -0.65254933
1.5870675 0.60274875 -0.65325123
1.5800612 0.61614591 -0.65057868
1.5835826 0.65290511 -0.65297592
1.5827639 0.66528988 -0.65457273
1.6553831 0.35497946 -0.64588553
1.6374595 0.38260001 -0.64600796
1.6341243 0.39283931 -0.64707005
1.6375227 0.40725166 -0.64642203
1.6227088 0.42819333 -0.64510518
1.6227027 0.44052044 -0.64521778
1.5969474 0.47214752 -0.6458962
1.6007596 0.51561725 -0.6455366
1.6007905 0.52766126 -0.6457389
1.5799395 0.56860989 -0.64978021
1.5799699 0.58049393 -0.64997983
1.5888798 0.60747504 -0.64650476
1.6523027 0.31495962 -0.64058065
1.6537509 0.3392942 -0.64398181
1.6537386 0.36442077 -0.64421135
1.6457022 0.37750363 -0.64122981
1.6590428 0.37852269 -0.64470738
1.6419728 0.38223797 -0.64193881
1.6489834 0.39520299 -0.64474374
1.6227208 0.40353912 -0.64487994
1.6489772 0.40770566 -0.64480996
1.6489708 0.42020833 -0.64487618
1.6489646 0.43271101 -0.6449424
1.6419415 0.44448471 -0.64226854
1.5900257 0.46076873 -0.642923
1.616756 0.46276164 -0.64149213
1.5895996 0.50940323 -0.64351881
1.5824666 0.52212834 -0.64084089
1.5937862 0.54148412 -0.64312685
1.6038711 0.54990125 -0.64013207
1.603865 0.56206107 -0.6401965
1.6038589 0.5742209 -0.64026088
1.5902352 0.57964879 -0.64282
1.5902734 0.59147924 -0.64302695
1.5903114 0.60330981 -0.64323395
1.5818567 0.61799216 -0.64371741
1.5903494 0.61514038 -0.6434409
1.5818386 0.65396881 -0.64390802
1.5818326 0.66596103 -0.64397156
1.5818145 0.70193768 -0.64416212
1.5818086 0.71392989 -0.64422566
1.6649497 0.38382393 -0.63831341
1.6306336 0.40325397 -0.63565075
1.6122391 0.43364805 -0.63916886
1.6361583 0.43557894 -0.63573188
1.6258968 0.45514584 -0.63607025
1.6155434 0.4631485 -0.6385895
1.6258906 0.46747327 -0.63613552
1.6006007 0.47759128 -0.63686109
1.6155746 0.47530675 -0.63879371
1.6258844 0.4798007 -0.63620085
1.6156057 0.48746502 -0.63899797
1.6132993 0.50316203 -0.63902628
1.6005828 0.51406974 -0.6371944
1.6029603 0.52567095 -0.63657403
1.6005709 0.53838873 -0.63741654
1.6005648 0.55054826 -0.63752764
1.6054196 0.5617525 -0.63582742
1.5968361 0.58501208 -0.63752842
1.5826938 0.66427284 -0.63554043
1.5827032 0.67629182 -0.63556969
1.6302587 0.38522434 -0.63098627
1.633981 0.39299959 -0.63471389
1.6489055 0.39526919 -0.63224131
1.6155652 0.42854723 -0.63006753
1.6344025 0.42613375 -0.63472521
1.6138451 0.44339764 -0.63474977
1.5899336 0.46091688 -0.63076425
1.5898271 0.47307551 -0.63091314
1.5897207 0.48523414 -0.63106215
1.6120775 0.5149858 -0.63477123
1.5953043 0.56376827 -0.63422728
1.5854964 0.57401401 -0.63181341
1.597114 0.57705736 -0.63379353
1.5934772 0.59440255 -0.63439488
1.5888048 0.60753882 -0.6344595
1.5836303 0.61410266 -0.63193452
1.5887927 0.63162994 -0.63458711
1.5817701 0.64204007 -0.63185251
1.674886 0.30564368 -0.62547153
1.6440594 0.32929611 -0.6250751
1.6385758 0.34072495 -0.62573099
1.6439495 0.34185851 -0.625229
1.6455956 0.35261315 -0.62849963
1.6455895 0.36511546 -0.62861383
1.6430556 0.38740903 -0.62597334
1.6418828 0.40720254 -0.62962151
1.6418766 0.4196519 -0.62968749
1.6418703 0.43210125 -0.62975341
1.6176575 0.44843411 -0.62805343
1.6350127 0.44587022 -0.62501287
1.6075232 0.45324868 -0.62719208
1.6132447 0.47860852 -0.62676209
1.6338265 0.48088229 -0.62694538
1.6133209 0.51543128 -0.62674695
1.6038077 0.52564597 -0.62784368
1.6021284 0.53815281 -0.62658286
1.6037954 0.54996562 -0.62797248
1.6037893 0.56212544 -0.62803692
1.6037832 0.57428527 -0.62810129
1.5967546 0.59718263 -0.62548625
1.6441696 0.31673372 -0.6249212
1.6669084 0.31688946 -0.62247509
1.6305279 0.378591 -0.62303686
1.6371218 0.38301492 -0.62135845
1.6224923 0.39143714 -0.62011421
1.6361287 0.42312434 -0.62328744
1.6051168 0.43473673 -0.62412691
1.6361545 0.43557382 -0.62328231
1.6050093 0.44700962 -0.62427723
1.6003987 0.46669483 -0.62261641
1.6147344 0.46522909 -0.62332177
1.593459 0.4777303 -0.62198907
1.608375 0.4775551 -0.62393332
1.593453 0.48983648 -0.6220997
1.6084059 0.48966002 -0.62413669
1.5934471 0.50194263 -0.62221032
1.5958848 0.52449465 -0.62166858
1.5983597 0.5349943 -0.62090057
1.5983849 0.54715431 -0.62089556
1.5959167 0.5548408 -0.62177163
1.5887418 0.58351159 -0.6222865
1.5970027 0.58914959 -0.62211847
1.5887297 0.6076026 -0.62241411
1.585364 0.61025965 -0.62009889
1.5887176 0.63169372 -0.62254173
1.6287723 0.35711619 -0.61968637
1.6418239 0.3699204 -0.61697453
1.6418177 0.38236976 -0.61704051
1.6418115 0.39481911 -0.61710644
1.6174673 0.43660152 -0.6157999
1.617506 0.44864529 -0.61601055
1.5896287 0.48538226 -0.6189034
1.603738 0.51355052 -0.61561966
1.6037257 0.53787017 -0.61574847
1.5864545 0.55560219 -0.61664057
1.5853876 0.56207877 -0.61965871
1.5940633 0.56495738 -0.61567485
1.5870214 0.58487225 -0.61505997
1.5817074 0.61811912 -0.61973339
1.5816953 0.64210355 -0.61986047
1.5826433 0.65228069 -0.61746937
1.6440744 0.31688678 -0.61235869
1.6439643 0.32944918 -0.61251259
1.6360475 0.38577071 -0.61085331
1.6122684 0.40929598 -0.61421406
1.6337867 0.40661752 -0.61416352
1.6337805 0.41900593 -0.61422914
1.6257557 0.43062145 -0.61128527
1.6020749 0.45312288 -0.61380935
1.6003753 0.46565387 -0.61243218
1.613241 0.47860348 -0.61448783
1.6132663 0.49087772 -0.61448276
1.5933318 0.5020532 -0.61010474
1.6132919 0.50315195 -0.61447769
1.5933259 0.51415932 -0.61021531
1.6133173 0.51542622 -0.61447269
1.5967156 0.52460778 -0.61299521
1.5967034 0.54882073 -0.61312348
1.605387 0.54952914 -0.61140579
1.5870273 0.57282686 -0.61497307
1.5966792 0.59724671 -0.61337996
1.5886426 0.6317575 -0.6104964
1.6668782 0.30419859 -0.60979462
1.6669046 0.31688428 -0.60978937
1.6280684 0.39629269 -0.60785711
1.6280941 0.40868121 -0.60785198
1.6281197 0.4210698 -0.60784692
1.6323667 0.42956442 -0.60939902
1.6281455 0.43345833 -0.60784179
1.6180439 0.44553789 -0.60634232
1.6281711 0.44584686 -0.60783672
1.6107088 0.45359865 -0.60577184
1.6107028 0.46581182 -0.60583651
1.5933437 0.47784084 -0.60988349
1.6159761 0.47882003 -0.60556281
1.6001722 0.48009348 -0.60880107
1.5933378 0.48994702 -0.60999411
1.5931706 0.49412695 -0.60635251
1.598356 0.5349893 -0.60874057
1.5914257 0.56898266 -0.60605538
1.5914758 0.59319592 -0.60604542
1.6522372 0.29017437 -0.60240102
1.6207509 0.34631738 -0.60410917
1.6509745 0.351574 -0.60391325
1.6417527 0.35753697 -0.60445952
1.6139843 0.36377192 -0.603122
1.6510005 0.36413777 -0.60390812
1.6417464 0.36998633 -0.60452545
1.612499 0.37246752 -0.60143459
1.6430219 0.37489593 -0.60097277
1.6073267 0.38019475 -0.60209817
1.6337219 0.3819063 -0.6016441
1.6218874 0.38839775 -0.60348314
1.6073208 0.3924076 -0.60220975
1.6337157 0.39429471 -0.60170972
1.612283 0.39711997 -0.60173666
1.6073148 0.40462041 -0.60232133
1.6135314 0.40620866 -0.60149229
1.6172383 0.41272503 -0.60333556
1.62195 0.41282094 -0.60389334
1.617277 0.42476887 -0.60354626
1.6002716 0.44144589 -0.60005105
1.6201911 0.45600316 -0.6048407
1.6002595 0.46576488 -0.60027325
1.6202167 0.46833074 -0.60483563
1.6002536 0.47792438 -0.60038429
1.6002476 0.49008387 -0.6004954
1.6002417 0.50224334 -0.6006065
1.5966463 0.51256531 -0.60082477
1.5966402 0.52467179 -0.60088891
1.6440892 0.30447748 -0.59964228
1.6668743 0.30419338 -0.5971089
1.6439793 0.31703988 -0.59979618
1.6669006 0.31687906 -0.59710366
1.6360438 0.38576561 -0.59840381
1.6280646 0.39628759 -0.59546852
1.6228883 0.40635979 -0.59568042
1.6256851 0.41835928 -0.59889281
1.6281159 0.4210647 -0.59545833
1.6002775 0.42928642 -0.59993994
1.6186632 0.4300102 -0.59637809
1.6186509 0.4545584 -0.59650815
1.6000072 0.48029619 -0.59675813
1.6282443 0.48300737 -0.59543282
1.6044374 0.50109518 -0.59522426
1.5957563 0.51246715 -0.59735012
1.598327 0.52282435 -0.59658557
1.5983775 0.54714429 -0.59657556
1.598453 0.58362412 -0.59656054
1.589132 0.59399676 -0.59698409
1.6589228 0.32800302 -0.5942291
1.6288018 0.33252329 -0.59448493
1.6589489 0.34062773 -0.59422392
1.6206572 0.34646833 -0.59172189
1.6509707 0.35156882 -0.59134948
1.6416752 0.35760289 -0.59201038
1.6259806 0.3641535 -0.59449786
1.6509967 0.36413258 -0.59134436
1.6297228 0.37357152 -0.59396595
1.6152389 0.37978834 -0.59279931
1.6170868 0.41293615 -0.59129262
1.6171255 0.42497998 -0.59150332
1.6226635 0.43225104 -0.5935927
1.610639 0.44145015 -0.59349424
1.6106267 0.46587646 -0.59362358
1.620213 0.46832567 -0.59250796
1.6106206 0.47808963 -0.59368831
1.6106144 0.4903028 -0.59375298
1.5914221 0.56897765 -0.59394872
1.5914723 0.59319091 -0.59393877
1.6521416 0.29032817 -0.58977747
1.6439943 0.30463055 -0.58707976
1.6646733 0.30834377 -0.5874148
1.6125138 0.36029151 -0.58895743
1.6319156 0.36806288 -0.58747578
1.6053755 0.3738209 -0.58655596
1.6360142 0.37331095 -0.58595937
1.6348424 0.38386619 -0.58760512
1.6072046 0.39251912 -0.58999747
1.6146902 0.39101762 -0.58873558
1.6348522 0.39628515 -0.58763534
1.6039326 0.40530759 -0.58698034
1.6166728 0.41656753 -0.5865916
1.6126764 0.428397 -0.58528244
1.6158688 0.44205993 -0.58706176
1.613979 0.45368806 -0.58784258
1.6031951 0.46766132 -0.5869723
1.605253 0.48845258 -0.58700424
1.6052783 0.5006659 -0.58699924
1.5970645 0.51392013 -0.58612382
1.6668968 0.31687385 -0.58441794
1.658919 0.32799783 -0.58160436
1.6589451 0.34062254 -0.58159918
1.6295233 0.36150557 -0.58148843
1.6258507 0.3766129 -0.58235824
1.6268506 0.40738404 -0.58478755
1.6281122 0.42105964 -0.5830698
1.6281379 0.43344817 -0.58306468
1.6226177 0.44457078 -0.58148026
1.6138206 0.46363184 -0.5807516
1.5983233 0.52281934 -0.58442557
1.5983486 0.53497928 -0.58442056
1.5984493 0.58361912 -0.58440053
1.6600828 0.28874275 -0.57994473
1.6509669 0.35156366 -0.57878566
1.6204548 0.35900643 -0.57948625
1.6415976 0.35766879 -0.57956123
1.6429886 0.36238289 -0.57597214
1.6335738 0.36964905 -0.57680219
1.6430144 0.37488568 -0.57596701
1.6235515 0.38515812 -0.57655227
1.6348116 0.3963154 -0.57521653
1.6145548 0.40338045 -0.57678264
1.6216154 0.41323197 -0.57947236
1.6177258 0.41550666 -0.57550752
1.6099519 0.42862511 -0.57693505
1.6146171 0.42769694 -0.57719111
1.6177616 0.43368757 -0.57575071
1.6132044 0.46631411 -0.57767004
1.6035291 0.47726417 -0.5789476
1.6132298 0.47858834 -0.57766497
1.6043861 0.48893577 -0.57690144
1.6043957 0.50112236 -0.57693112
1.6565837 0.29568237 -0.5719614
1.6438992 0.30478361 -0.57451725
1.6565773 0.30824599 -0.57202798
1.666893 0.31686863 -0.57173222
1.656571 0.32080963 -0.5720945
1.6360362 0.38575539 -0.57350475
1.6255378 0.40616232 -0.57417303
1.6360878 0.41065437 -0.57349449
1.6281084 0.42105454 -0.57068121
1.6281341 0.43344307 -0.57067609
1.6252222 0.44441652 -0.57251763
1.6158385 0.45436412 -0.57481772
1.6052999 0.51287419 -0.57478082
1.6053252 0.52508754 -0.57477582
1.6509371 0.33899471 -0.56622702
1.6509631 0.35155851 -0.56622183
1.6415201 0.35773471 -0.56711215
1.6247302 0.38516462 -0.56960756
1.6214482 0.41343749 -0.56726193
1.6144506 0.42790157 -0.56503397
1.6201544 0.44366035 -0.56786287
1.6145129 0.45221806 -0.56544244
1.6201799 0.45598796 -0.5678578
1.6137896 0.46455622 -0.56707245
1.6104685 0.47821897 -0.56926244
1.6034473 0.48948836 -0.56685245
1.6132514 0.49085754 -0.56538564
1.6034412 0.50164819 -0.56691682
1.613277 0.50313181 -0.56538057
1.6748137 0.28012422 -0.56174874
1.6519506 0.29063579 -0.56453061
1.6429847 0.36237773 -0.56346929
1.6334966 0.36971465 -0.56441402
1.6360067 0.37330073 -0.56106037
1.6347615 0.38392666 -0.56276745
1.6143571 0.39142686 -0.5644213
1.6334842 0.39449146 -0.56454527
1.6430625 0.39988622 -0.56345385
1.6143882 0.40358508 -0.5646255
1.6360841 0.41064924 -0.56104499
1.6074529 0.44225901 -0.56280434
1.6052203 0.47622922 -0.56258261
1.6043657 0.51333857 -0.56477439
1.6043754 0.52552521 -0.56480408
1.658859 0.30273798 -0.55636525
1.6484823 0.30814755 -0.55676305
1.6668891 0.31686342 -0.55904651
1.6577021 0.32443178 -0.55794299
1.6589375 0.34061217 -0.55634964
1.6210957 0.35716349 -0.55642766
1.6148825 0.39239836 -0.55609179
1.616334 0.40472329 -0.55594742
1.6281047 0.42104945 -0.55829263
1.618434 0.43020514 -0.55955648
1.6281304 0.43343797 -0.5582875
1.6184278 0.44247925 -0.55962151
1.6201507 0.44365528 -0.55553526
1.6104046 0.4538573 -0.55692017
1.6281817 0.45821506 -0.55827731
1.6103985 0.46607047 -0.55698484
1.6282074 0.47060359 -0.55827224
1.6118073 0.47843093 -0.55508298
1.611817 0.49067461 -0.55511278
1.6917908 0.27004319 -0.55458677
1.6828135 0.28143683 -0.5516277
1.6204844 0.33453399 -0.55440819
1.6414552 0.33290192 -0.55453116
1.6509593 0.35155335 -0.55365807
1.6414427 0.3578006 -0.55466306
1.6429809 0.36237261 -0.55096644
1.6414363 0.37024996 -0.55472898
1.6334133 0.38216865 -0.55209148
1.6123381 0.41658285 -0.55469936
1.614284 0.42810619 -0.55287683
1.6748364 0.2928656 -0.54899687
1.6576381 0.30555591 -0.54532087
1.6218066 0.35513121 -0.54581708
1.6360029 0.37329561 -0.54861081
1.6280239 0.38387871 -0.54591936
1.6253904 0.39396542 -0.54945332
1.6360544 0.39819464 -0.54860055
1.6267297 0.40747431 -0.54771388
1.6281009 0.42104435 -0.5459041
1.6183575 0.43027014 -0.54728258
1.6281266 0.43343288 -0.54589897
1.6281779 0.45820996 -0.54588878
1.6282036 0.47059849 -0.54588372
1.6484107 0.29571107 -0.54419434
1.6588813 0.31535754 -0.54373527
1.6285338 0.32068193 -0.54453945
1.6465867 0.32456201 -0.54254282
1.6589075 0.32798228 -0.54373008
1.6203907 0.33468491 -0.54202092
1.6413776 0.33296782 -0.54208201
1.6509295 0.3389844 -0.54109943
1.6413651 0.35786653 -0.54221392
1.6413587 0.37031585 -0.54227984
1.6147656 0.39251041 -0.54381853
1.616225 0.41707426 -0.54386657
1.6157467 0.44214731 -0.54410243
1.6103225 0.46613511 -0.54477191
1.6117675 0.47846073 -0.54283941
1.6132439 0.49084747 -0.54083705
1.6748325 0.29286039 -0.53625011
1.6297208 0.34221864 -0.53598493
1.6333549 0.34506905 -0.53950649
1.6429513 0.3498646 -0.53846884
1.6359732 0.36084104 -0.53616637
1.6359991 0.37329051 -0.5361613
1.6253198 0.38170326 -0.53706074
1.6360248 0.38574004 -0.53615618
1.6182811 0.4303351 -0.53500873
1.6563491 0.2958819 -0.5342713
1.6575971 0.30558658 -0.53272676
1.6588774 0.31535235 -0.53111047
1.6284397 0.32083359 -0.53209114
1.6589036 0.32797709 -0.53110528
1.6216893 0.35524374 -0.53349048
1.6208524 0.37741929 -0.53001523
1.6280459 0.39626217 -0.53352571
1.6182934 0.40578687 -0.53487873
1.6280715 0.4086507 -0.53352058
1.6226966 0.41883779 -0.53407341
1.6201177 0.43131757 -0.5308851
1.6201687 0.45597276 -0.53087497
1.6201943 0.46830034 -0.5308699
1.6413063 0.32058439 -0.52956694
1.6509256 0.33897924 -0.5285356
1.6332778 0.34513462 -0.52711833
1.6429474 0.34985948 -0.52596599
1.6332716 0.35752302 -0.52718395
1.6346173 0.36537367 -0.52548325
1.6332591 0.38229981 -0.5273152
1.6132402 0.49084243 -0.52856272
1.6436288 0.29283354 -0.5241133
1.6668251 0.2914764 -0.52099979
1.6642802 0.30867797 -0.52429307
1.635375 0.31957263 -0.52187276
1.6562581 0.32107568 -0.52184099
1.6296091 0.32994372 -0.52348429
1.6352654 0.33207411 -0.52202594
1.6296029 0.34233177 -0.52359748
1.6295968 0.35471982 -0.52371067
1.6359954 0.37328538 -0.5237118
1.6280164 0.38386855 -0.52114218
1.6280421 0.39625707 -0.52113712
1.6280677 0.4086456 -0.52113199
1.6280934 0.42103419 -0.52112693
1.6281961 0.47058833 -0.52110654
1.6588475 0.30272242 -0.51849097
1.6284544 0.30853716 -0.51949036
1.6508697 0.3138465 -0.51598209
1.6508957 0.32641029 -0.51597697
1.6412226 0.33309963 -0.51718384
1.6412101 0.35799834 -0.51731575
1.6331695 0.40714222 -0.51505828
1.620114 0.4313125 -0.51855743
1.620165 0.45596769 -0.5185473
1.6202161 0.48062289 -0.51853716
1.6850638 0.23275 -0.51078534
1.6435337 0.2929866 -0.51155078
1.6433136 0.31811136 -0.51185858
1.6294912 0.33005685 -0.51109678
1.6359141 0.33593184 -0.51127756
1.629485 0.34244487 -0.51120996
1.6332006 0.34520021 -0.51473016
1.6429436 0.34985435 -0.51346314
1.6294789 0.35483292 -0.51132315
1.6345769 0.36540389 -0.51306438
1.6251664 0.38183379 -0.51240635
1.6251602 0.39416122 -0.51247168
1.6251478 0.41881612 -0.51260227
1.6759112 0.24778199 -0.50821757
1.6677639 0.26244485 -0.50595093
1.6668473 0.3041569 -0.50830889
1.6353898 0.30722356 -0.5092181
1.6561862 0.30857855 -0.50921106
1.627987 0.37147489 -0.50875878
1.6280127 0.38386345 -0.50875366
1.6280897 0.42102909 -0.5087384
1.6931155 0.21799335 -0.50011301
1.6508659 0.31384134 -0.50341833
1.6420197 0.32277989 -0.5028196
1.6411451 0.33316556 -0.50473469
1.650918 0.3389689 -0.50340801
1.6420393 0.34773207 -0.50288045
1.6331173 0.35765418 -0.50240767
1.6265609 0.39523923 -0.50444651
1.6265707 0.40759721 -0.50447661
1.625071 0.41888139 -0.50027508
1.6265901 0.43231323 -0.50453681
1.6849663 0.23290685 -0.49791044
1.6435487 0.2805773 -0.49883434
1.6434386 0.29313967 -0.49898824
1.6352952 0.30737588 -0.49671653
1.6359619 0.36082569 -0.4988178
1.6280088 0.38385835 -0.49636504
1.6280346 0.39624688 -0.49635994
1.6280602 0.40863541 -0.49635485
1.6280859 0.42102399 -0.49634975
1.6677792 0.24985495 -0.49304938
1.6596329 0.26445606 -0.490843
1.6588398 0.30271205 -0.49324137
1.6508621 0.31383619 -0.49085447
1.6508881 0.32639998 -0.49084929
1.6410675 0.33323145 -0.49228561
1.6509142 0.33896375 -0.49084413
1.6410612 0.3456808 -0.49235153
1.6509402 0.35152754 -0.49083897
1.6330401 0.35771978 -0.49001944
1.6514878 0.27893537 -0.48863518
1.6433434 0.29329276 -0.48642579
1.6359582 0.36082056 -0.48636827
1.6359841 0.37327003 -0.48636314
1.6758294 0.2352879 -0.48244798
1.658836 0.30270687 -0.48061663
1.6508583 0.31383103 -0.47829065
1.6409962 0.32084802 -0.47977051
1.6508843 0.32639483 -0.47828546
1.6419482 0.33531675 -0.47789803
1.6409837 0.34574673 -0.47990239
1.6509364 0.35152239 -0.47827515
1.6359544 0.36081547 -0.47391877
1.6676979 0.23742029 -0.46740255
1.6601241 0.28970861 -0.46988374
1.6588322 0.30270168 -0.46799186
1.6588583 0.31532642 -0.46798667
1.6409187 0.32091391 -0.46732143
1.6508805 0.32638967 -0.46572167
1.6419075 0.33534712 -0.46542206
1.6429285 0.34983379 -0.46345159
1.6756356 0.23559999 -0.45683542
1.6600039 0.28982389 -0.45726004
1.6668057 0.29145035 -0.45757121
1.6588284 0.3026965 -0.45536709
1.6588545 0.31532124 -0.4553619
1.6508766 0.32638448 -0.45315784
1.6429247 0.34982866 -0.45094875
1.6926105 0.23155949 -0.44852829
1.6598837 0.28993917 -0.44463637
1.6668019 0.29144514 -0.44488549
1.6553404 0.30306554 -0.44268814
1.6654866 0.30011445 -0.4433873
1.6508468 0.31381553 -0.44059923
1.6508728 0.32637933 -0.44059405
1.6748016 0.29281849 -0.43427679
1.6557231 0.29641402 -0.4337641
1.651737 0.30355448 -0.43007123
1.6668243 0.30412561 -0.43219456
1.6716768 0.28401008 -0.42519501
1.6545019 0.29096329 -0.42926639
1.650843 0.31381038 -0.42803541
1.6636577 0.29658806 -0.42323145
1.6529562 0.30760115 -0.42413419
1.6596497 0.27754548 -0.41927373
1.6596435 0.29016972 -0.41938907
1.6588168 0.30268094 -0.41749281
1.6588429 0.31530568 -0.41748762
1.6643479 0.28600281 -0.41429743
1.663579 0.29665491 -0.41060713
1.6571867 0.30589321 -0.40678596
1.7003646 0.21722144 -0.39849931
1.6651435 0.29407305 -0.39606273
1.6667602 0.27873859 -0.39414787
1.6593847 0.58041477 -0.39212903
1.6514565 0.61532569 -0.39021993
1.6833502 0.26209766 -0.38672149
1.6832938 0.53752023 -0.38502321
1.6518918 0.54629618 -0.38565999
1.6519314 0.55862176 -0.38587561
1.6519711 0.57094747 -0.3860912
1.6520108 0.58327311 -0.38630682
1.6453753 0.64825875 -0.38591406
1.6555648 0.81851226 -0.38642079
1.6840894 0.23431876 -0.38203675
1.6673075 0.27689576 -0.38321468
1.666809 0.30410478 -0.3814517
1.6672295 0.50707579 -0.38136819
1.6752615 0.52223718 -0.38319573
1.6753143 0.54773045 -0.38318524
1.6673348 0.55781853 -0.3813473
1.6673874 0.58318996 -0.38133687
1.6674136 0.59587562 -0.38133165
1.6674662 0.62124699 -0.38132119
1.6674925 0.63393271 -0.38131598
1.6675187 0.64661837 -0.38131076
1.640317 0.78982651 -0.38209254
1.6404861 0.8138054 -0.38259643
1.6922479 0.26102671 -0.37588415
1.6591978 0.49203643 -0.37954062
1.6746554 0.49970919 -0.37785706
1.6746957 0.51221001 -0.37807575
1.6677241 0.52759486 -0.37671947
1.67124 0.5253039 -0.37573063
1.6747762 0.53721184 -0.3785131
1.6748165 0.54971272 -0.37873179
1.6655273 0.56345463 -0.37575561
1.65987 0.58043718 -0.37578627
1.6595379 0.65615797 -0.37947309
1.653353 0.66333377 -0.3752563
1.6515828 0.67813945 -0.37763026
1.6516088 0.69070321 -0.37762508
1.6596426 0.70665687 -0.37945232
1.7001679 0.21753815 -0.37250578
1.7000539 0.23053479 -0.37266499
1.6832219 0.2750217 -0.37403199
1.6713545 0.29696426 -0.37452102
1.6828122 0.30697834 -0.37231046
1.6984946 0.47699445 -0.37034592
1.6921897 0.48886392 -0.37423
1.6654229 0.49455047 -0.37493518
1.6922164 0.5017401 -0.37422472
1.6590574 0.50524276 -0.37085512
1.6641184 0.51320517 -0.37274015
1.692243 0.51461631 -0.37421942
1.6590512 0.51786697 -0.37097046
1.6570133 0.5295074 -0.3700664
1.6922697 0.52749246 -0.37421411
1.659045 0.53049123 -0.37108579
1.6632229 0.53672254 -0.37400475
1.6570452 0.5420084 -0.37027639
1.6922964 0.54036856 -0.37420881
1.6651361 0.54637378 -0.37351769
1.6570773 0.55450952 -0.37048638
1.6923231 0.55324477 -0.37420353
1.6833431 0.5631302 -0.37220508
1.6584969 0.56771976 -0.37387919
1.6632038 0.57459629 -0.37420538
1.6631975 0.58722085 -0.37427226
1.6631912 0.59984541 -0.37433913
1.6754162 0.59871179 -0.37041762
1.655212 0.60565299 -0.37475312
1.6527063 0.63340557 -0.37147427
1.6551554 0.64852822 -0.37281063
1.6471326 0.67171812 -0.37114713
1.6668839 0.34215662 -0.36875033
1.6823893 0.45882607 -0.36643478
1.6671468 0.46901348 -0.36869815
1.6824297 0.47138792 -0.36665455
1.690523 0.49309486 -0.36883089
1.6569492 0.50450528 -0.36964646
1.682551 0.50907338 -0.36731377
1.6652412 0.57258105 -0.36511874
1.6652513 0.58523619 -0.36514956
1.667436 0.60855615 -0.36864072
1.6526575 0.61465132 -0.3650215
1.6674622 0.62124181 -0.36863551
1.6674886 0.63392752 -0.36863029
1.6675148 0.64661318 -0.36862507
1.6515529 0.6655705 -0.36507165
1.651579 0.67813426 -0.3650665
1.6596125 0.69402695 -0.36683279
1.651631 0.70326185 -0.36505616
1.6921253 0.26114428 -0.3630091
1.6882663 0.2667917 -0.36005685
1.6831001 0.27513865 -0.36122549
1.6830938 0.28794572 -0.36134249
1.6830875 0.30075282 -0.36145949
1.6918123 0.30859235 -0.36142799
1.6712564 0.33508801 -0.36203733
1.7001643 0.47821426 -0.36307007
1.67118 0.48731443 -0.36284372
1.7001911 0.49115136 -0.36306474
1.6711737 0.49999997 -0.36291093
1.700218 0.5040884 -0.36305943
1.6791775 0.51383084 -0.36470965
1.6922392 0.51461101 -0.36134323
1.6711609 0.52537107 -0.36304533
1.6922659 0.52748716 -0.36133793
1.6595547 0.53110778 -0.3625339
1.6711545 0.53805661 -0.36311254
1.6922926 0.54036325 -0.36133263
1.663138 0.54941392 -0.3614473
1.6923193 0.55323946 -0.36132735
1.6631317 0.56203854 -0.36151418
1.6550899 0.6234675 -0.36011416
1.6838944 0.23463249 -0.35628697
1.6882336 0.25404686 -0.35984275
1.6849896 0.28293401 -0.35596305
1.6849997 0.2957415 -0.35599434
1.6748312 0.3182804 -0.3577863
1.6723632 0.32373601 -0.35755995
1.674884 0.34377363 -0.35777584
1.6669589 0.38020846 -0.356049
1.6669853 0.39289412 -0.35604379
1.6902016 0.44282508 -0.35532585
1.6647004 0.4649004 -0.35820442
1.6902829 0.46807063 -0.35576746
1.6983351 0.47721684 -0.35766312
1.6647969 0.50258642 -0.35883746
1.6589186 0.54323071 -0.35857749
1.6833392 0.56312495 -0.35939747
1.6753595 0.57321322 -0.35768142
1.6753858 0.58595979 -0.35767618
1.6551025 0.59834027 -0.35998106
1.6674058 0.59586519 -0.35596028
1.6754386 0.61145312 -0.35766569
1.6754651 0.62419981 -0.35766044
1.6674848 0.63392228 -0.3559446
1.667511 0.64660794 -0.35593939
1.6469469 0.77473336 -0.35941881
1.6997046 0.25827795 -0.35022339
1.6920028 0.26126185 -0.35013399
1.6792197 0.27171507 -0.35068044
1.6919965 0.2741375 -0.35025162
1.6741397 0.43764305 -0.35176378
1.6791238 0.46291238 -0.35169327
1.7001336 0.4652718 -0.35013825
1.6871275 0.47662169 -0.35343042
1.7081654 0.48044062 -0.35178295
1.687121 0.48942912 -0.35349825
1.6823525 0.49673176 -0.35453311
1.6710948 0.50006711 -0.35022566
1.6710883 0.51275265 -0.35029286
1.6673709 0.51558375 -0.35160848
1.671082 0.52543819 -0.35036007
1.7002945 0.54289448 -0.3501063
1.6710693 0.55080926 -0.35049444
1.6595303 0.6561476 -0.35422358
1.6595564 0.66877228 -0.35421839
1.6516272 0.70325667 -0.35249236
1.6880264 0.24151653 -0.34688503
1.6800439 0.25754762 -0.34548855
1.6858315 0.26377252 -0.34552038
1.6917284 0.26995859 -0.34856769
1.6815404 0.28548899 -0.34722531
1.6939653 0.29660991 -0.34501755
1.6828849 0.30391878 -0.34767413
1.6739761 0.31469616 -0.34563503
1.6802064 0.32096702 -0.3465538
1.6717 0.33586329 -0.34725112
1.6727687 0.34693447 -0.34660354
1.6711584 0.3732118 -0.34955367
1.6749858 0.39475495 -0.34500819
1.706063 0.43572968 -0.34592551
1.6726851 0.45244354 -0.34565216
1.6726452 0.4651581 -0.34583664
1.6645606 0.47767389 -0.34585458
1.6921819 0.48885334 -0.34847763
1.6668392 0.49289137 -0.34713101
1.6922086 0.50172955 -0.34847236
1.6922352 0.5146057 -0.34846705
1.6646571 0.51535988 -0.34648761
1.6922619 0.52748185 -0.34846175
1.6630657 0.53685617 -0.34875605
1.6923153 0.55323416 -0.34845117
1.663053 0.56210536 -0.3488898
1.6833353 0.56311965 -0.34658986
1.6630466 0.57472992 -0.34895667
1.6630403 0.58735454 -0.34902355
1.7230861 0.23164809 -0.34481496
1.7169365 0.24501884 -0.34203818
1.7167341 0.27387971 -0.34065852
1.6939552 0.28373379 -0.34498608
1.7167882 0.30001298 -0.34064776
1.6819115 0.40901929 -0.34043404
1.6750387 0.42024824 -0.3449977
1.6819923 0.43414295 -0.34087351
1.6960651 0.46489698 -0.34236467
1.6870477 0.47668946 -0.34062323
1.6753557 0.57320797 -0.34493476
1.675382 0.58595455 -0.34492952
1.667402 0.59586 -0.34327456
1.6674284 0.60854572 -0.34326932
1.6754613 0.62419456 -0.34491378
1.6674809 0.63391709 -0.34325889
1.6675072 0.64660275 -0.34325367
1.6595263 0.65614241 -0.34159881
1.659631 0.70664132 -0.34157804
1.7561817 0.21840417 -0.33975196
1.7048821 0.23462069 -0.33743206
1.6998963 0.26032519 -0.33882648
1.7049481 0.26036936 -0.33786458
1.6998899 0.27326179 -0.33894467
1.7125486 0.27094096 -0.33559161
1.6918677 0.28713071 -0.33749419
1.705047 0.29899234 -0.33851334
1.6918614 0.30000639 -0.33761185
1.6860055 0.31406221 -0.33704352
1.7078114 0.31146038 -0.33885437
1.684978 0.32480055 -0.33794481
1.6918311 0.32145792 -0.33567032
1.6791083 0.33551499 -0.33827183
1.6791019 0.34826148 -0.33833936
1.6918845 0.34721023 -0.33565974
1.6764183 0.36193249 -0.33817935
1.6919111 0.36008641 -0.33565444
1.6724303 0.37431842 -0.33751941
1.6919378 0.37296256 -0.33564913
1.6724472 0.38691163 -0.33766237
1.6710666 0.39864999 -0.33700278
1.6710602 0.41133556 -0.33706999
1.6744885 0.42280221 -0.33564812
1.6759052 0.45254934 -0.33515954
1.6920979 0.45021957 -0.33561736
1.7139945 0.45790708 -0.3351796
1.6921246 0.46309575 -0.33561206
1.6735598 0.46528554 -0.33521986
1.7001565 0.47820362 -0.33719578
1.6790316 0.48847282 -0.33908209
1.7001833 0.49114072 -0.33719045
1.6790252 0.50121933 -0.33914962
1.6922313 0.51460046 -0.33559087
1.692258 0.52747661 -0.33558556
1.6651375 0.54512233 -0.33789796
1.6629745 0.56217217 -0.33626544
1.662968 0.5747968 -0.33633232
1.6548703 0.74923682 -0.33565292
1.6517535 0.76607049 -0.3399027
1.6917293 0.23297805 -0.33210596
1.7229829 0.23174261 -0.33171862
1.6916161 0.24591374 -0.33226445
1.6878844 0.25447589 -0.33435541
1.6915028 0.25884941 -0.33242291
1.6833613 0.27357045 -0.3310104
1.7298815 0.27664322 -0.33008558
1.6832485 0.28644517 -0.33116814
1.7045496 0.28543416 -0.33418691
1.6831357 0.29931992 -0.33132586
1.685467 0.3317613 -0.33475846
1.6800976 0.34654826 -0.33429721
1.6829598 0.38380811 -0.33385596
1.6829863 0.39661571 -0.33385068
1.6830128 0.40942329 -0.33384544
1.7059027 0.43595308 -0.33318177
1.6831986 0.4990764 -0.33380854
1.682718 0.53617847 -0.33193165
1.6833048 0.55030686 -0.33378747
1.6753253 0.56045604 -0.33219334
1.6753517 0.57320273 -0.3321881
1.6753781 0.5859493 -0.33218285
1.6754045 0.59869605 -0.33217761
1.6754309 0.61144263 -0.33217236
1.6754574 0.62418932 -0.33216712
1.6675032 0.6465975 -0.33056796
1.6675296 0.65928322 -0.33056274
1.6675558 0.67196888 -0.33055753
1.6675822 0.68465459 -0.33055231
1.6676084 0.69734025 -0.33054709
1.7297477 0.22438407 -0.32920778
1.7041044 0.24593934 -0.32987118
1.7168121 0.24513814 -0.32897267
1.7168057 0.25820425 -0.32909206
1.727277 0.26279083 -0.32949591
1.6997668 0.27337992 -0.32600868
1.6997604 0.28631651 -0.32612687
1.7167571 0.28694096 -0.32758644
1.6960688 0.29757705 -0.32860219
1.7128849 0.29616874 -0.32713294
1.7167841 0.30000761 -0.32758108
1.6979051 0.31132138 -0.32751679
1.7049037 0.31208336 -0.32585645
1.7168112 0.31307423 -0.32757571
1.6870451 0.32306802 -0.32700184
1.7078344 0.32445312 -0.3258509
1.6958756 0.33694863 -0.32607123
1.6946255 0.3457776 -0.32542157
1.6939719 0.3610191 -0.32586074
1.6896403 0.36753112 -0.32875732
1.6790099 0.37382194 -0.32572815
1.6816726 0.38411587 -0.32743368
1.6790035 0.38656843 -0.32579568
1.678997 0.39931491 -0.32586318
1.6789907 0.41206139 -0.32593071
1.6817938 0.42180133 -0.3280929
1.6898435 0.43064499 -0.32986137
1.6869808 0.45114243 -0.32768029
1.6882651 0.47135255 -0.3252511
1.6789523 0.48854029 -0.32633585
1.6650569 0.56402475 -0.32561368
1.667258 0.57825798 -0.32780394
1.6596272 0.70663613 -0.3289533
1.6597056 0.74451029 -0.32893771
1.7517655 0.21371779 -0.3219859
1.7290666 0.21933624 -0.3214232
1.7086933 0.22895491 -0.32237425
1.7290601 0.23246367 -0.32149276
1.6995466 0.24416485 -0.3208372
1.7209049 0.24343398 -0.32391697
1.7084644 0.25508529 -0.32269436
1.7209183 0.25646532 -0.32406071
1.7083499 0.26815048 -0.32285443
1.722882 0.27349409 -0.32467008
1.7210178 0.29799038 -0.32035825
1.6917388 0.30012393 -0.32473677
1.6938233 0.32705808 -0.32468155
1.6840864 0.3559911 -0.32460883
1.6919339 0.37295729 -0.32277292
1.6919606 0.38583347 -0.32276765
1.6829824 0.39661047 -0.32104307
1.6823812 0.40932879 -0.3244555
1.7057424 0.43617654 -0.32043809
1.6733997 0.45276541 -0.32237196
1.692094 0.4502143 -0.32274115
1.6755826 0.46313649 -0.32411385
1.6831151 0.46064839 -0.32101673
1.6709493 0.47483039 -0.32472068
1.7001525 0.47819832 -0.32425863
1.6802814 0.48628446 -0.32395813
1.6921741 0.48884276 -0.32272524
1.671617 0.50064802 -0.32375905
1.6922008 0.50171894 -0.32271996
1.6709303 0.512887 -0.32492229
1.6922274 0.51459515 -0.32271466
1.6832479 0.5246864 -0.32099038
1.6832744 0.53749394 -0.32098511
1.683301 0.55030161 -0.32097986
1.6834337 0.61433953 -0.32095352
1.6834602 0.62714714 -0.32094824
1.7349768 0.22490287 -0.31803128
1.737615 0.23438573 -0.3177914
1.7246475 0.23574258 -0.3160089
1.7247025 0.24414335 -0.31735224
1.7271659 0.25400198 -0.31702763
1.7337053 0.26334268 -0.31764913
1.7337327 0.27653882 -0.3176437
1.6911781 0.2848784 -0.31980404
1.7120138 0.28486821 -0.31862193
1.7227221 0.28430194 -0.31569982
1.6830382 0.2994768 -0.31845102
1.7247835 0.30138057 -0.31598189
1.6829255 0.31235152 -0.31860876
1.7144041 0.31196642 -0.31663436
1.705918 0.33700621 -0.31513083
1.703972 0.34950352 -0.31748271
1.7039655 0.36244047 -0.31755126
1.6959499 0.37490126 -0.31613567
1.6882448 0.39648923 -0.31558943
1.6976113 0.40178162 -0.31828362
1.6896441 0.41824353 -0.31701872
1.6750309 0.42023778 -0.31950438
1.6750573 0.43298441 -0.31949914
1.6882961 0.43463454 -0.3160224
1.6959112 0.45215732 -0.31654492
1.6897659 0.45611185 -0.31768113
1.6978154 0.46520019 -0.31939301
1.6739899 0.53830767 -0.3160134
1.6753215 0.56045079 -0.31944668
1.6753479 0.57319748 -0.31944144
1.6671014 0.57847619 -0.31535736
1.6673681 0.58316392 -0.31790832
1.6754007 0.59869081 -0.31943095
1.6674994 0.64659232 -0.31788221
1.6755328 0.66242397 -0.31940472
1.667552 0.67196369 -0.31787178
1.6675783 0.68464941 -0.31786656
1.6676046 0.69733506 -0.31786135
1.6596234 0.70663095 -0.31632853
1.6596757 0.73188043 -0.31631812
1.6677097 0.74807781 -0.31784046
1.7651286 0.2136423 -0.31050724
1.7256556 0.22493491 -0.31238344
1.7165084 0.24027357 -0.31091654
1.7163932 0.2533997 -0.31107733
1.7229817 0.26593685 -0.31403124
1.7164192 0.2755208 -0.31377241
1.707652 0.28550339 -0.31463763
1.7076455 0.29850096 -0.31475636
1.6956794 0.30284488 -0.31115624
1.6976683 0.31397924 -0.31239927
1.7078304 0.32444778 -0.31285283
1.697113 0.32569939 -0.31366488
1.6915973 0.33886847 -0.31221458
1.6978291 0.34504199 -0.31158811
1.691591 0.35174412 -0.31233221
1.6886187 0.35599664 -0.31324768
1.6999073 0.36175892 -0.31136939
1.6825684 0.36525598 -0.31081846
1.681474 0.37177432 -0.31465304
1.7079381 0.37644005 -0.31283143
1.6842239 0.38575459 -0.31470335
1.6789113 0.41212887 -0.31318447
1.686914 0.42559534 -0.31473744
1.6788857 0.4631148 -0.31345457
1.7001486 0.47819299 -0.3113215
1.6723466 0.48794359 -0.31362063
1.6723635 0.5005368 -0.31376356
1.6723804 0.51312995 -0.31390649
1.670845 0.52563965 -0.31230417
1.7627608 0.20264509 -0.30521911
1.7379951 0.21911894 -0.30989274
1.7426159 0.22849363 -0.30721894
1.7554619 0.22722197 -0.30774212
1.7606277 0.22716618 -0.30921677
1.7379886 0.23231494 -0.30996266
1.7516527 0.23936035 -0.30762878
1.7464825 0.24410868 -0.30642611
1.7289716 0.2456606 -0.30843508
1.7516804 0.25269365 -0.3076233
1.728965 0.25878805 -0.30850461
1.733587 0.25620618 -0.30590352
1.7427046 0.26468205 -0.30603537
1.7276822 0.27317193 -0.30566606
1.698993 0.29630974 -0.30847731
1.7209364 0.29805955 -0.30729201
1.7119199 0.31093284 -0.30576202
1.6798476 0.38502681 -0.30957094
1.6919568 0.38582817 -0.30989146
1.6919835 0.39870435 -0.30988616
1.6974518 0.402004 -0.30560085
1.6920102 0.4115805 -0.30988085
1.6830316 0.42222035 -0.30822495
1.6939504 0.43834114 -0.30673561
1.6920902 0.45020899 -0.30986497
1.6863794 0.46479946 -0.30674464
1.6921703 0.48883745 -0.30984905
1.692197 0.50171363 -0.30984378
1.6832174 0.51187348 -0.30818805
1.6745487 0.53673959 -0.30511194
1.683297 0.55029637 -0.30817226
1.6753176 0.56044555 -0.30669999
1.6754233 0.61143214 -0.30667901
1.667443 0.6212157 -0.30520692
1.6675482 0.67195845 -0.30518606
1.6675745 0.68464416 -0.30518085
1.6676008 0.69732982 -0.30517563
1.6676271 0.71001554 -0.30517039
1.6676797 0.73538691 -0.30515996
1.6677059 0.74807256 -0.30515474
1.7359946 0.22218245 -0.30259705
1.7339743 0.24621055 -0.30342788
1.7294902 0.2640183 -0.30373895
1.7342389 0.26267377 -0.30123523
1.7337288 0.27653342 -0.3044475
1.7234179 0.28562835 -0.30488935
1.7145342 0.29712269 -0.3022919
1.7247796 0.30137518 -0.3028543
1.6951776 0.31166667 -0.30383819
1.704551 0.31251675 -0.3001101
1.7248068 0.31450278 -0.30284888
1.6951177 0.32460281 -0.30397654
1.7042441 0.32454461 -0.30236763
1.7248341 0.32763034 -0.30284348
1.703898 0.33663502 -0.30447748
1.7038914 0.349572 -0.304546
1.6972885 0.35126919 -0.30471334
1.6973293 0.36395293 -0.30493522
1.703885 0.36250895 -0.30461454
1.6958697 0.37496942 -0.30325991
1.6881084 0.38391867 -0.30273059
1.689404 0.39321923 -0.30395529
1.6868471 0.40004826 -0.30179456
1.688163 0.41566023 -0.30312964
1.6958438 0.42647344 -0.30353275
1.689526 0.43108755 -0.30461773
1.6895665 0.44371027 -0.30483854
1.6868213 0.45127803 -0.30206594
1.6788063 0.46318227 -0.30070832
1.6818013 0.52273643 -0.3047291
1.7695707 0.2013589 -0.29733989
1.7650691 0.21247084 -0.29705834
1.7555895 0.21639913 -0.2970055
1.7618122 0.22562939 -0.29623193
1.7469161 0.23216695 -0.29829541
1.7254403 0.2382904 -0.29935029
1.7446964 0.24365523 -0.29622111
1.7696545 0.24177024 -0.29732326
1.7606792 0.25396439 -0.29580384
1.7452383 0.25712141 -0.2953628
1.7288767 0.27198496 -0.29544702
1.7080379 0.28153408 -0.29688382
1.7288702 0.28511241 -0.29551655
1.7079234 0.29459924 -0.29704386
1.6987808 0.30946469 -0.29563981
1.6956623 0.33743271 -0.29889125
1.6977395 0.34514713 -0.29871726
1.6850072 0.35418379 -0.29558462
1.6914685 0.35186172 -0.29945716
1.6999034 0.36175361 -0.29843226
1.684127 0.36645332 -0.29651767
1.6999302 0.37469071 -0.29842696
1.6876874 0.3825677 -0.29826522
1.6919528 0.38582289 -0.29701528
1.6919795 0.39869907 -0.29700997
1.6824278 0.40379417 -0.298363
1.6824151 0.42940834 -0.29859701
1.7000374 0.4264392 -0.29840565
1.7000642 0.43937632 -0.29840034
1.6859083 0.44307351 -0.29546535
1.6920862 0.45020372 -0.29698879
1.6921129 0.4630799 -0.29698348
1.7055037 0.46211284 -0.29539657
1.6921396 0.47595602 -0.29697818
1.6831605 0.48625308 -0.29539096
1.683187 0.49906063 -0.29538569
1.6832136 0.51186818 -0.29538041
1.6832932 0.55029106 -0.29536462
1.7553142 0.24070805 -0.29470327
1.7424701 0.26840734 -0.29431891
1.751704 0.26602143 -0.29428446
1.7355405 0.2753664 -0.29172754
1.7336003 0.28622103 -0.29209775
1.7275561 0.29516631 -0.29275981
1.7427831 0.30447084 -0.29275423
1.711839 0.31100166 -0.29276434
1.7338067 0.31611648 -0.29123503
1.6906424 0.32400069 -0.29440787
1.7118324 0.32399958 -0.29283321
1.7118258 0.33699748 -0.29290205
1.7044727 0.34852573 -0.29249972
1.7051755 0.36015558 -0.29361305
1.7118129 0.3629933 -0.29303977
1.7052165 0.37290031 -0.29383597
1.7118063 0.37599123 -0.29310861
1.7037914 0.38845137 -0.29181492
1.6858397 0.39221382 -0.29478973
1.6965344 0.401508 -0.29171932
1.6950364 0.41338363 -0.29357779
1.6957637 0.42654163 -0.29065701
1.6893672 0.43130887 -0.29199591
1.6957573 0.43941766 -0.2907252
1.6894484 0.45655441 -0.29243752
1.6752609 0.5349471 -0.29396382
1.6753137 0.56044036 -0.29395333
1.6753665 0.58593363 -0.29394284
1.6755514 0.67516011 -0.29390612
1.6755779 0.6879068 -0.29390088
1.6675969 0.69732463 -0.29248995
1.6676233 0.71001035 -0.2924847
1.6676495 0.72269601 -0.29247949
1.6676759 0.73538172 -0.29247427
1.7911099 0.19937134 -0.28659359
1.7738754 0.20464408 -0.2892682
1.7649549 0.21448654 -0.28504181
1.7911446 0.21290845 -0.28682098
1.7558429 0.23201966 -0.28649104
1.7253404 0.23845118 -0.28615546
1.7432849 0.24749839 -0.28930163
1.7468202 0.25876632 -0.28517163
1.7431681 0.26083019 -0.28946498
1.7449324 0.27309644 -0.28743508
1.7123865 0.30975711 -0.2885479
1.7073919 0.31173587 -0.28888121
1.7124196 0.32269239 -0.28876519
1.6993719 0.3254807 -0.28767338
1.7227952 0.32597792 -0.2855069
1.6993656 0.33841729 -0.28779158
1.7078495 0.33743516 -0.28685129
1.7124528 0.33562773 -0.28898248
1.6934029 0.35323915 -0.28649476
1.7168807 0.35225803 -0.28835955
1.6913396 0.36485493 -0.28669971
1.6874801 0.37003738 -0.28530747
1.6956297 0.37620798 -0.28615358
1.6999531 0.38762254 -0.28548449
1.684942 0.40609148 -0.2857531
1.7000334 0.42643389 -0.28546852
1.7000602 0.43937102 -0.28546321
1.6867416 0.45134583 -0.28925872
1.6787077 0.50148928 -0.28816465
1.7695667 0.20135336 -0.28386942
1.7605062 0.22662547 -0.28297177
1.7536039 0.24305071 -0.2843973
1.7513651 0.25408137 -0.28235477
1.7377977 0.28523868 -0.28385079
1.7078245 0.29475844 -0.28397855
1.7287818 0.29830933 -0.28245893
1.70771 0.30782363 -0.28413862
1.7207671 0.3112644 -0.28122878
1.7075956 0.32088882 -0.28429869
1.7287621 0.33769163 -0.28266755
1.7129791 0.34355479 -0.28194496
1.7064593 0.36190513 -0.28385496
1.7117319 0.36306211 -0.28004211
1.7117254 0.37606004 -0.28011096
1.6985563 0.40150422 -0.28285724
1.6920023 0.41156992 -0.28412846
1.7051792 0.41135758 -0.28176105
1.6972144 0.42781621 -0.28067905
1.6920823 0.45019841 -0.28411257
1.6831034 0.46063259 -0.28259388
1.6921357 0.47595072 -0.28410196
1.6921624 0.48882687 -0.28409666
1.6831831 0.49905536 -0.28257808
1.6832097 0.51186293 -0.28257281
1.6753892 0.59867513 -0.28119093
1.6755476 0.67515486 -0.28115946
1.7737914 0.2047154 -0.27579817
1.7243084 0.28388417 -0.27833259
1.7222445 0.29550734 -0.27754903
1.7202203 0.30699956 -0.27686387
1.7162826 0.31094599 -0.27730739
1.7142594 0.32346112 -0.27662894
1.7248261 0.32761955 -0.27658823
1.7072552 0.33784968 -0.27612174
1.7122756 0.33584547 -0.27604842
1.7248533 0.34074715 -0.27658284
1.7057731 0.35121021 -0.27562654
1.7143075 0.35115844 -0.27763307
1.697051 0.37708139 -0.27979153
1.7037108 0.38851985 -0.27887821
1.6978362 0.40070605 -0.27509341
1.69569 0.41373378 -0.277713
1.6956835 0.42660978 -0.27778122
1.695677 0.43948579 -0.27784941
1.6892489 0.44415289 -0.2795949
1.6866618 0.45141363 -0.27645156
1.686649 0.47702849 -0.27658725
1.6676981 0.74806213 -0.27978334
1.7965701 0.20435356 -0.27452952
1.7647755 0.21847141 -0.27447852
1.7647687 0.23187311 -0.27454951
1.7076111 0.30798283 -0.27107328
1.7074966 0.32104802 -0.27123335
1.7078995 0.36342594 -0.27384251
1.6932671 0.3662464 -0.27382129
1.7079263 0.37642401 -0.27383715
1.6999491 0.3876172 -0.27254733
1.7000028 0.41349143 -0.2725367
1.7000295 0.42642856 -0.27253136
1.7000563 0.43936568 -0.27252606
1.6920784 0.45019314 -0.27123642
1.6921051 0.46306932 -0.27123111
1.7001368 0.47817704 -0.27251008
1.7264321 0.31088221 -0.26742363
1.7224216 0.32389265 -0.26689881
1.7286804 0.33776113 -0.26954034
1.7048138 0.34785783 -0.26790267
1.7138982 0.35019833 -0.26578778
1.7042663 0.37449926 -0.26711076
1.7055055 0.38803229 -0.26511559
1.7049779 0.39883643 -0.26879445
1.7036238 0.40152532 -0.26601005
1.7050189 0.41158104 -0.26901737
1.70506 0.42432564 -0.26924032
1.6970955 0.44072223 -0.26821819
1.6832058 0.51185769 -0.2697652
1.6755437 0.67514962 -0.26841283
1.6835774 0.69116402 -0.26969144
1.6755965 0.70064294 -0.26840234
1.7161646 0.29799914 -0.26412249
1.7071316 0.33796835 -0.26312479
1.7121316 0.34899837 -0.26333159
1.6991067 0.36452675 -0.26215592
1.7054645 0.36224583 -0.26492479
1.7169268 0.37838057 -0.2622155
1.6956098 0.41380197 -0.26483727
1.6956033 0.42667794 -0.26490548
1.6954513 0.43565938 -0.26353127
1.7073977 0.32120723 -0.25816801
1.7127392 0.36961496 -0.25678369
1.7048175 0.39905989 -0.25605074
1.6977644 0.41367811 -0.25578052
1.7048585 0.4118045 -0.25627366
1.7129042 0.42083734 -0.25767973
1.7017779 0.42694551 -0.25640231
1.6937822 0.43846691 -0.25523174
1.7049407 0.43729377 -0.25671956
1.6970177 0.46631205 -0.25597915
1.700133 0.47817174 -0.25957295
1.7001598 0.49110883 -0.25956762
1.6921812 0.50169247 -0.25833902
1.6922078 0.51456869 -0.25833371
1.6835735 0.69115877 -0.2568838
1.6926081 0.7077111 -0.25825423
1.7330652 0.29627502 -0.25348499
1.7035562 0.3757199 -0.25293627
1.7041631 0.38748604 -0.25441629
1.7035432 0.4015938 -0.25307333
1.6975464 0.41632769 -0.24786577
1.6951305 0.43198031 -0.24928427
1.7127843 0.43386751 -0.24509911
1.7000486 0.43935508 -0.24665175
1.700129 0.47816643 -0.24663578
1.7171665 0.49597496 -0.24910045
1.7081878 0.50639403 -0.24778746
1.7002095 0.51697773 -0.24661981
1.7002363 0.5299148 -0.24661449
1.6983111 0.40182978 -0.24442735
1.7127019 0.40825629 -0.24465109
1.7027369 0.42624223 -0.24356122
1.7048213 0.45026189 -0.24419883
1.696858 0.46653444 -0.24329638
1.6835961 0.70396107 -0.24407092
1.6977203 0.4137069 -0.23640549
1.6954107 0.49119434 -0.23949499
1.7171626 0.49596959 -0.23603377
1.7171897 0.50903618 -0.23602839
1.7000178 0.42641261 -0.23371993
1.7023323 0.43854517 -0.2324734
1.70813 0.48039258 -0.23480007
1.7082108 0.51938683 -0.23478402
1.6835923 0.70395583 -0.23126329
1.6836188 0.71676344 -0.23125802
1.7033756 0.41466773 -0.22726841
1.703369 0.42760471 -0.22733694
1.6953241 0.50413853 -0.22668743
1.7000675 0.45228156 -0.22077213
1.7000943 0.46521866 -0.22076681
1.7001212 0.47815579 -0.22076149
1.700148 0.49109289 -0.22075617
1.7043365 0.39973021 -0.21781962
1.7043775 0.41247481 -0.21804257
1.7113011 0.41539782 -0.2153292
1.7118578 0.42495331 -0.21733193
1.7032431 0.51823193 -0.21487996
1.7122186 0.40892982 -0.20623715
1.7122599 0.42173541 -0.20646118
1.7002513 0.54283601 -0.20779774
1.700278 0.55577308 -0.20779242
1.7145092 0.40682065 -0.19515195
1.7171236 0.48288682 -0.19683914
1.7082258 0.53236878 -0.19578439
1.7082528 0.54536688 -0.19577904
1.7120162 0.39634871 -0.19320852
1.7172281 0.53514802 -0.18375099
1.7082489 0.54536152 -0.18278097
1.7206925 0.39249325 -0.16844793
1.719151 0.51690775 -0.16340138
1.7171891 0.52206534 -0.14455637
1.7341689 0.51399386 -0.1327993
