# .PCD v0.7 - Point Cloud Data file format
VERSION 0.7
FIELDS x y z
SIZE 4 4 4
TYPE F F F
COUNT 1 1 1
WIDTH 360
HEIGHT 1
VIEWPOINT 0 0 0 1 0 0 0
POINTS 360
DATA ascii
2.5228052 -0.59891468 -1.0090141
2.5226231 -0.5987398 -0.98986149
2.559577 -0.59506339 -0.98508292
2.5806563 -0.63277251 -0.98287642
2.5405118 -0.60631639 -0.97761518
2.6196132 -0.6066767 -0.9780851
2.578475 -0.62250239 -0.97261637
2.5995724 -0.61964869 -0.97050285
2.504379 -0.60982937 -0.96362865
2.657367 -0.59560364 -0.96251678
2.6983347 -0.63262171 -0.95663899
2.5403378 -0.62543088 -0.95814925
2.561486 -0.62596351 -0.95619369
2.6373029 -0.60748142 -0.95511293
2.5782888 -0.62232357 -0.95303702
2.5379007 -0.61438942 -0.95079577
2.5994396 -0.59981883 -0.95088232
2.522249 -0.57923645 -0.9517312
2.5758581 -0.61355877 -0.94573915
2.7004244 -0.61320776 -0.94699472
2.6347787 -0.60228288 -0.9479326
2.5756867 -0.59397995 -0.945979
2.5591974 -0.5752731 -0.94639152
2.575515 -0.57440138 -0.94621885
2.519937 -0.62454772 -0.94379592
2.5804024 -0.6129846 -0.94381946
2.6148131 -0.61262643 -0.94047129
2.6571751 -0.59541935 -0.94233578
2.6793847 -0.62661409 -0.93951458
2.4861376 -0.62064749 -0.93767267
2.5568919 -0.62364602 -0.93850279
2.716857 -0.6202085 -0.93647277
2.5401351 -0.58667356 -0.93921196
2.5423176 -0.619156 -0.92980057
2.5040171 -0.60948211 -0.92559761
2.6770546 -0.60338384 -0.92907083
2.5197921 -0.62431431 -0.92464352
2.6569731 -0.57505304 -0.92233902
2.5612438 -0.62575775 -0.91732264
2.5567448 -0.62340915 -0.91906857
2.561234 -0.60632181 -0.91742557
2.6792479 -0.60617143 -0.9192878
2.5565746 -0.60397518 -0.91930664
2.5399516 -0.58649749 -0.91992223
2.5377774 -0.63320863 -0.91198063
2.521894 -0.59804028 -0.91325098
2.7408967 -0.64990193 -0.90937012
2.7001693 -0.61299074 -0.90600568
2.5038362 -0.60930854 -0.90658218
2.676861 -0.60319823 -0.90873742
2.7188115 -0.62011939 -0.90228784
2.5801585 -0.61277723 -0.90465885
2.5611229 -0.62565482 -0.89788705
2.5990911 -0.63895637 -0.89149809
2.5217209 -0.61701888 -0.8939234
2.6590855 -0.61964935 -0.8921296
2.5374627 -0.6136843 -0.89292741
2.5217116 -0.5978654 -0.8940984
2.7406883 -0.62888986 -0.88873929
2.5195022 -0.6238476 -0.88633895
2.7000415 -0.61288226 -0.8855111
2.6343238 -0.6015507 -0.88784742
2.6341484 -0.58152235 -0.88809276
2.7186248 -0.64058512 -0.88144571
2.5396035 -0.62472636 -0.88099027
2.6789846 -0.58562124 -0.87872636
2.5419669 -0.6381408 -0.87182605
2.5989683 -0.63885194 -0.87177312
2.5374854 -0.63273859 -0.87340164
2.5989583 -0.61912656 -0.87187761
2.6589599 -0.61954254 -0.87194741
2.5373166 -0.61344922 -0.87363803
2.5215294 -0.5976904 -0.87494576
2.6541305 -0.5906508 -0.87467468
2.5584865 -0.6328693 -0.86812079
2.5584769 -0.6134339 -0.86829835
2.6952488 -0.60961425 -0.86773252
2.6142113 -0.61165774 -0.86096704
2.7540584 -0.61194968 -0.86226118
2.6140373 -0.59178185 -0.86121058
2.6788681 -0.60584849 -0.85828406
2.6973596 -0.63168603 -0.85417169
2.6588342 -0.61943567 -0.85176528
2.6973493 -0.61119157 -0.85435891
2.7208211 -0.59893465 -0.85120398
2.6341958 -0.62109065 -0.84754515
2.7110314 -0.62297946 -0.84880543
2.6162925 -0.61814719 -0.84833002
2.5797927 -0.61246628 -0.845918
2.649061 -0.60862029 -0.84957451
2.6950939 -0.60936451 -0.84723949
2.4527671 -0.62468117 -0.84117454
2.7182219 -0.61955363 -0.8403275
2.7380362 -0.60843301 -0.84023082
2.6138868 -0.59153962 -0.84133446
2.4357367 -0.63690883 -0.83524144
2.6187568 -0.62581795 -0.83883768
2.6787517 -0.6260758 -0.83784181
2.7382185 -0.62925351 -0.83997571
2.521174 -0.61649412 -0.83646554
2.467176 -0.61176711 -0.83719969
2.6787415 -0.60574085 -0.83794951
2.7427385 -0.60591084 -0.83726817
2.5211647 -0.59734064 -0.83664054
2.6541784 -0.63052011 -0.83381867
2.6971645 -0.63149899 -0.83367825
2.6342196 -0.64087486 -0.82727146
2.4330747 -0.6335873 -0.82537544
2.6161032 -0.61796576 -0.82845366
2.5581069 -0.61307901 -0.82942939
2.6338689 -0.60081863 -0.82776213
2.6560423 -0.63467759 -0.82088041
2.5606387 -0.62524325 -0.82014489
2.4526513 -0.62458265 -0.82256186
2.6739802 -0.61961269 -0.82003641
2.6996586 -0.61255676 -0.82402742
2.4356215 -0.63681102 -0.81675822
2.618633 -0.62571269 -0.81896031
2.6786251 -0.62596816 -0.81750727
2.738061 -0.62899983 -0.8191551
2.5769844 -0.62107199 -0.81598228
2.7180252 -0.61936504 -0.81967407
2.6690409 -0.61326623 -0.81531894
2.7378786 -0.60817933 -0.81941009
2.742609 -0.60580057 -0.81644601
2.4828148 -0.60490608 -0.81700027
2.718015 -0.5987106 -0.81986278
2.6563094 -0.63483936 -0.81246591
2.6969695 -0.63131183 -0.81318474
2.5890372 -0.61446619 -0.81061226
2.5029311 -0.60844034 -0.81150472
2.7398956 -0.62812942 -0.80545515
2.7205741 -0.61937094 -0.80978549
2.5187547 -0.60376215 -0.8099643
2.6139343 -0.63080692 -0.80109549
2.6558504 -0.63449329 -0.80069929
2.5605178 -0.62514037 -0.80070937
2.5958595 -0.62906235 -0.80224568
2.8269329 -0.62715304 -0.803388
2.6900265 -0.61813545 -0.80123931
2.4960403 -0.61124039 -0.80051625
2.500797 -0.61379504 -0.80392587
2.6785088 -0.64619541 -0.79706496
2.4355063 -0.63671315 -0.79827499
2.6784985 -0.62586045 -0.79717267
2.8738678 -0.62631309 -0.79519367
2.435497 -0.61822963 -0.79837286
2.5208094 -0.61614436 -0.79816031
2.6090231 -0.61925608 -0.79699671
2.6738265 -0.61936498 -0.79970336
2.5367327 -0.61250913 -0.7964803
2.737721 -0.60792565 -0.79858935
2.7424793 -0.60569036 -0.79562384
2.5414863 -0.63773227 -0.79466283
2.9237919 -0.63572937 -0.79321176
2.9469452 -0.63612056 -0.7933104
2.653873 -0.63002825 -0.79345703
2.5187774 -0.62268078 -0.79057729
2.7157629 -0.61844695 -0.79190111
2.7607501 -0.61550194 -0.7908079
2.6157346 -0.63747996 -0.78851938
2.5748439 -0.63122904 -0.78886771
2.67571 -0.62241846 -0.78655076
2.7204454 -0.61926156 -0.78913093
2.5558853 -0.64118552 -0.78279114
2.5604062 -0.64447337 -0.78117079
2.8756669 -0.63916069 -0.78006023
2.6556582 -0.63430899 -0.78051811
2.6994138 -0.63283461 -0.78292984
2.4666498 -0.62999576 -0.78080481
2.5603967 -0.62503749 -0.78127378
2.7396975 -0.62793928 -0.78463405
2.8267703 -0.62689114 -0.78188932
2.629009 -0.62404609 -0.78307647
2.4960346 -0.6112482 -0.78149909
2.783628 -0.64564914 -0.77601165
2.5766215 -0.64029461 -0.77664483
2.8978467 -0.63672721 -0.77981329
2.7836175 -0.62449187 -0.77620494
2.5206273 -0.61596948 -0.77900767
2.6736724 -0.61911714 -0.77937019
2.9023647 -0.61277574 -0.77615958
2.4495847 -0.60368413 -0.77562129
2.5938234 -0.64046633 -0.77498245
2.5983541 -0.6383298 -0.77314782
2.6965792 -0.63093752 -0.7721979
2.5025785 -0.62710947 -0.77329999
2.8083453 -0.62671596 -0.77212441
2.7423496 -0.60558009 -0.77480161
2.538511 -0.64296001 -0.76507545
2.8497477 -0.6370399 -0.76659489
2.5745244 -0.61141169 -0.76952863
2.9218228 -0.64713681 -0.76406705
2.6554663 -0.6341247 -0.76033705
2.595484 -0.6287021 -0.76279765
2.8995142 -0.62631458 -0.76469582
2.9216282 -0.62491465 -0.76433933
2.8542869 -0.61973327 -0.76321024
2.4960289 -0.611256 -0.76248193
2.5204637 -0.65410143 -0.75950509
2.875459 -0.63896102 -0.75820303
2.5366094 -0.63132834 -0.75766504
2.4779973 -0.62569535 -0.75699055
2.6182616 -0.62539703 -0.75932795
2.4494166 -0.62212688 -0.75683951
2.7834163 -0.62429863 -0.75504869
2.6090109 -0.61927241 -0.75724053
2.5573862 -0.65123993 -0.75133622
2.5232089 -0.63104582 -0.75072497
2.5573766 -0.63180453 -0.75151378
2.5051813 -0.64358032 -0.74526775
2.5791931 -0.63152856 -0.7479127
2.8781955 -0.6271596 -0.74776828
2.675323 -0.62204713 -0.74588382
2.5140159 -0.61570472 -0.74882704
2.5743761 -0.61117315 -0.74994969
2.8781846 -0.60530084 -0.74788404
2.8495836 -0.63677585 -0.74492097
2.4959838 -0.63028097 -0.74347264
2.5952964 -0.62852198 -0.74307364
2.8993046 -0.62611336 -0.74265581
2.5554209 -0.62127793 -0.74416089
2.7583776 -0.61683011 -0.74179018
2.7861719 -0.61952204 -0.74491876
2.4492488 -0.64056939 -0.73805773
2.541126 -0.6374259 -0.73679048
2.5364633 -0.63109338 -0.73837554
2.8052757 -0.63288492 -0.73965812
2.5753241 -0.63522518 -0.73380864
2.6352158 -0.62549919 -0.7346139
2.851186 -0.62936836 -0.73023719
2.5320022 -0.62015343 -0.73489761
2.5980983 -0.61839557 -0.7338022
2.9020903 -0.61254233 -0.7320773
2.8735628 -0.6473707 -0.72935545
2.5050631 -0.64347965 -0.72625118
2.9231575 -0.63512057 -0.72654325
2.579071 -0.6314249 -0.7283324
2.7813592 -0.62715828 -0.72683644
2.8757153 -0.626279 -0.72776663
2.555444 -0.64047515 -0.7244885
2.5951085 -0.62834185 -0.72334969
2.7860403 -0.61941004 -0.72376138
2.6550722 -0.61357421 -0.72015929
2.5410058 -0.63732374 -0.71749973
2.5760624 -0.63975829 -0.71790713
2.655082 -0.6337561 -0.71997488
2.9212918 -0.62437308 -0.71989441
2.635035 -0.64534611 -0.7144022
2.8750429 -0.6385619 -0.71448874
2.8973463 -0.6359216 -0.71369433
2.8309875 -0.63377851 -0.71394694
2.7830136 -0.62391227 -0.71273619
2.5979755 -0.61829114 -0.71407712
2.6749461 -0.64201015 -0.7050311
2.5789492 -0.63132125 -0.7087521
2.6379275 -0.63197583 -0.70503944
2.5551267 -0.62080443 -0.70529246
2.82793 -0.64167076 -0.70268762
2.8492553 -0.63624763 -0.70157301
2.922946 -0.63491768 -0.70432049
2.922935 -0.61269385 -0.7045235
2.8779123 -0.6050694 -0.70416743
2.898896 -0.64775187 -0.69837451
2.6179001 -0.64495909 -0.69959038
2.8538821 -0.61938906 -0.69818383
2.6348443 -0.64516324 -0.69437349
2.8308535 -0.63366467 -0.69244671
2.8730407 -0.62498152 -0.68590963
2.9477856 -0.62188894 -0.68809593
2.8277254 -0.64147443 -0.68118852
2.9227345 -0.63471466 -0.68209761
2.8986862 -0.64755052 -0.6763345
2.8490913 -0.63598359 -0.6798991
2.8537471 -0.61927426 -0.67650837
2.8076813 -0.62615144 -0.66549939
2.8275208 -0.64127809 -0.65968943
2.8487375 -0.6140455 -0.65849066
2.8485475 -0.59237182 -0.65875614
2.8984764 -0.6473493 -0.65429455
2.8984654 -0.62530833 -0.65449589
2.8536122 -0.61915952 -0.65483296
2.8026605 -0.6149193 -0.64756858
2.827316 -0.64108175 -0.63819033
2.8487632 -0.63545537 -0.63655126
2.7855134 -0.61896199 -0.63913178
2.8485734 -0.61378145 -0.63681674
2.8483834 -0.59210777 -0.63708234
2.8534882 -0.64072067 -0.63304263
2.8982558 -0.62510711 -0.63245589
2.8534772 -0.61904478 -0.63315743
2.8742108 -0.63776356 -0.62706017
2.8501654 -0.65005404 -0.62166762
2.8727357 -0.64603913 -0.62007153
2.8725443 -0.62418258 -0.62033927
2.8723528 -0.60232592 -0.62060702
2.898046 -0.62490588 -0.61041588
2.8533421 -0.61892998 -0.61148196
2.8740027 -0.637564 -0.60520297
2.830318 -0.63320935 -0.60644573
2.8499591 -0.64985615 -0.59999335
2.8721874 -0.6020596 -0.59875023
2.8486249 -0.65660071 -0.59293771
2.8484352 -0.63492715 -0.59320319
2.8482454 -0.61325324 -0.59346879
2.8301735 -0.61159486 -0.5850594
2.8738055 -0.65922242 -0.5831461
2.8737948 -0.63736433 -0.58334583
2.8301842 -0.6330955 -0.5849455
2.8484609 -0.65633667 -0.57126379
2.8482711 -0.63466311 -0.57152927
2.8480814 -0.61298919 -0.57179487
2.8478913 -0.59131551 -0.57206035
2.8070173 -0.62558699 -0.55887437
2.8495357 -0.62778503 -0.55684274
2.8722394 -0.64524019 -0.55450118
2.8264978 -0.64029652 -0.552194
2.7849755 -0.59735614 -0.55461437
2.8477273 -0.59105146 -0.55038643
2.8482969 -0.65607262 -0.54958975
2.8247919 -0.60251105 -0.54566646
2.8253567 -0.66700673 -0.54487634
2.8493295 -0.62758714 -0.53516847
2.826293 -0.64010018 -0.5306949
2.7848651 -0.63955969 -0.53323281
2.7848547 -0.61840189 -0.53334486
2.7848439 -0.59724408 -0.53345692
2.8483226 -0.67748213 -0.52765024
2.8481328 -0.65580845 -0.52791584
2.8479431 -0.63413489 -0.52818131
2.8246291 -0.60224903 -0.52416778
2.8731921 -0.68048185 -0.51737505
2.8731813 -0.65862375 -0.51757473
2.8067517 -0.62536114 -0.51622438
2.7847121 -0.59713209 -0.51229954
2.8479688 -0.6555444 -0.50624192
2.847779 -0.63387084 -0.5065074
2.8260779 -0.61840373 -0.50939232
2.8250313 -0.66648281 -0.50187898
2.8244665 -0.60198712 -0.5026691
2.8489385 -0.67054194 -0.49142385
2.8066189 -0.62524825 -0.49489945
2.8028612 -0.67319804 -0.48338214
2.8246803 -0.6447221 -0.48064357
2.8476148 -0.63360679 -0.48483345
2.779808 -0.66637635 -0.4724471
2.82569 -0.66101116 -0.46600127
2.8256793 -0.63951129 -0.4661977
2.7844594 -0.61806589 -0.46987268
2.7806182 -0.66390854 -0.45847455
2.8015811 -0.65522742 -0.45513442
2.7792773 -0.62380719 -0.45180956
2.8024554 -0.67280859 -0.44073439
2.8254855 -0.66081482 -0.44450223
2.7794876 -0.66586077 -0.43013522
2.7793024 -0.64470494 -0.43039441
2.7802155 -0.66352206 -0.41616201
2.802242 -0.65128893 -0.41960534
2.7563879 -0.67568135 -0.40532789
2.7562041 -0.65470088 -0.4055849
