# .PCD v0.7 - Point Cloud Data file format
VERSION 0.7
FIELDS x y z
SIZE 4 4 4
TYPE F F F
COUNT 1 1 1
WIDTH 1299
HEIGHT 1
VIEWPOINT 0 0 0 1 0 0 0
POINTS 1299
DATA ascii
1.9564731 -0.7098012 -0.78817827
2.0364664 -0.67285568 -0.78997868
2.0124092 -0.67690176 -0.78057528
2.0604255 -0.66836107 -0.78375787
1.9673959 -0.68544632 -0.77785689
1.9038519 -0.69723344 -0.77030075
1.9893548 -0.68106472 -0.77156222
2.03637 -0.67277396 -0.77453536
1.9453429 -0.68941277 -0.76906818
2.0603201 -0.65265191 -0.7682144
1.8138032 -0.71933436 -0.76155049
1.8828356 -0.70384014 -0.76180989
1.9343201 -0.69860351 -0.76463556
1.9248644 -0.69031286 -0.76412487
2.0012851 -0.67159766 -0.76112622
1.9132695 -0.70249629 -0.75624573
2.0362661 -0.65724862 -0.75917387
2.0629544 -0.64584231 -0.75599808
1.7947882 -0.7254287 -0.75357878
1.8938539 -0.69355369 -0.7518242
1.9452437 -0.67458445 -0.75439632
2.0242426 -0.66708583 -0.75461358
2.060215 -0.63694274 -0.752671
2.0972016 -0.63738912 -0.75037825
1.7767729 -0.73164791 -0.74602687
1.9241943 -0.67888188 -0.74616438
1.8728378 -0.70008403 -0.74349332
1.9131792 -0.70241952 -0.74173963
1.8328394 -0.69899625 -0.74158496
1.9131719 -0.68791306 -0.74181646
1.9038731 -0.68273878 -0.74128157
1.9561737 -0.6650632 -0.74391258
1.9891593 -0.66581953 -0.74147171
2.0269418 -0.64993691 -0.74281073
2.0361624 -0.64172328 -0.74381244
1.6336859 -0.7719813 -0.73582494
1.7227619 -0.7355265 -0.7364924
1.7948124 -0.71175814 -0.73989701
1.9341226 -0.6691153 -0.73545861
2.0241392 -0.65165228 -0.73934311
2.0601177 -0.63686001 -0.73704493
1.6487213 -0.75398719 -0.73000628
1.7407718 -0.72999847 -0.73091704
1.7767969 -0.71811438 -0.73248225
1.8828567 -0.68950528 -0.73311067
1.9248859 -0.67565829 -0.73478562
2.0121164 -0.66139859 -0.73487473
2.0480957 -0.64706391 -0.73266554
2.0879643 -0.63782823 -0.73333675
2.0971026 -0.6373049 -0.73447019
1.7057477 -0.74122286 -0.7292304
1.7948365 -0.69808757 -0.72621518
1.8328352 -0.69900203 -0.72761923
1.9038687 -0.68274474 -0.72677487
1.9130743 -0.67332977 -0.72738713
1.9919299 -0.65381348 -0.72998959
2.026937 -0.64994329 -0.72736692
1.7227579 -0.73553187 -0.72336477
1.7497888 -0.72046781 -0.72135717
1.8528466 -0.69256592 -0.72143531
1.9248815 -0.67566431 -0.72011894
1.9359052 -0.66480076 -0.72422826
1.9780375 -0.66051716 -0.72236544
1.9450526 -0.65967792 -0.72497451
2.0240436 -0.65157104 -0.72399122
2.0600204 -0.63677728 -0.7214188
1.6487436 -0.74142861 -0.71743727
1.6807407 -0.74310207 -0.7185483
1.7767928 -0.71811998 -0.71894318
1.7768208 -0.70458096 -0.71893764
1.8820064 -0.68644136 -0.7154355
1.8920258 -0.67722434 -0.71931726
1.9240054 -0.66413707 -0.7170617
2.000994 -0.65617967 -0.71567672
1.6407243 -0.75031245 -0.71396142
1.6977502 -0.7377311 -0.71287334
1.7317744 -0.72620684 -0.71394211
1.8328309 -0.69900775 -0.71365356
1.8628652 -0.68213952 -0.71112889
1.9129839 -0.673253 -0.71288091
1.9559889 -0.66490614 -0.71424508
1.9469249 -0.65377563 -0.71350324
1.9799322 -0.64985377 -0.7105059
2.0269322 -0.64994961 -0.71192312
2.03597 -0.64155978 -0.71292579
2.0759659 -0.63414311 -0.71330464
2.084975 -0.63198215 -0.71444762
2.1229572 -0.63237953 -0.71145648
1.7768167 -0.70458651 -0.70539856
1.7858386 -0.6945703 -0.70896608
1.8929036 -0.67814469 -0.70674896
1.6487398 -0.7414338 -0.70487344
1.7057668 -0.72823542 -0.70322889
1.7317978 -0.71301615 -0.70074046
1.7677952 -0.71446556 -0.7018311
1.842849 -0.68880975 -0.70349967
1.9244109 -0.66253179 -0.70395893
1.9579139 -0.65750092 -0.70261663
1.9669166 -0.65521562 -0.70342696
2.0008919 -0.64092243 -0.70058048
2.0389531 -0.63829529 -0.70059657
2.0478945 -0.63136446 -0.70167845
2.1399894 -0.62123621 -0.70267415
1.6647495 -0.73599124 -0.69902253
1.6897525 -0.73423928 -0.69663811
1.7858344 -0.69457591 -0.6953584
1.8628608 -0.68214536 -0.69693464
1.8718911 -0.68123668 -0.69743592
1.903379 -0.66822493 -0.69623804
1.9448689 -0.65952176 -0.69547451
1.98887 -0.65049446 -0.69629598
2.0358739 -0.641478 -0.69748253
2.0759611 -0.63414961 -0.69748747
2.0848765 -0.6318984 -0.69863099
1.7147831 -0.71903986 -0.69386709
1.7768126 -0.70459205 -0.69185954
1.8138396 -0.6917209 -0.69243443
1.8928566 -0.67810971 -0.69236064
1.9338486 -0.66888237 -0.69146007
1.9249029 -0.66100979 -0.69077957
1.9689339 -0.6462245 -0.69155627
2.0149343 -0.64608139 -0.69235557
1.6407425 -0.73781991 -0.6889506
1.6647456 -0.73599648 -0.68633682
1.7317938 -0.71302158 -0.68754423
1.8328514 -0.68505353 -0.68571639
1.9579093 -0.657507 -0.68769854
2.0477977 -0.63128221 -0.6861437
2.0879827 -0.62193924 -0.68560451
2.0967977 -0.62114388 -0.6868304
1.6897752 -0.72136837 -0.68375659
1.714779 -0.71904522 -0.68080044
1.7498043 -0.70715094 -0.68135166
1.7858304 -0.69458151 -0.68175077
1.8718028 -0.68116152 -0.68324214
1.9033318 -0.66818976 -0.68176973
1.9887761 -0.65041459 -0.68121076
1.9557968 -0.6499151 -0.68465602
2.0357776 -0.64139622 -0.68203926
1.9887685 -0.63532901 -0.68129063
2.0269551 -0.63451856 -0.68102914
2.0847781 -0.63181466 -0.68281436
2.126991 -0.61744153 -0.68219936
1.6727618 -0.72681308 -0.67688304
1.7768085 -0.70459765 -0.67832047
1.8138354 -0.69172657 -0.67861342
1.8528631 -0.67846531 -0.67907518
1.8917578 -0.67699647 -0.67627871
1.9358917 -0.66481894 -0.67997682
1.93375 -0.65413833 -0.6768716
1.6567482 -0.73244351 -0.67041409
1.7317898 -0.713027 -0.67434812
1.7587935 -0.7108165 -0.67145419
1.8728752 -0.67157245 -0.67212915
1.9237328 -0.66390532 -0.67329174
1.9667308 -0.65505767 -0.67359179
1.9579357 -0.64259505 -0.67277426
2.0007029 -0.64076173 -0.67022723
2.0477009 -0.63119996 -0.670609
2.1487052 -0.62696749 -0.67134821
2.0966985 -0.62105966 -0.6709224
1.6807783 -0.71750796 -0.66730726
1.7858262 -0.69458711 -0.66814321
1.8238531 -0.68167341 -0.66845202
1.8717145 -0.68108642 -0.66904825
1.9026883 -0.66804713 -0.66586053
1.8938874 -0.6647284 -0.66522956
1.9457983 -0.65657973 -0.6674875
1.9886822 -0.65033472 -0.66612554
2.0356815 -0.64131451 -0.66659594
1.9919429 -0.63866127 -0.66927475
2.0269504 -0.63452494 -0.66558534
2.0846796 -0.63173091 -0.66699779
2.0759842 -0.6183455 -0.66584665
1.6647642 -0.72332114 -0.66096026
1.7057819 -0.71525341 -0.66422921
1.7768044 -0.7046032 -0.66478145
1.8138312 -0.69173229 -0.66479254
1.8528588 -0.67847109 -0.66495705
1.8916684 -0.67692053 -0.66193253
1.924894 -0.66102183 -0.66144627
1.9689249 -0.64623684 -0.66155243
1.7227924 -0.70930374 -0.65771592
1.8328429 -0.68506503 -0.65778494
1.8728709 -0.67157829 -0.65785867
2.0006084 -0.64068139 -0.65505058
2.0476043 -0.6311177 -0.6550743
1.6487507 -0.7288906 -0.65461308
1.6807743 -0.7175132 -0.65449965
1.705778 -0.71525872 -0.65123111
1.7408025 -0.70350176 -0.65131754
1.7858222 -0.69459265 -0.65453553
1.8616015 -0.67588335 -0.65135342
1.9025984 -0.66797078 -0.65143061
1.893883 -0.66473436 -0.65079904
1.9126153 -0.6584394 -0.65493304
1.9469069 -0.65380001 -0.65416616
1.9556121 -0.64975804 -0.65498847
1.9799139 -0.64987856 -0.65016305
2.0355854 -0.64123273 -0.65115267
1.9919384 -0.63866752 -0.65409762
2.135576 -0.62140656 -0.65108067
2.0845733 -0.61583024 -0.65126491
1.6567667 -0.71982914 -0.64515924
1.7678068 -0.7010172 -0.64794368
1.8038338 -0.68789971 -0.64738256
1.8428611 -0.67479092 -0.64732623
1.9775628 -0.64511836 -0.64743793
2.0715528 -0.62597406 -0.64711976
1.6807705 -0.71751845 -0.64169204
1.7227883 -0.7093091 -0.64458829
1.785818 -0.69459826 -0.64092791
1.8238447 -0.68168485 -0.64065772
1.8728666 -0.67158419 -0.64358824
1.8715305 -0.66674209 -0.64073581
1.9148958 -0.65757042 -0.64341927
1.9578958 -0.65752542 -0.64294422
1.9235437 -0.64916062 -0.64418894
1.9555197 -0.64967948 -0.64015466
1.6647564 -0.72333157 -0.63558882
1.7057741 -0.71526408 -0.63823301
1.7407986 -0.70350718 -0.63805282
1.9025013 -0.65346408 -0.63707697
2.0005138 -0.64060104 -0.63987392
1.9919337 -0.63867372 -0.63892049
2.0475075 -0.63103545 -0.6395396
2.0844748 -0.6157465 -0.63544834
1.7227844 -0.70931453 -0.63146067
1.758809 -0.69743115 -0.63124299
1.7948358 -0.68445081 -0.63047624
1.8514893 -0.67068118 -0.63381094
1.8926805 -0.66358125 -0.6348424
1.9786894 -0.64746183 -0.633757
2.0234625 -0.63573122 -0.63196135
2.1354752 -0.62132072 -0.63487548
1.6807666 -0.71752375 -0.62888443
1.7057701 -0.71526945 -0.62523496
1.7858138 -0.69460386 -0.62732035
1.8328633 -0.67111075 -0.62984776
1.9148914 -0.65757638 -0.62882882
1.9234529 -0.64908338 -0.62959898
1.9554273 -0.64960092 -0.62532085
1.6647526 -0.72333682 -0.62290311
1.7318012 -0.69985247 -0.62155789
1.8138472 -0.67792833 -0.62332398
1.8621436 -0.66479814 -0.6245752
1.8938743 -0.66474622 -0.62193805
1.9024115 -0.65338767 -0.62264699
1.9468979 -0.65381217 -0.62449753
2.0004194 -0.64052069 -0.62469733
2.035393 -0.64106923 -0.62026602
1.9919291 -0.63867998 -0.62374336
2.0474107 -0.63095325 -0.62400484
2.0964015 -0.62080699 -0.62319827
2.0474031 -0.6154182 -0.6240871
1.6807628 -0.717529 -0.61607683
1.7147864 -0.70600545 -0.61546171
1.7588049 -0.69743663 -0.61784106
1.7948318 -0.68445641 -0.61680007
1.832859 -0.67111653 -0.61588204
1.8728579 -0.67159587 -0.61504728
1.841378 -0.66547978 -0.61642092
1.8913932 -0.6623463 -0.61896992
1.923362 -0.64900613 -0.61500907
1.9786403 -0.64742523 -0.61871338
2.0149429 -0.63076061 -0.61558741
2.071357 -0.62580758 -0.61568469
2.0269682 -0.61910015 -0.61924756
2.0759697 -0.61836499 -0.61839527
1.7057662 -0.71527475 -0.61223686
1.7858098 -0.69460946 -0.61371267
1.8238363 -0.6816963 -0.61286348
1.8713537 -0.66659182 -0.6123482
1.9136157 -0.65789568 -0.61282641
2.1223474 -0.61576152 -0.61490494
1.7317971 -0.69985789 -0.60836166
1.8613377 -0.67565912 -0.60900062
1.8428483 -0.6748082 -0.60520053
1.9023287 -0.6677416 -0.60814059
1.8938699 -0.66475213 -0.60750759
1.9456055 -0.65643573 -0.60831892
1.9443104 -0.64430302 -0.60705274
2.000325 -0.64044034 -0.60952067
1.9919245 -0.63868624 -0.60856616
2.0473139 -0.630871 -0.60847008
2.0389569 -0.62279838 -0.60737872
2.0879586 -0.62197196 -0.60606164
2.0963023 -0.62072277 -0.60729015
2.0879915 -0.60606349 -0.60605508
1.6807588 -0.71753424 -0.60326916
1.7147825 -0.70601082 -0.60239506
1.7498075 -0.69385046 -0.60134619
1.7948276 -0.68446207 -0.60312384
1.8728536 -0.67160177 -0.60077679
1.8812884 -0.67156667 -0.60135108
1.9689066 -0.64626145 -0.6015448
1.9772825 -0.64488006 -0.6024338
2.0352969 -0.64098746 -0.60482275
2.0269318 -0.63455027 -0.60381007
2.0842857 -0.631396 -0.60373133
2.1352732 -0.62114912 -0.60246515
1.6977686 -0.7119047 -0.59642833
1.7407864 -0.70352352 -0.59825855
1.7768118 -0.69109195 -0.59708059
1.823832 -0.68170196 -0.5989663
1.9135683 -0.65786028 -0.59827805
2.1092293 -0.62621069 -0.59504783
1.6807549 -0.71753949 -0.59046155
1.8528373 -0.67850012 -0.59436661
1.8612498 -0.67558438 -0.59488302
1.902239 -0.66766518 -0.5937106
1.8938655 -0.66475809 -0.59307712
1.9468889 -0.65382439 -0.59482896
1.9882125 -0.64993542 -0.59069949
1.9442185 -0.64422494 -0.59230274
2.0002303 -0.64036 -0.59434402
2.0389524 -0.62280476 -0.59184349
2.0879865 -0.60606998 -0.59014648
1.7147785 -0.70601618 -0.58932841
1.7498034 -0.69385594 -0.58801281
1.7858014 -0.69462061 -0.58649743
1.7948234 -0.68446767 -0.58944768
1.8238279 -0.68170768 -0.58506918
1.8728492 -0.67160761 -0.58650631
1.9231803 -0.64885169 -0.58582902
1.9798956 -0.64990336 -0.58982021
2.0250514 -0.63502204 -0.58713603
1.9799268 -0.63481766 -0.58981395
2.0841873 -0.63131225 -0.58791465
2.0351927 -0.62546206 -0.58946127
2.0759602 -0.61837798 -0.58676094
1.6977646 -0.71191001 -0.58349121
1.7407825 -0.703529 -0.58499372
1.8528332 -0.6785059 -0.58024853
1.8611618 -0.67550963 -0.58076537
1.871177 -0.6664415 -0.58396059
1.9038547 -0.66829765 -0.58170217
1.9135209 -0.65782487 -0.58372974
1.9578776 -0.65754992 -0.58327186
1.9551501 -0.64936537 -0.58081949
2.1221468 -0.61559099 -0.5826928
1.6807511 -0.71754479 -0.57765394
1.7147745 -0.70602155 -0.57626176
1.7587928 -0.6974532 -0.57763535
1.803813 -0.6879279 -0.57865876
1.9021491 -0.66758877 -0.57928061
1.9881185 -0.64985555 -0.57561427
2.0001359 -0.64027965 -0.57916737
2.0471206 -0.63070649 -0.57740068
2.1091297 -0.62612593 -0.57904077
2.0389476 -0.62281114 -0.57630825
1.6977607 -0.71191537 -0.57055408
1.7767756 -0.70464212 -0.5700081
1.7857974 -0.69462621 -0.5728898
1.8238236 -0.6817134 -0.57117206
1.9148737 -0.65760034 -0.57046688
1.9331107 -0.65359479 -0.57420832
1.9688976 -0.64627379 -0.57154101
1.9799223 -0.63482386 -0.57472819
2.0269225 -0.63456297 -0.57292241
2.0879817 -0.60607654 -0.57423788
1.7317851 -0.69987416 -0.56877315
1.8528289 -0.67851174 -0.5661304
1.861074 -0.67543489 -0.56664777
1.8628515 -0.66800362 -0.56918025
1.8710886 -0.66636634 -0.56976676
1.9120734 -0.65797859 -0.56789595
1.9660805 -0.65450484 -0.56916857
2.0590475 -0.63595003 -0.56515729
2.0110559 -0.62998843 -0.56717151
2.0710633 -0.62555796 -0.56853193
2.0629623 -0.61448365 -0.56736803
1.6807472 -0.71755004 -0.56484634
1.7147706 -0.70602691 -0.56319505
1.8038088 -0.68793356 -0.56491399
1.9020592 -0.66751242 -0.56485063
1.8938568 -0.66476995 -0.5642162
1.945461 -0.65632772 -0.56394255
1.9880246 -0.64977568 -0.56052905
1.9919107 -0.63870496 -0.56303477
1.988017 -0.63469011 -0.56060892
2.10903 -0.62604117 -0.5630337
2.0389428 -0.62281752 -0.56077296
2.1090219 -0.61003375 -0.56311846
2.10097 -0.60988468 -0.56180602
1.6977568 -0.71192068 -0.55761689
1.7317811 -0.69987959 -0.55557692
1.7857932 -0.69463181 -0.55928224
1.8238194 -0.68171912 -0.55727488
1.8710002 -0.66629124 -0.55557299
1.9798864 -0.64991575 -0.55964881
2.0269177 -0.63456935 -0.55747861
2.0759506 -0.61839098 -0.55512667
1.7147666 -0.70603228 -0.5501284
1.7587847 -0.69746417 -0.5508315
1.8038046 -0.68793923 -0.55116922
1.8528246 -0.67851752 -0.55201232
1.860986 -0.67536014 -0.55253011
1.8628472 -0.6680094 -0.55498594
1.9019693 -0.667436 -0.55042064
1.9134262 -0.65775406 -0.55463308
1.9468753 -0.65384263 -0.55032611
1.9659877 -0.65442586 -0.55425096
2.0109608 -0.62990767 -0.55191112
2.1219463 -0.6154204 -0.55048043
1.7407703 -0.70354533 -0.54519945
1.8828595 -0.66088861 -0.54659224
1.9439504 -0.65874088 -0.54797471
1.9879307 -0.64969581 -0.54544389
1.9999468 -0.6401189 -0.54881412
1.991906 -0.63871115 -0.54785764
2.046927 -0.63054198 -0.54633123
2.038938 -0.62282389 -0.54523772
2.0589426 -0.62024087 -0.54961389
2.1139584 -0.613693 -0.54917604
1.6977528 -0.71192598 -0.54467976
1.7767954 -0.69111425 -0.54292434
1.8238152 -0.68172479 -0.54337776
1.8628135 -0.68220949 -0.54079753
1.8628429 -0.66801524 -0.54079169
1.8709118 -0.66621608 -0.54137915
1.9229151 -0.66321015 -0.54198176
1.9148648 -0.65761238 -0.54128593
1.9798819 -0.64992195 -0.54456306
2.0269129 -0.63457566 -0.5420348
2.095906 -0.62038589 -0.54365802
2.1478851 -0.60997236 -0.54100078
1.7147627 -0.70603764 -0.53706169
1.7587805 -0.69746971 -0.53742963
1.8038006 -0.68794489 -0.53742445
1.8608981 -0.6752854 -0.53841251
1.9018795 -0.66735959 -0.53599066
1.8938479 -0.66478181 -0.53535521
1.9468709 -0.65384871 -0.53549182
1.9548731 -0.64912975 -0.53631812
2.0108736 -0.6450876 -0.53656977
2.0028946 -0.64226937 -0.53562242
2.0228889 -0.63524359 -0.53985006
2.0759459 -0.61839747 -0.5393095
1.7407663 -0.70355082 -0.53193474
1.785785 -0.69464302 -0.532067
1.9328368 -0.65336186 -0.53020984
1.9878367 -0.64961594 -0.53035867
2.0468304 -0.63045979 -0.53079647
2.058845 -0.62015814 -0.53398782
2.121846 -0.61533517 -0.5343743
1.6897551 -0.70855576 -0.52923697
1.8238109 -0.68173051 -0.52948058
1.8728319 -0.6716311 -0.52942443
1.8708234 -0.66614091 -0.52718538
1.9248539 -0.66107607 -0.52944618
1.9798772 -0.64992815 -0.52947736
2.034816 -0.64057863 -0.52760625
2.0269084 -0.63458204 -0.526591
2.0389335 -0.62283027 -0.52970254
2.0958071 -0.62030166 -0.52774996
2.1009605 -0.60989779 -0.52979076
1.7147586 -0.706043 -0.5239951
1.7587764 -0.69747519 -0.52402771
1.7948027 -0.68449575 -0.52106673
1.852816 -0.67852908 -0.52377611
1.8608103 -0.67521065 -0.52429491
1.9017897 -0.66728318 -0.52156061
1.8938437 -0.66478771 -0.52092475
1.9118024 -0.65774822 -0.52437741
1.9468664 -0.65385485 -0.52065754
1.9547807 -0.64905119 -0.52148432
2.0107784 -0.64500684 -0.52130938
2.0837932 -0.63097727 -0.52464825
2.062948 -0.61450303 -0.52021378
2.1347606 -0.60451478 -0.52152508
1.6897511 -0.70856106 -0.51636076
1.7407624 -0.70355624 -0.51866996
1.7857808 -0.69464856 -0.51845938
1.8238068 -0.68173623 -0.5155834
1.8728276 -0.67163694 -0.51515394
1.8807553 -0.67111337 -0.5157311
1.9437667 -0.65858465 -0.51847476
1.9877428 -0.64953607 -0.51527345
1.9918969 -0.63872361 -0.51750332
2.0467336 -0.63037753 -0.51526183
2.108731 -0.62578696 -0.51501244
2.1217458 -0.61524987 -0.51826817
2.1441057 -0.6140185 -0.51580662
1.7147547 -0.70604837 -0.51092839
1.8707422 -0.68025982 -0.51291639
1.914856 -0.65762436 -0.51210499
1.9798727 -0.64993435 -0.5143916
2.0347197 -0.64049691 -0.51216298
2.0269036 -0.63458836 -0.5111472
2.0389287 -0.62283665 -0.51416731
2.1009555 -0.60990441 -0.51378316
1.697741 -0.7119419 -0.50586838
1.7497792 -0.69388878 -0.50801283
1.7947985 -0.68450141 -0.50739056
1.8528117 -0.67853492 -0.50965804
1.9038328 -0.66832745 -0.5091688
1.9117121 -0.65767139 -0.5098713
1.9546883 -0.64897269 -0.50665051
2.0028853 -0.64228195 -0.50510049
2.0106833 -0.64492601 -0.50604892
2.0836947 -0.63089353 -0.50883168
2.1346679 -0.62063438 -0.50523406
2.147682 -0.60979974 -0.50839245
1.731765 -0.69990122 -0.50279212
1.7767831 -0.69113094 -0.5023073
1.8238026 -0.68174195 -0.50168628
1.9326614 -0.66787297 -0.50079983
1.8906785 -0.66173869 -0.50420046
1.9436748 -0.65850657 -0.50372475
1.9358687 -0.65014118 -0.50296503
1.9876488 -0.6494562 -0.50018817
2.0586581 -0.6356191 -0.50265265
2.0629432 -0.61450952 -0.50449568
1.7147508 -0.70605373 -0.49786168
1.8037881 -0.68796182 -0.49619013
1.8528074 -0.67854071 -0.49553993
1.8606344 -0.67506117 -0.49605954
1.86283 -0.66803277 -0.49820876
1.8706466 -0.66599065 -0.49879771
1.9688748 -0.64630461 -0.49653152
2.0466447 -0.64583027 -0.49964479
2.0956089 -0.62013322 -0.49593386
2.1979198 -0.62470692 -0.49539131
2.0269308 -0.61915088 -0.49569702
2.1009507 -0.60991096 -0.49777555
2.1309175 -0.60719973 -0.49650601
1.6977371 -0.71194726 -0.49293119
1.7497752 -0.69389427 -0.49467945
1.7857726 -0.69465977 -0.49124408
1.9016099 -0.66713041 -0.49270052
1.8938348 -0.66479957 -0.49206376
1.9038584 -0.65382677 -0.49465618
1.9656161 -0.65410995 -0.49458054
2.0105884 -0.64484525 -0.49078846
2.0149057 -0.6308111 -0.49276832
2.0835962 -0.63080978 -0.49301493
2.0759313 -0.61841697 -0.49185809
2.1475804 -0.60971344 -0.49208817
1.7317611 -0.69990665 -0.48959595
1.8237983 -0.68174767 -0.48778909
1.8805776 -0.67096227 -0.48719108
1.943583 -0.65842849 -0.48897469
1.9358642 -0.6501472 -0.48821452
1.9875549 -0.64937633 -0.48510292
1.9918877 -0.63873613 -0.48714903
2.0585608 -0.63553637 -0.48702657
2.1215451 -0.61507934 -0.48605597
2.1269655 -0.60131574 -0.4877241
1.7147467 -0.70605916 -0.484795
1.7587643 -0.69749171 -0.48382196
1.8037839 -0.68796742 -0.48244539
1.8528031 -0.67854649 -0.48142186
1.8605465 -0.67498642 -0.48194194
1.8628258 -0.66803855 -0.48401448
1.9225518 -0.66290116 -0.48362181
1.9765428 -0.65924644 -0.48234302
1.903854 -0.65383273 -0.48014951
2.0345275 -0.64033335 -0.4812763
2.0389192 -0.6228494 -0.48309678
2.0955098 -0.620049 -0.48002577
2.1009459 -0.60991752 -0.48176789
2.1307633 -0.60705179 -0.48030171
1.7407502 -0.70357257 -0.47887564
1.7857684 -0.69466537 -0.47763643
1.9015201 -0.667054 -0.47827056
1.8938304 -0.66480547 -0.47763327
1.9545109 -0.66364962 -0.47690433
2.0225141 -0.65027058 -0.47836128
1.9578769 -0.64267474 -0.47883907
2.0149009 -0.63081741 -0.47741592
2.0834978 -0.6307261 -0.47719836
2.08792 -0.62202424 -0.478793
2.1847301 -0.61798531 -0.47587648
2.1474788 -0.60962707 -0.47578397
1.7147428 -0.70606452 -0.47172835
1.7587602 -0.69749719 -0.47042006
1.8237941 -0.68175334 -0.47389197
1.8804886 -0.6708867 -0.47292113
1.9358598 -0.65015328 -0.47346404
1.9994818 -0.65489405 -0.47285053
1.991883 -0.63874233 -0.47197187
2.0584636 -0.63545364 -0.47140041
2.1399539 -0.60502529 -0.47440073
1.7407463 -0.70357805 -0.46561086
1.8037797 -0.68797308 -0.46870062
1.8604586 -0.67491168 -0.46782431
1.8628215 -0.66804439 -0.4698202
1.9114411 -0.65744102 -0.46635264
1.9764495 -0.65916699 -0.4673416
2.0344388 -0.6556952 -0.46575126
1.9038496 -0.65383869 -0.46564284
2.0464513 -0.64566576 -0.46857527
2.0389144 -0.62285578 -0.46756157
2.1566713 -0.62023991 -0.46969575
2.1214449 -0.61499405 -0.46994984
2.1009409 -0.60992414 -0.46576029
1.7767708 -0.69114763 -0.4616901
1.8428057 -0.6748659 -0.46478146
1.9014302 -0.66697764 -0.46384057
1.8938261 -0.66481143 -0.4632028
1.9578724 -0.64268088 -0.46392095
2.0833993 -0.63064235 -0.4613817
2.0759218 -0.61842996 -0.46022376
2.0954108 -0.61996478 -0.46411777
2.1603978 -0.61490989 -0.46225506
1.7147388 -0.70606989 -0.45866168
1.7587562 -0.69750273 -0.45701817
1.8237898 -0.68175906 -0.45999485
1.8803998 -0.67081118 -0.45865113
1.862817 -0.66805023 -0.45562592
1.9433993 -0.65827233 -0.45947471
1.9358553 -0.65015936 -0.45871356
1.9993873 -0.65481371 -0.45767388
1.9918785 -0.63874859 -0.45679471
2.0583663 -0.63537091 -0.45577425
2.0029032 -0.62703985 -0.45931131
2.1705394 -0.61076027 -0.456352
2.1399488 -0.60503197 -0.45809597
2.1864469 -0.60549325 -0.45555842
2.1473694 -0.59323627 -0.45956609
1.7407422 -0.70358348 -0.45234612
1.8037755 -0.68797874 -0.45495585
1.8428015 -0.67487168 -0.45073953
1.8603706 -0.67483693 -0.45370668
1.92237 -0.66274667 -0.45444182
1.9148383 -0.65764832 -0.45374301
2.0343428 -0.65561342 -0.45030794
1.9798545 -0.64995915 -0.45404869
2.0463545 -0.64558351 -0.4530406
2.0509031 -0.62655455 -0.45468706
2.1083324 -0.62544799 -0.45098406
2.113929 -0.6137327 -0.45253599
2.1213446 -0.61490881 -0.45384368
2.1434848 -0.61342293 -0.45059323
1.7147349 -0.70607525 -0.445595
1.7767667 -0.69115317 -0.44815105
1.9013404 -0.66690123 -0.44941059
1.8938217 -0.66481733 -0.44877234
1.957837 -0.65760511 -0.449009
1.9653374 -0.65387303 -0.44982776
2.0148916 -0.63082999 -0.44671118
2.0833008 -0.63055861 -0.44556507
1.7587521 -0.69750822 -0.44361624
1.8037714 -0.68798441 -0.44121107
1.8137927 -0.67800218 -0.44365156
1.8703003 -0.67988408 -0.44194728
1.8803109 -0.6707356 -0.44438112
1.8628128 -0.66805607 -0.44143164
1.9433074 -0.65819424 -0.44472474
1.9992927 -0.65473336 -0.44249722
1.9918739 -0.63875479 -0.44161758
2.058269 -0.63528818 -0.44014812
2.0628915 -0.63025349 -0.44162971
2.1342642 -0.62029123 -0.44041333
2.075917 -0.61843646 -0.44440663
2.1399441 -0.6050387 -0.44179121
2.1472759 -0.60945445 -0.44317549
2.2152576 -0.60380244 -0.44053063
1.7407382 -0.70358896 -0.43908134
1.9112604 -0.65728742 -0.43734026
1.9762627 -0.65900815 -0.4373388
1.9038408 -0.65385062 -0.43662953
1.9798498 -0.64996535 -0.438963
2.0462577 -0.64550132 -0.43750584
2.1139243 -0.61373931 -0.43642932
2.1882265 -0.60968143 -0.43508759
2.1563511 -0.60353714 -0.43704081
2.1703742 -0.59409982 -0.4399938
1.7147309 -0.70608062 -0.43252835
1.7587481 -0.69751376 -0.43021435
1.7767626 -0.69115871 -0.43461198
1.8237815 -0.6817705 -0.43220052
1.8802221 -0.67066008 -0.43011114
1.8238103 -0.66787338 -0.4321948
1.8920245 -0.66309106 -0.4334057
1.9468393 -0.65389138 -0.43165174
2.0222273 -0.6500268 -0.43230566
2.0148551 -0.64618862 -0.4313651
2.0952206 -0.6357047 -0.43221745
2.0268803 -0.63462007 -0.43392816
2.1082325 -0.62536323 -0.43497697
2.1433299 -0.61327404 -0.4342899
1.7407341 -0.70359439 -0.42581657
1.7947736 -0.68453509 -0.42533335
1.8715067 -0.67574048 -0.42864227
1.9358157 -0.66492194 -0.42921868
1.9432156 -0.65811616 -0.42997473
2.0628867 -0.63025993 -0.42591164
2.0759122 -0.61844295 -0.42858949
2.1601934 -0.61473626 -0.42944854
2.1972754 -0.60738081 -0.42868504
1.7767584 -0.69116431 -0.42107293
1.8327998 -0.67119682 -0.42036203
1.9024835 -0.66755581 -0.42133972
1.91117 -0.65721059 -0.42283413
1.9798453 -0.64997154 -0.42387727
1.9871792 -0.64905691 -0.42476213
2.0461609 -0.64541906 -0.42197114
2.0388682 -0.63841021 -0.42096221
2.0581717 -0.63520545 -0.42452198
2.1341634 -0.6202054 -0.42420819
2.156203 -0.61979049 -0.4204886
2.1139193 -0.61374593 -0.42032266
2.1702251 -0.61045879 -0.42333391
2.2011333 -0.5981462 -0.4210383
1.7147269 -0.70608598 -0.41946167
1.758744 -0.69751924 -0.41681245
1.8237772 -0.68177623 -0.41830337
1.8801333 -0.6705845 -0.41584113
1.9431311 -0.67278838 -0.41514662
1.9541415 -0.66333544 -0.41756916
1.9468349 -0.65389746 -0.41681749
1.9651515 -0.65371507 -0.41999257
2.0148506 -0.64619493 -0.41601273
2.0221317 -0.6499455 -0.41695377
2.0951214 -0.63562047 -0.41630942
2.1081328 -0.62527847 -0.4189699
2.0879006 -0.62205034 -0.41515869
2.188123 -0.60959351 -0.41847101
1.731737 -0.69993919 -0.41041878
1.803763 -0.68799567 -0.41372156
1.8714604 -0.67570585 -0.41441011
1.9358113 -0.66492802 -0.41446823
2.0758748 -0.63426656 -0.41277882
2.1600914 -0.61464942 -0.41304529
2.1529272 -0.60875505 -0.41166782
2.1971164 -0.60722822 -0.41197032
2.166954 -0.59623259 -0.41433844
1.714723 -0.70609134 -0.40639502
1.7767544 -0.69116986 -0.40753388
1.8427887 -0.67488897 -0.40861383
1.911087 -0.67164022 -0.40825108
1.8938086 -0.66483516 -0.40548092
1.9650587 -0.6536361 -0.40507498
1.9688475 -0.64634156 -0.40652004
1.9870852 -0.64897704 -0.40967691
2.0460644 -0.64533681 -0.40643641
2.0388634 -0.63841659 -0.40542698
2.0580742 -0.63512272 -0.40889579
2.1700761 -0.62681776 -0.40667403
2.1340623 -0.62011963 -0.408003
2.1840975 -0.61737841 -0.4094137
1.7587398 -0.69752473 -0.40341052
1.8137801 -0.67801923 -0.40218869
1.8900604 -0.67555338 -0.40370116
1.872793 -0.67168385 -0.4009901
1.9430393 -0.67271024 -0.40039667
1.9540491 -0.66325694 -0.40273541
2.0340543 -0.65536815 -0.40397805
1.9468304 -0.6539036 -0.40198317
2.0268385 -0.65007651 -0.40304688
2.0950224 -0.63553625 -0.40040135
2.1080332 -0.62519372 -0.4029628
2.1009216 -0.60995042 -0.40172982
2.1880195 -0.60950553 -0.4018544
2.2010291 -0.59805775 -0.40432265
1.7317331 -0.69994462 -0.39722258
1.8037589 -0.68800133 -0.39997679
1.8527774 -0.6785813 -0.39671329
1.860019 -0.67453802 -0.3972362
1.9358068 -0.66493404 -0.39971775
2.0699947 -0.64036053 -0.39555535
2.0878959 -0.6220569 -0.39925015
2.1740086 -0.62034255 -0.39920419
2.1969573 -0.60707563 -0.39525554
1.7767502 -0.6911754 -0.39399484
1.8237689 -0.68178761 -0.3905091
1.9009882 -0.68102592 -0.39161417
1.9109967 -0.67156339 -0.39374489
1.8938042 -0.66484106 -0.39105043
1.9649658 -0.65355712 -0.39015737
1.9779055 -0.6468761 -0.39305991
2.0459676 -0.64525455 -0.39090168
2.0628772 -0.63027287 -0.39447543
2.1469793 -0.62550008 -0.39417645
2.1699109 -0.61015731 -0.39031586
2.1399293 -0.60505879 -0.39287689
2.2299633 -0.60949886 -0.39269581
1.7407221 -0.70361072 -0.3860223
1.7497427 -0.69393808 -0.38801274
1.8037547 -0.688007 -0.38623202
1.9448829 -0.65589577 -0.38643685
2.0339582 -0.65528637 -0.38853475
2.026834 -0.65008289 -0.38760304
2.1079414 -0.64111632 -0.38687095
2.0388589 -0.63842297 -0.38989174
2.1209514 -0.63067412 -0.38933384
2.1139095 -0.61375916 -0.38810933
2.1428642 -0.61282748 -0.38537985
2.2009335 -0.61468518 -0.38751844
1.7857395 -0.69470447 -0.38238311
1.8427801 -0.67490053 -0.38053003
1.8599311 -0.67446327 -0.38311857
1.8627956 -0.66807938 -0.38465446
1.9319308 -0.66725177 -0.38347033
1.9248095 -0.66113633 -0.38277948
1.9989147 -0.65441197 -0.3817907
2.0829148 -0.6460405 -0.38221484
2.0758653 -0.63427955 -0.38114455
2.0878909 -0.62206346 -0.38334158
2.1739058 -0.62025511 -0.38269427
2.2108173 -0.59706265 -0.38107109
1.7587317 -0.69753575 -0.37660673
1.8327582 -0.68517977 -0.3784706
1.9109063 -0.67148662 -0.37923867
1.9648803 -0.66839606 -0.37516072
1.8937998 -0.66484702 -0.37661994
1.975889 -0.65869051 -0.37733319
2.0578876 -0.65058368 -0.37756073
2.1468778 -0.62541372 -0.37787223
2.1399243 -0.60506546 -0.37657213
2.1967983 -0.60692292 -0.37854081
1.740718 -0.7036162 -0.37275755
1.8698583 -0.67950833 -0.37097821
1.8727844 -0.67169553 -0.37244919
1.8698511 -0.66531432 -0.3710534
2.0338619 -0.65520459 -0.37309143
1.9358284 -0.65019572 -0.37021074
2.1078417 -0.64103162 -0.37086383
2.0268614 -0.63464546 -0.37215292
2.1208513 -0.63058889 -0.37322772
2.1268976 -0.61756802 -0.37429079
2.1557267 -0.602938 -0.37143129
2.2547312 -0.60129315 -0.3715432
2.3038259 -0.60373282 -0.3708657
2.2008209 -0.59788072 -0.37089142
2.2148302 -0.58662361 -0.37333053
1.7767421 -0.69118655 -0.36691678
1.7857636 -0.68110251 -0.36876991
1.8427759 -0.67490631 -0.36648816
1.9318395 -0.66717416 -0.36880416
1.924805 -0.66114235 -0.36811286
1.9988202 -0.65433162 -0.36661407
2.0028436 -0.64233834 -0.36775193
2.0758603 -0.63428605 -0.36532742
2.1008787 -0.62597126 -0.3697212
2.142709 -0.61267859 -0.36907649
2.1878126 -0.60932958 -0.36862123
2.2256854 -0.60425276 -0.36668262
1.7587277 -0.69754124 -0.36320484
1.8237604 -0.68179905 -0.36271486
1.8827732 -0.67531192 -0.36009145
1.910816 -0.67140979 -0.3647325
1.975803 -0.67361271 -0.3622523
1.9037888 -0.66838706 -0.36410221
1.9868109 -0.66382289 -0.36434138
2.0577903 -0.65050095 -0.3619346
1.9798269 -0.64999634 -0.36353442
2.0697989 -0.64019412 -0.36412019
2.1398854 -0.62137687 -0.36027414
2.1597848 -0.61438888 -0.36383548
2.2106655 -0.61373109 -0.36409599
2.1399193 -0.6050722 -0.36026743
2.2587795 -0.60368907 -0.36356044
1.7407141 -0.70362163 -0.35949278
1.7857313 -0.69471568 -0.35516787
1.8037463 -0.68801826 -0.35874256
1.8697628 -0.66523921 -0.35685959
2.0457819 -0.6606251 -0.35974997
1.9468169 -0.65392184 -0.35748035
2.1138663 -0.62987906 -0.35590264
2.1337597 -0.61986226 -0.35938749
2.1836231 -0.61692327 -0.3595666
1.8562599 -0.67645621 -0.35462117
1.9317482 -0.6670965 -0.35413799
1.9148073 -0.65769029 -0.35160968
2.0097408 -0.65937883 -0.35336366
1.9918147 -0.65396935 -0.35056102
2.0827179 -0.64587307 -0.35058159
2.0028391 -0.64234465 -0.35249093
2.1077421 -0.64094687 -0.35485676
2.0878484 -0.63798505 -0.35153103
2.0148637 -0.63086784 -0.35459691
2.1077342 -0.6249395 -0.35494155
2.142554 -0.6125297 -0.35277316
2.1877091 -0.6092416 -0.35200462
2.3037169 -0.60364014 -0.35336533
2.2007167 -0.59779227 -0.35417578
2.2395408 -0.59390801 -0.35206684
1.74071 -0.70362711 -0.34622803
1.7587236 -0.69754678 -0.34980294
1.8137634 -0.67804193 -0.3469049
1.8937612 -0.67928928 -0.34776497
1.9022479 -0.66737974 -0.34899807
1.979791 -0.66508824 -0.34845495
1.9757022 -0.65853167 -0.34733039
2.057693 -0.65041822 -0.34630844
2.0508375 -0.64222616 -0.34530684
2.1528733 -0.62518591 -0.34605938
2.2255325 -0.62103444 -0.34959224
2.1668997 -0.61277008 -0.34830335
2.2586727 -0.60359824 -0.34640294
2.2104971 -0.59675545 -0.34742829
1.7947203 -0.69824493 -0.34328184
1.8727461 -0.68597776 -0.34391409
1.7947487 -0.68456882 -0.34327623
1.8596674 -0.67423904 -0.34076568
1.9426719 -0.67239791 -0.34139672
1.8696744 -0.66516405 -0.34266579
1.9536797 -0.66294277 -0.34340021
2.0362411 -0.65450919 -0.34274867
2.1964881 -0.62333328 -0.34495866
2.2436635 -0.61479425 -0.34402278
2.3336329 -0.59728348 -0.34031132
1.7587196 -0.69755226 -0.33640105
1.8427383 -0.68895972 -0.33841014
1.9106354 -0.67125618 -0.33572015
1.9247961 -0.66115439 -0.33877951
2.0096457 -0.659298 -0.33810318
1.9918102 -0.65397561 -0.33538386
2.0946343 -0.65110779 -0.33668494
2.0878437 -0.63799161 -0.33562243
2.0946262 -0.63519937 -0.33676922
2.2006295 -0.63113564 -0.33728302
2.2146378 -0.62009072 -0.3395077
2.1423988 -0.6123808 -0.33646983
2.3036079 -0.60354751 -0.33586496
1.7496991 -0.70729333 -0.33468494
1.8796 -0.67013121 -0.33022109
1.8937867 -0.66486478 -0.33332855
1.986623 -0.66366315 -0.33417094
2.0575957 -0.65033549 -0.33068231
2.0758178 -0.65011615 -0.33369967
2.0826035 -0.61415553 -0.33493257
2.2103453 -0.61342388 -0.33045319
2.2725816 -0.60896456 -0.331276
2.3453741 -0.60896152 -0.33308631
2.3453653 -0.59111077 -0.33324939
1.785723 -0.69472682 -0.32795265
1.7947446 -0.68457443 -0.32960004
1.8561678 -0.67638731 -0.32638547
1.8627783 -0.66810274 -0.32787737
1.9535873 -0.66286427 -0.32856643
1.9468079 -0.65393406 -0.32781178
2.0268152 -0.65010822 -0.32582784
2.0335734 -0.65495932 -0.32676154
2.1833148 -0.63323611 -0.32618341
2.1528683 -0.62519264 -0.32965559
2.1833067 -0.61661977 -0.32633522
2.2435572 -0.61470401 -0.32697952
2.1963129 -0.58974952 -0.32854939
1.7496951 -0.70729882 -0.32135159
1.7587155 -0.69755781 -0.32299912
1.8327413 -0.68520272 -0.32260779
1.910545 -0.67117941 -0.32121396
1.9037756 -0.66840494 -0.32058218
1.9315654 -0.66694123 -0.32480562
1.9247917 -0.66116041 -0.32411283
2.0095508 -0.65921724 -0.32284275
2.0945351 -0.65102357 -0.32077688
2.094527 -0.63511515 -0.32086116
2.2145329 -0.62000167 -0.32268542
2.3185062 -0.59157187 -0.3205198
2.3495307 -0.58533078 -0.32487702
1.8037338 -0.68803519 -0.31750825
1.8761392 -0.67088735 -0.31565917
1.9645088 -0.66808015 -0.31549034
1.9865291 -0.66358328 -0.31908572
2.0695131 -0.6556623 -0.31688419
1.9798132 -0.65001494 -0.3182773
2.1875188 -0.64229947 -0.31859538
2.1875105 -0.62568259 -0.31868342
2.2252102 -0.62072521 -0.31572089
2.2392249 -0.61063999 -0.31782645
2.3452041 -0.60879856 -0.31523645
2.3612206 -0.59828907 -0.31751159
1.7677046 -0.70115554 -0.31118169
1.7677325 -0.68768513 -0.31117615
1.8695048 -0.67920774 -0.31420296
1.9357494 -0.67972082 -0.31122097
1.8427589 -0.67492938 -0.31032053
1.9424882 -0.67224175 -0.31189677
2.0334852 -0.67032111 -0.31123647
1.9357799 -0.6649704 -0.31121492
2.0454917 -0.6603784 -0.31314582
2.0507956 -0.65786558 -0.31405994
1.9358106 -0.65021992 -0.31120884
2.1398368 -0.63770169 -0.31136656
2.1398706 -0.62139696 -0.31135982
2.1961701 -0.62302798 -0.31152919
2.3291876 -0.61906403 -0.31296352
2.2724741 -0.60887313 -0.31401178
2.2724655 -0.59160858 -0.31410325
1.749691 -0.7073043 -0.30801827
1.8137221 -0.69187987 -0.30544776
1.8237435 -0.68182188 -0.30712628
1.900449 -0.68056756 -0.30503419
1.9214687 -0.67656457 -0.30846465
1.9984498 -0.66918719 -0.30582708
1.9918009 -0.65398806 -0.30502957
2.12045 -0.63024783 -0.30880317
2.1691332 -0.62591332 -0.30761981
2.2434511 -0.61461377 -0.30993626
1.7857147 -0.69473803 -0.30073738
1.8794295 -0.68425041 -0.30160546
1.8827558 -0.67533547 -0.30270475
1.9644159 -0.66800117 -0.30057275
2.0824225 -0.64562184 -0.30313176
2.0944281 -0.63503093 -0.3049531
2.1733999 -0.63632834 -0.30005714
2.2540948 -0.63498122 -0.30260324
2.187407 -0.62559462 -0.30206683
2.2540865 -0.6178239 -0.30276
2.200413 -0.61424267 -0.30394033
2.2680998 -0.60740989 -0.30476195
2.30339 -0.6033622 -0.30086425
1.7766935 -0.70475334 -0.29922712
1.8527474 -0.67862189 -0.29788664
1.9423964 -0.67216361 -0.29714677
1.9467682 -0.66878045 -0.29814929
1.9577917 -0.65766639 -0.29982805
2.0360897 -0.65439618 -0.29628086
2.0574012 -0.65017009 -0.29943001
2.1528244 -0.64160985 -0.2968547
2.2250574 -0.63750702 -0.29863051
2.2873824 -0.61462754 -0.29869467
2.3610497 -0.59812504 -0.2995398
1.749687 -0.70730978 -0.29468492
1.813718 -0.69188559 -0.29162678
1.8327328 -0.68521422 -0.29467636
1.9003592 -0.68049115 -0.2906042
1.8937436 -0.67931294 -0.29004306
1.9230652 -0.6761632 -0.29433009
2.0093682 -0.67431641 -0.29224101
2.0093606 -0.65905565 -0.29232186
2.1138134 -0.64601219 -0.2914826
2.1073434 -0.64060789 -0.29082841
2.1333642 -0.63572466 -0.29448092
2.1689761 -0.62576252 -0.29111075
2.2583606 -0.62048352 -0.29483947
2.3139966 -0.61179215 -0.29337177
2.3139877 -0.59417766 -0.29353267
1.7766894 -0.70475894 -0.28568807
1.7857107 -0.69474363 -0.28712976
1.8760347 -0.68508804 -0.2870838
1.9643229 -0.6679222 -0.28565514
1.9797727 -0.66511297 -0.2881121
2.0693173 -0.65549588 -0.28544906
1.9917964 -0.65399426 -0.28985241
2.0758035 -0.65013564 -0.28624824
2.082324 -0.64553809 -0.28731513
2.1873119 -0.64212352 -0.28536221
2.2003171 -0.63087016 -0.28713614
2.2539315 -0.63482457 -0.2854467
2.2679441 -0.62451643 -0.28734094
2.2829583 -0.61447674 -0.28936136
1.7496829 -0.70731527 -0.2813516
1.8527138 -0.69274575 -0.28377435
1.9312989 -0.68137479 -0.28072938
1.9247479 -0.67584509 -0.28011888
1.9423045 -0.67208552 -0.28239676
1.9467636 -0.66878659 -0.28331503
2.0360394 -0.65435845 -0.28079158
2.1668112 -0.64581811 -0.28227502
2.2248962 -0.63735241 -0.28169483
1.8237064 -0.69573039 -0.27933773
1.8937392 -0.6793189 -0.27561256
2.0147767 -0.66160405 -0.27784765
2.0092657 -0.65897483 -0.27706143
2.1202576 -0.64618367 -0.27650559
2.146277 -0.6412003 -0.27996057
2.1958601 -0.63943809 -0.27794701
2.3138289 -0.61163133 -0.27575812
2.3138201 -0.59401685 -0.27591902
1.7766852 -0.70476449 -0.272149
1.7946995 -0.698273 -0.27490088
1.8627317 -0.6823203 -0.27110606
1.8792517 -0.68409932 -0.27306545
1.8892565 -0.67486984 -0.27458546
2.0822332 -0.66127133 -0.27141473
2.0877912 -0.65392625 -0.27199471
2.094238 -0.6507709 -0.27305275
2.2002213 -0.64749759 -0.27033195
2.214227 -0.6365571 -0.27212939
2.2988157 -0.62202281 -0.27384877
1.8237021 -0.69573611 -0.26544055
1.8527095 -0.69275153 -0.26965624
1.9312075 -0.68129712 -0.26606324
1.9357359 -0.679739 -0.2669695
1.9422127 -0.67200744 -0.26764676
1.9577518 -0.67259663 -0.26999801
2.0452015 -0.66013163 -0.26654166
1.9577826 -0.6576786 -0.26999187
2.038789 -0.65400922 -0.2656163
2.2537682 -0.63466793 -0.2682901
2.3031807 -0.62067765 -0.26577076
2.2537599 -0.61751062 -0.26844683
1.7946955 -0.69827861 -0.26122469
1.9101909 -0.68537867 -0.2631124
1.9037279 -0.68293548 -0.2625615
2.0147405 -0.67696267 -0.26250157
2.0239739 -0.66503119 -0.26370639
2.1331704 -0.65175855 -0.26198474
2.1461754 -0.641114 -0.26365635
2.1956928 -0.6225701 -0.26138499
2.258147 -0.62030184 -0.26052442
1.7766812 -0.70477003 -0.25860995
1.8627274 -0.68232614 -0.25691178
1.8691512 -0.67890716 -0.25742772
2.0821347 -0.66118759 -0.25559813
2.0941389 -0.65068668 -0.25714472
2.2291365 -0.64265537 -0.25702375
2.1826823 -0.63262922 -0.25972062
2.2291279 -0.62571847 -0.25711349
2.3136699 -0.62908512 -0.25798345
1.8136767 -0.70572346 -0.25016963
1.8236979 -0.69574183 -0.2515434
1.8427128 -0.68899435 -0.25415871
1.9311162 -0.68121946 -0.25139704
1.9357315 -0.67974508 -0.25221905
1.95544 -0.6749543 -0.25469941
2.0451047 -0.66004944 -0.25100696
2.0507767 -0.65789127 -0.25155327
2.1871049 -0.64194757 -0.25212908
2.2536049 -0.63451117 -0.25113347
2.2676156 -0.62420112 -0.25281441
1.7856702 -0.70836806 -0.24631253
1.9101006 -0.6853019 -0.24860622
1.9037235 -0.68294144 -0.24805482
1.9980718 -0.6688658 -0.24512056
2.0331004 -0.66999412 -0.24946332
2.0147674 -0.66161668 -0.24714287
2.1330695 -0.65167278 -0.24577956
2.1460741 -0.64102769 -0.24735215
2.2095532 -0.62947816 -0.2461925
2.3030717 -0.62058502 -0.24827041
2.3180761 -0.60881382 -0.24996793
1.8527009 -0.69276315 -0.24142005
1.8627231 -0.68233198 -0.24271749
1.8790741 -0.68394822 -0.24452546
1.9687353 -0.67641306 -0.24151146
1.9860671 -0.67826945 -0.24357976
1.979759 -0.66513157 -0.24285492
2.1070523 -0.65636104 -0.24272238
2.2290311 -0.64256567 -0.24008718
2.1825242 -0.63247746 -0.24310489
2.2430351 -0.63129646 -0.24167301
2.2580402 -0.62021101 -0.24336691
1.8236361 -0.72354174 -0.23765773
1.8236649 -0.70964468 -0.237652
1.8236938 -0.69574755 -0.23764628
1.9420364 -0.68660152 -0.23806868
1.935727 -0.67975116 -0.23746857
1.9530406 -0.6772272 -0.23948506
2.0820363 -0.6611039 -0.23978147
2.0450082 -0.65996718 -0.2354722
2.050772 -0.65789771 -0.23592661
2.1870098 -0.65847653 -0.23542446
2.2000132 -0.64732057 -0.23690069
1.8936963 -0.69376707 -0.23232707
1.9100103 -0.68522507 -0.23410001
1.8789852 -0.6838727 -0.23025548
1.9037191 -0.6829474 -0.23354816
2.002739 -0.67291665 -0.23041591
2.0267551 -0.66559011 -0.23317136
2.0330043 -0.66991234 -0.23401999
2.2384305 -0.64394802 -0.23230338
2.2384222 -0.62690502 -0.23245908
2.2534332 -0.61719722 -0.23413362
1.8526967 -0.69276893 -0.22730196
1.9797232 -0.68022341 -0.22777542
1.9859731 -0.67818958 -0.22849454
1.9979773 -0.66878545 -0.22994393
2.0939486 -0.66642654 -0.22524437
2.1069527 -0.65627635 -0.22671527
2.1329687 -0.65158701 -0.22957438
2.1953831 -0.63898021 -0.22780277
2.2579334 -0.62012017 -0.22620939
1.8136684 -0.70573485 -0.2225277
1.8236895 -0.69575322 -0.22374915
1.9147069 -0.68692517 -0.22030742
1.9419445 -0.68652344 -0.2233187
1.9357226 -0.67975718 -0.22271809
1.9529482 -0.6771487 -0.22465131
2.242929 -0.63120621 -0.22462979
1.9036846 -0.69745994 -0.21904747
1.8889062 -0.68891251 -0.21712467
1.90992 -0.6851483 -0.21959384
2.008893 -0.67391241 -0.21593881
2.0329082 -0.66983056 -0.21857671
2.0147581 -0.66162926 -0.21643808
2.0449114 -0.65988493 -0.2199375
2.1869063 -0.65838856 -0.21880786
1.8326784 -0.69921428 -0.21088782
1.8526924 -0.69277471 -0.21318386
1.963866 -0.68244517 -0.21098815
1.9687262 -0.6764254 -0.21150766
1.9858792 -0.67810971 -0.21340933
1.9797498 -0.66514397 -0.21268351
2.1328676 -0.65150118 -0.21336921
1.9146723 -0.70152158 -0.20572294
1.7946788 -0.69830108 -0.20651993
1.9356874 -0.69451374 -0.20797369
1.9098296 -0.68507147 -0.20508766
1.9442816 -0.68504834 -0.20885921
2.0757139 -0.68180233 -0.20717552
2.068836 -0.67079777 -0.20677795
2.0818393 -0.66093642 -0.20814827
2.0938418 -0.65043402 -0.20942059
1.8626513 -0.71073794 -0.20014632
1.8726733 -0.70030683 -0.20121519
1.8998274 -0.69446295 -0.2039478
2.0208089 -0.67951208 -0.20186496
2.0448222 -0.67533767 -0.20432046
2.1868029 -0.65830064 -0.20219128
1.9637731 -0.68236619 -0.19607055
1.979714 -0.6802358 -0.197604
1.9857852 -0.67802984 -0.19832414
2.0027297 -0.67292917 -0.19989401
2.1197641 -0.66186374 -0.19588962
2.1457775 -0.6570732 -0.19835311
1.9067112 -0.69848651 -0.19026938
1.9307582 -0.6955753 -0.19265464
1.9246908 -0.69054782 -0.1921249
1.9527708 -0.69182569 -0.19490513
1.9467058 -0.68365735 -0.19431542
2.0627174 -0.67751092 -0.1901596
2.0817487 -0.6766696 -0.19224787
2.0937505 -0.66625816 -0.19342828
1.872669 -0.70031267 -0.18694472
2.0147171 -0.6769942 -0.18573967
2.0207133 -0.67943078 -0.18651311
2.0447254 -0.67525542 -0.18878575
1.8526547 -0.70690447 -0.1849535
1.9636878 -0.69720513 -0.1810739
1.9636803 -0.68228722 -0.18115294
1.9917011 -0.68439221 -0.18362494
1.9856913 -0.67794997 -0.18323891
2.132674 -0.66753507 -0.18087302
2.1456759 -0.65698689 -0.18204889
1.9306742 -0.71016425 -0.17791076
1.9146634 -0.70153356 -0.176542
1.9416764 -0.70103943 -0.1789906
1.9246864 -0.69055384 -0.17745826
2.0936596 -0.68208224 -0.17743596
2.1066618 -0.67202944 -0.17860922
1.8626428 -0.71074963 -0.17175776
1.8936489 -0.70822132 -0.17461112
2.0446367 -0.6907081 -0.17316873
2.0267045 -0.6810593 -0.17140247
2.0566385 -0.68076122 -0.1742553
1.9746037 -0.70258355 -0.1670751
1.9686815 -0.69144577 -0.16650815
1.9635873 -0.68220824 -0.16623536
1.9916966 -0.68439841 -0.16844779
1.9855974 -0.67787009 -0.1681537
2.1455743 -0.65690058 -0.16574466
1.8936146 -0.72265768 -0.16018659
1.9415919 -0.71571159 -0.16416249
1.9036371 -0.71199048 -0.16102678
1.9356436 -0.70928234 -0.16372836
1.9415845 -0.70096135 -0.16424063
1.9466662 -0.69850379 -0.16465296
2.1195717 -0.6777997 -0.16359207
2.106554 -0.65593731 -0.16268693
2.0266998 -0.68106562 -0.15595865
1.9576536 -0.70248187 -0.15066554
1.9745103 -0.70250416 -0.1520737
1.9855109 -0.69287574 -0.15298858
1.8936102 -0.72266358 -0.1457561
1.9415001 -0.71563351 -0.14941251
1.9036326 -0.71199644 -0.14652011
1.935639 -0.70928842 -0.14897788
1.9304843 -0.69534236 -0.14865611
1.9414082 -0.71555543 -0.13466252
1.9853307 -0.70780158 -0.12273826
1.9413164 -0.71547735 -0.11991254
1.9522315 -0.72102261 -0.10574522
1.9742376 -0.71726763 -0.10699002
1.9972441 -0.71367347 -0.10828965
2.0202508 -0.70972872 -0.10959112
2.0441608 -0.70583206 -0.095412858
2.044153 -0.69029689 -0.095495157
1.9521391 -0.72094411 -0.090911426
1.9741441 -0.71718824 -0.091988616
2.0081558 -0.71904826 -0.093612738
2.032162 -0.71550721 -0.094784908
1.93556 -0.73881352 -0.089988112
2.0560782 -0.72714424 -0.080250084
2.0810831 -0.72353417 -0.081280194
1.9465777 -0.7282089 -0.075659454
1.9795836 -0.72554249 -0.076936923
1.9520468 -0.72086555 -0.076077648
1.9850564 -0.72264749 -0.077402703
2.0080607 -0.71896744 -0.078352302
2.0809846 -0.72345042 -0.06546358
2.0929821 -0.71330947 -0.065911137
1.9795477 -0.74063438 -0.06185741
1.9739648 -0.73203087 -0.061906338
2.0319774 -0.73078728 -0.06381651
2.0679865 -0.73292017 -0.06498675
1.99157 -0.72997338 -0.062226526
1.9795432 -0.74064058 -0.046771698
2.0558836 -0.72697878 -0.048997797
2.092891 -0.72913349 -0.049918823
2.0437894 -0.73657298 -0.033109393
2.0437081 -0.76756072 -0.017410083
2.0437005 -0.75202572 -0.017492376
