# .PCD v0.7 - Point Cloud Data file format
VERSION 0.7
FIELDS x y z
SIZE 4 4 4
TYPE F F F
COUNT 1 1 1
WIDTH 1510
HEIGHT 1
VIEWPOINT 0 0 0 1 0 0 0
POINTS 1510
DATA ascii
2.251817 2.8330712 -0.54994971
2.2762005 2.8317552 -0.54554886
2.2401805 2.8436651 -0.54721558
2.2763183 2.8484674 -0.54589999
2.2293434 2.9007335 -0.54531425
2.2299526 2.9164357 -0.54567957
2.2438591 2.9384713 -0.54942143
2.2311711 2.9478397 -0.54641026
2.6712708 2.6428652 -0.54460078
2.5069249 2.6500862 -0.54035598
2.6130278 2.6582394 -0.54352069
2.5070553 2.6685655 -0.5407443
2.5171604 2.6830432 -0.54186571
2.4394624 2.6923571 -0.54246795
2.4242928 2.7026758 -0.54186344
2.4401362 2.7097182 -0.54287189
2.3537984 2.7295673 -0.54043198
2.2275157 2.8536277 -0.54421824
2.263346 2.8576236 -0.54306197
2.2281249 2.8693295 -0.54458356
2.2072177 2.9514837 -0.54053366
2.2078199 2.9670029 -0.54089475
2.6311622 2.6406465 -0.53679794
2.5828674 2.6495585 -0.53719908
2.5382438 2.6646481 -0.53818476
2.6312258 2.6603692 -0.53714293
2.4900875 2.6793571 -0.53739661
2.4255507 2.7218184 -0.53977048
2.3184547 2.7371747 -0.53653926
2.3412094 2.7414124 -0.53767669
2.3185749 2.7542143 -0.5368973
2.328234 2.7691722 -0.53505844
2.3186951 2.7712541 -0.53725541
2.2756722 2.7803743 -0.53907192
2.3188152 2.7882936 -0.53761345
2.2630391 2.7911179 -0.53619188
2.3189354 2.8053331 -0.5379715
2.2769208 2.8125546 -0.53982067
2.3049626 2.8146601 -0.53501052
2.2642801 2.8231006 -0.53693599
2.2042072 2.8738868 -0.53872818
2.1961339 2.9763107 -0.53813058
2.1844406 2.9854357 -0.53536218
2.1979296 3.0225949 -0.53920746
2.1862259 3.0314457 -0.53643268
2.6514766 2.6341968 -0.53183496
2.5588658 2.6543319 -0.53249592
2.5663233 2.6628311 -0.53393292
2.6122062 2.6692352 -0.53361011
2.4570246 2.6825328 -0.53052473
2.3781395 2.6983268 -0.53174949
2.3782628 2.7158237 -0.53211713
2.3824651 2.7236567 -0.53011537
2.3275938 2.7526784 -0.53467464
2.2899816 2.8232152 -0.53180778
2.2516317 2.8334484 -0.53404677
2.2399964 2.8440404 -0.53140396
2.6332319 2.6469331 -0.52844131
2.5408983 2.6653385 -0.52907968
2.5741019 2.666811 -0.52619183
2.4548473 2.6806571 -0.52829969
2.43926 2.6927691 -0.52509499
2.4400527 2.6926844 -0.52716357
2.3622873 2.7253561 -0.52883136
2.347316 2.7351503 -0.52576894
2.3678536 2.7350872 -0.52699834
2.3013575 2.7749677 -0.52889824
2.2887373 2.786006 -0.52612406
2.2893653 2.8021951 -0.52650076
2.2760055 2.8321078 -0.52883762
2.2761233 2.8488197 -0.52918875
2.2273326 2.8540003 -0.52850568
2.2631521 2.8579741 -0.52644956
2.2279418 2.8697023 -0.528871
2.2162888 2.8798294 -0.52621728
2.2291603 2.9011064 -0.52960169
2.2175 2.9110513 -0.52694368
2.2181058 2.9266617 -0.52730691
2.207639 2.9673715 -0.52536494
2.1614695 2.9885163 -0.52972084
2.7096665 2.6399322 -0.52272522
2.6710188 2.6432161 -0.524575
2.6128025 2.6586461 -0.52423489
2.5068395 2.6689553 -0.52226585
2.5162544 2.6655145 -0.52348089
2.4079895 2.6954513 -0.52049333
2.4246805 2.7049809 -0.5221104
2.3333499 2.745229 -0.52293032
2.3542516 2.7466629 -0.52411026
2.3186164 2.7886529 -0.52057463
2.3187366 2.8056927 -0.52093267
2.2767332 2.8129365 -0.52371967
2.2773573 2.8290267 -0.52409405
2.264714 2.8394713 -0.5213061
2.2064347 2.9363327 -0.52464277
2.194757 2.9458208 -0.52197427
2.1959541 2.9766769 -0.5226922
2.1842618 2.9857998 -0.52001512
2.1848569 3.0011363 -0.52037197
2.185452 3.0164731 -0.52072883
2.5826521 2.6499968 -0.5187217
2.5380046 2.6649814 -0.51917207
2.4871578 2.6764765 -0.51798916
2.3930247 2.705936 -0.51755971
2.3958519 2.7120512 -0.51595551
2.3183761 2.7545738 -0.51985848
2.3274014 2.7530699 -0.51816994
2.3044064 2.7642183 -0.51701087
2.3280416 2.7695637 -0.51855373
2.2398121 2.8444152 -0.51559234
2.1624694 3.0191994 -0.51525444
2.6512642 2.6143146 -0.51305735
2.7108006 2.624855 -0.51137632
2.6512516 2.6346288 -0.51254207
2.6326952 2.6440358 -0.51369286
2.710866 2.6451869 -0.51173198
2.5586455 2.6547301 -0.51362139
2.6118968 2.6500006 -0.51369119
2.548851 2.6580708 -0.51201886
2.5406797 2.6657338 -0.5103423
2.6119599 2.6695786 -0.51403368
2.4557285 2.6819935 -0.51161599
2.3780584 2.7161927 -0.51462126
2.382268 2.7240582 -0.51318419
2.3620844 2.7257228 -0.51145732
2.3829243 2.740978 -0.51357788
2.3011677 2.7753544 -0.51259917
2.2894216 2.8046653 -0.51246852
2.2897854 2.82357 -0.51498979
2.2758102 2.8324604 -0.51212627
2.275928 2.8491726 -0.5124774
2.2271497 2.854373 -0.51279306
2.2277589 2.8700747 -0.51315838
2.2161069 2.8802001 -0.51059616
2.2167125 2.8958111 -0.51095939
2.7293909 2.6281676 -0.5060401
2.6315405 2.6476436 -0.50826991
2.5160451 2.6659408 -0.50551379
2.5738592 2.6671493 -0.50690484
2.4394503 2.6931224 -0.50845867
2.3471146 2.7355142 -0.50850922
2.3540571 2.7470591 -0.50739992
2.2885485 2.7863903 -0.50992399
2.2765455 2.8133185 -0.50761867
2.2771697 2.8294086 -0.50799304
2.2645276 2.8398509 -0.50530404
2.262958 2.8583243 -0.50983727
2.2050498 2.9056623 -0.50839072
2.2056518 2.9211814 -0.50875181
2.206254 2.9367008 -0.50911289
2.194577 2.946187 -0.50653577
2.1951756 2.9616151 -0.50689471
2.1957741 2.9770432 -0.50725371
2.1963727 2.9924712 -0.50761265
2.1846781 3.0015004 -0.50502497
2.1852732 3.0168371 -0.50538176
2.5824368 2.650435 -0.50024432
2.5944822 2.651453 -0.50141615
2.5066237 2.6693451 -0.5037874
2.5377655 2.6653147 -0.50015938
2.4077826 2.6958251 -0.50276893
2.4244795 2.7053902 -0.5048517
2.3180568 2.7378936 -0.50246155
2.318177 2.7549334 -0.5028196
2.3272092 2.7534614 -0.50166523
2.3042088 2.7645755 -0.50007856
2.3278494 2.7699552 -0.50204903
2.3184173 2.7890124 -0.50353575
2.3044477 2.7984414 -0.50079018
2.1622927 3.0195594 -0.50008267
2.6692924 2.6197248 -0.49753591
2.6306026 2.6216154 -0.49701065
2.6893318 2.632364 -0.49893701
2.4725637 2.6724381 -0.49722165
2.4842358 2.6736288 -0.49920723
2.3777308 2.699065 -0.49675772
2.3956532 2.7124553 -0.49891761
2.3778541 2.7165618 -0.49712539
2.3820705 2.7244599 -0.49625283
2.3009777 2.7757409 -0.49630004
2.2892289 2.8050349 -0.49595946
2.2756152 2.8328128 -0.49541488
2.2396278 2.8447905 -0.49978071
2.2269666 2.8547456 -0.49708042
2.2275758 2.8704476 -0.49744573
2.2281852 2.8861496 -0.49781108
2.2287943 2.9018517 -0.49817643
2.2171361 2.9117923 -0.49570131
2.6510265 2.6350608 -0.49324912
2.6324615 2.6444325 -0.49439552
2.7106102 2.6455436 -0.49140149
2.6116505 2.6503439 -0.49411482
2.5486388 2.6585031 -0.49380034
2.5584249 2.6551282 -0.49474689
2.5926337 2.6590605 -0.49086893
2.4555209 2.6823916 -0.49381971
2.4388552 2.6935933 -0.49034894
2.3618815 2.7260892 -0.49408334
2.3469131 2.7358785 -0.49124944
2.3674619 2.7358849 -0.49336439
2.2883596 2.7867746 -0.49372387
2.2759278 2.8149006 -0.4932906
2.2626469 2.8420615 -0.49287581
2.2486708 2.8505311 -0.49011016
2.2054708 2.9215498 -0.49322194
2.206073 2.9370694 -0.49358302
2.1943972 2.9465532 -0.49109736
2.1949959 2.9619813 -0.49145633
2.1955943 2.9774094 -0.4918153
2.196193 2.9928374 -0.49217427
2.6904655 2.6145377 -0.48743424
2.7291551 2.6285932 -0.48586309
2.6313136 2.6480536 -0.48883942
2.5233691 2.6586926 -0.48826274
2.506408 2.669735 -0.48530897
2.5158358 2.6663668 -0.48754674
2.5736165 2.6674876 -0.48761794
2.4235418 2.6859584 -0.4879497
2.4075756 2.6961989 -0.48504457
2.4242783 2.7057996 -0.48759291
2.317858 2.7382531 -0.4854227
2.3406286 2.7425942 -0.48784259
2.3270168 2.7538528 -0.4851605
2.3179781 2.7552929 -0.48578078
2.327657 2.7703466 -0.48554426
2.2637208 2.8242393 -0.4889299
2.2510757 2.8345799 -0.48633766
2.1844993 3.0018644 -0.48967788
2.1727984 3.0107088 -0.48717731
2.6504347 2.6329398 -0.48090649
2.5822215 2.6508732 -0.48176697
2.5942585 2.6518569 -0.48226741
2.4840293 2.6740494 -0.48148394
2.5556023 2.6762118 -0.48455101
2.3926134 2.7066791 -0.48233941
2.3954549 2.7128594 -0.48187977
2.3040111 2.7649326 -0.48314637
2.3161259 2.7853289 -0.48467579
2.2891552 2.7906423 -0.480647
2.2892737 2.8074608 -0.48100042
2.2394438 2.8451655 -0.48396906
2.2267835 2.8551183 -0.4813678
2.2273927 2.8708203 -0.48173311
2.2280021 2.8865223 -0.48209846
2.2286112 2.9022243 -0.48246381
2.216954 2.9121628 -0.48008007
2.1621158 3.0199192 -0.48491076
2.6690693 2.6201789 -0.47838834
2.6890996 2.6327832 -0.4790647
2.6304178 2.6416838 -0.47763455
2.5484264 2.6589351 -0.47558197
2.5582047 2.6555264 -0.47587237
2.4723511 2.6728225 -0.47900221
2.4542358 2.6819019 -0.47581515
2.3776498 2.7169309 -0.47962955
2.3818734 2.7248614 -0.47932163
2.3616786 2.7264557 -0.47670937
2.3672659 2.7362838 -0.47654736
2.2881711 2.7871587 -0.47752383
2.2755461 2.797992 -0.4750421
2.2757363 2.8152678 -0.47688442
2.27542 2.8331654 -0.47870353
2.2052898 2.9219182 -0.47769216
2.1936185 2.9314914 -0.47529998
2.1942172 2.9469194 -0.47565892
2.1948159 2.9623473 -0.47601789
2.1954143 2.9777756 -0.47637686
2.196013 2.9932034 -0.47673583
2.1966116 3.0086315 -0.4770948
2.6508014 2.6354926 -0.47395626
2.73137 2.6367784 -0.4743475
2.7103543 2.6459 -0.47107098
2.6114042 2.6506872 -0.47453845
2.540242 2.6665244 -0.47286743
2.4392965 2.6758528 -0.47288164
2.4233334 2.6863346 -0.47010347
2.4386528 2.6940053 -0.47297597
2.3467116 2.7362425 -0.4739897
2.340435 2.7429883 -0.47123125
2.3327491 2.7463145 -0.47147104
2.2502737 2.8190651 -0.47006491
2.2483616 2.8343728 -0.47325763
2.2484779 2.8508792 -0.4736045
2.1849153 3.0175653 -0.4746877
2.7289195 2.6290188 -0.46568608
2.615778 2.6427381 -0.46920359
2.5733116 2.6485372 -0.46799359
2.6310866 2.6484635 -0.46940884
2.5156264 2.6667929 -0.4695797
2.5733738 2.6678257 -0.46833098
2.5061922 2.6701248 -0.46683052
2.4073687 2.6965728 -0.46732017
2.4098446 2.701395 -0.46749148
2.3268247 2.7542443 -0.46865579
2.3177791 2.7556522 -0.46874189
2.3038132 2.7652898 -0.46621415
2.3274648 2.7707381 -0.46903956
2.3039327 2.7822227 -0.46656999
2.2386465 2.8297396 -0.4677898
2.2392595 2.8455405 -0.46815744
2.2266004 2.8554912 -0.46565518
2.2272096 2.8711929 -0.46602049
2.1619391 3.0202789 -0.4697389
2.6702631 2.6442695 -0.46449751
2.5820062 2.6513114 -0.46328962
2.5940349 2.6522608 -0.4631187
2.537287 2.6659813 -0.46213397
2.4721384 2.673207 -0.46078277
2.4838226 2.6744697 -0.46376055
2.3773222 2.6998034 -0.461766
2.3952563 2.7132635 -0.46484187
2.3774455 2.7172999 -0.46213368
2.381676 2.7252631 -0.46239039
2.3005979 2.7765141 -0.46370187
2.2879822 2.7875431 -0.46132377
2.288959 2.790997 -0.46382904
2.2890775 2.8078156 -0.46418247
2.2751071 2.8168058 -0.46164101
2.2752249 2.833518 -0.4619922
2.2623761 2.8593757 -0.46000031
2.2155609 2.8813117 -0.46373245
2.2161665 2.8969226 -0.46409565
2.2167721 2.9125333 -0.46445888
2.2051089 2.9222865 -0.46216232
2.2057111 2.9378059 -0.4625234
2.1940374 2.9472857 -0.46022052
2.1946361 2.9627135 -0.46057948
2.6688461 2.6206331 -0.45924073
2.6513367 2.6346648 -0.45646781
2.6888676 2.6332026 -0.4591924
2.6301696 2.6420298 -0.45791343
2.6689095 2.6449261 -0.45614791
2.5482142 2.6593671 -0.45736358
2.5579841 2.6559246 -0.45699787
2.4540319 2.682317 -0.45832032
2.4384503 2.6944175 -0.45560297
2.3614757 2.7268224 -0.45933536
2.3528249 2.731549 -0.45688021
2.2753584 2.7983739 -0.45894104
2.2759829 2.8144641 -0.45931542
2.2633479 2.8249984 -0.45692584
2.2622588 2.8427625 -0.4596512
2.1829512 2.9719191 -0.45827019
2.1835463 2.9872558 -0.45862702
2.1841414 3.0025926 -0.45898387
2.7100332 2.6259246 -0.45038483
2.7100985 2.6462564 -0.45074049
2.6111579 2.6510305 -0.45496207
2.5154169 2.6672192 -0.45161259
2.5400231 2.6669197 -0.45412996
2.4390867 2.6762319 -0.4549135
2.423125 2.6867113 -0.45225722
2.332428 2.7295227 -0.45395747
2.3174601 2.7389722 -0.451345
2.3402414 2.7433825 -0.45461991
2.3266323 2.7546358 -0.45215109
2.3272724 2.7711296 -0.45253485
2.2384622 2.8301146 -0.45197818
2.2390752 2.8459156 -0.45234582
2.2270265 2.8715656 -0.45030788
2.228245 2.9029696 -0.45103857
2.1611738 3.0054774 -0.4542143
2.1617622 3.0206389 -0.45456707
2.7286839 2.6294446 -0.44550908
2.5983174 2.6382337 -0.44742495
2.5730691 2.6488752 -0.44870666
2.6308599 2.6488733 -0.44997832
2.5550587 2.6577322 -0.44591638
2.4836161 2.67489 -0.44603723
2.5059762 2.6705146 -0.44835207
2.394397 2.6966414 -0.44740787
2.4071617 2.6969469 -0.44959581
2.3922021 2.7074223 -0.44711921
2.3950577 2.7136676 -0.44780403
2.3034961 2.7487142 -0.44892612
2.3036156 2.7656472 -0.44928193
2.3004079 2.7769008 -0.44740281
2.303735 2.7825801 -0.44963777
2.2877934 2.7879272 -0.44512373
2.3038545 2.7995131 -0.44999358
2.2750297 2.8338704 -0.44528088
2.2264173 2.8558638 -0.44994256
2.2153788 2.8816822 -0.44811124
2.2165899 2.9129038 -0.44883767
2.2049279 2.9226549 -0.4466325
2.2055302 2.9381742 -0.44699359
2.1944561 2.9630797 -0.44514108
2.670011 2.6446209 -0.44447175
2.5817909 2.6517496 -0.44481224
2.5938115 2.6526647 -0.44396996
2.5370479 2.6663146 -0.44312125
2.4719255 2.6735914 -0.44256327
2.4538281 2.6827321 -0.44082546
2.3611503 2.7098141 -0.44159624
2.3637474 2.7237325 -0.44224185
2.3526301 2.7319455 -0.44016987
2.2751708 2.7987559 -0.44284001
2.2747939 2.8004463 -0.44457853
2.2753534 2.8160024 -0.44407204
2.2631614 2.8253779 -0.44092381
2.2620649 2.8431129 -0.44303888
2.2621822 2.8597262 -0.44338799
2.1938574 2.9476519 -0.44478211
2.1827724 2.9722831 -0.44292316
2.1833675 2.9876199 -0.44327998
2.1716738 2.9965491 -0.44105572
2.6503782 2.616118 -0.4370153
2.6886356 2.6336217 -0.43932006
2.6299217 2.6423755 -0.43819231
2.6686792 2.6453421 -0.43642795
2.6109116 2.6513736 -0.43538564
2.548002 2.6597993 -0.43914515
2.5577638 2.656323 -0.43812335
2.5398045 2.667315 -0.43539259
2.4388769 2.6766109 -0.43694541
2.4382479 2.6948295 -0.43822998
2.3322277 2.7298844 -0.43680432
2.3400481 2.7437763 -0.43800855
2.3264399 2.7550273 -0.43564636
2.3176215 2.7904503 -0.43538031
2.2382779 2.8304896 -0.43616655
2.2388909 2.8462906 -0.4365342
2.2395041 2.8620915 -0.43690184
2.1609972 3.0058372 -0.43904245
2.1615856 3.020999 -0.43939522
2.6328652 2.6300097 -0.4343763
2.6306329 2.6492834 -0.43054774
2.498965 2.6626222 -0.43077371
2.5919003 2.6600826 -0.43257388
2.4996569 2.6804554 -0.43118861
2.4229167 2.6870875 -0.43441099
2.4069548 2.6973209 -0.43187144
2.409445 2.7022088 -0.43318725
2.3948593 2.7140718 -0.43076614
2.317261 2.7393315 -0.43430611
2.3032985 2.7490714 -0.43199387
2.2995861 2.7609992 -0.43072474
2.3034179 2.7660043 -0.43234968
2.3002181 2.7772872 -0.43110371
2.2885661 2.7917066 -0.4301931
2.2268434 2.8719382 -0.43459529
2.2151968 2.8820527 -0.43248999
2.2158024 2.8976636 -0.43285319
2.216408 2.9132743 -0.43321642
2.204747 2.9230232 -0.43110266
2.6897039 2.6155992 -0.42689976
2.5981004 2.6386752 -0.42881811
2.6897688 2.6357789 -0.42725277
2.5815756 2.6521881 -0.42633489
2.5548179 2.6580679 -0.42676654
2.5057604 2.6709044 -0.42987362
2.488802 2.6816797 -0.4273029
2.3919966 2.7077937 -0.42950907
2.3660259 2.7206748 -0.42570537
2.2876048 2.7883115 -0.42892367
2.2745988 2.8007989 -0.42786717
2.2882328 2.8045006 -0.42930034
2.2616365 2.8102374 -0.42572835
2.2617538 2.8268504 -0.42607746
2.2618709 2.8434634 -0.42642656
2.193079 2.93259 -0.42898473
2.1936777 2.9480181 -0.42934367
2.1819987 2.9573104 -0.4272193
2.1825936 2.9726472 -0.42757615
2.1831887 2.9879837 -0.42793298
2.1714959 2.9969108 -0.42580009
2.6858954 2.6072423 -0.42343783
2.6684 2.6215415 -0.42094553
2.7083559 2.6220188 -0.4221811
2.6697593 2.6449718 -0.4244459
2.5935879 2.6530688 -0.42482126
2.6497486 2.6538601 -0.42163372
2.5477896 2.6602314 -0.42092678
2.5368087 2.6666479 -0.42410856
2.4536242 2.683147 -0.42333063
2.4380455 2.6952415 -0.42085701
2.3609476 2.7101805 -0.42422226
2.3459854 2.7200744 -0.42184773
2.3524354 2.7323418 -0.4234595
2.3398545 2.7441704 -0.42139721
2.3404984 2.7607706 -0.42178345
2.2623544 2.8097663 -0.4245497
2.2497177 2.8201966 -0.4223558
2.2380939 2.8308647 -0.4203549
2.2387068 2.8466656 -0.42072254
2.2478998 2.8519239 -0.42408744
2.1608202 3.006197 -0.42387059
2.1614087 3.0213585 -0.42422336
2.7516055 2.6284232 -0.41566715
2.6884036 2.6340408 -0.41944775
2.6508937 2.6355667 -0.41844681
2.6684489 2.6457582 -0.41670796
2.5575435 2.6567211 -0.41924882
2.6297371 2.6624439 -0.41881621
2.5149982 2.6680715 -0.4156785
2.5395856 2.6677103 -0.41665518
2.4386668 2.67699 -0.41897732
2.422708 2.6874642 -0.4165647
2.4092453 2.7026155 -0.41603515
2.3320274 2.7302463 -0.41965121
2.3170621 2.7396908 -0.41726726
2.3031008 2.7494287 -0.41506165
2.3032203 2.7663617 -0.41541746
2.3126328 2.7664542 -0.41688111
2.3174226 2.7908096 -0.41834146
2.2260511 2.8566091 -0.41851735
2.2266603 2.8723111 -0.41888267
2.2156203 2.8980341 -0.41723201
2.203964 2.9078724 -0.41521177
2.204566 2.9233916 -0.41557285
2.7692542 2.6259069 -0.41087174
2.615123 2.6440713 -0.41299462
2.6304061 2.6496933 -0.41111723
2.5916557 2.6604233 -0.41314223
2.5726459 2.6688402 -0.41047016
2.5055447 2.6712942 -0.41139519
2.4832032 2.6757307 -0.41059056
2.4067476 2.6976948 -0.41414708
2.3917909 2.7081652 -0.41189894
2.3946607 2.7144759 -0.4137283
2.3810842 2.7264678 -0.41159669
2.3000281 2.777674 -0.41480464
2.287416 2.7886958 -0.41272357
2.2883699 2.7920613 -0.41337514
2.2747955 2.7995195 -0.41063792
2.2744038 2.8011513 -0.41115585
2.274971 2.8167367 -0.41125965
2.2027597 2.8768337 -0.4144896
2.192899 2.932956 -0.41354629
2.1934977 2.948384 -0.41390523
2.1818199 2.9576745 -0.41187224
2.1824148 2.9730113 -0.41222909
2.1830099 2.988348 -0.41258591
2.1713183 2.9972727 -0.41054446
2.7049201 2.6128073 -0.40710917
2.68945 2.6159527 -0.40672162
2.7282128 2.6302958 -0.40515512
2.6895149 2.6361325 -0.40707463
2.5641155 2.647542 -0.40507117
2.5933642 2.6534729 -0.40567255
2.5365694 2.6669815 -0.40509582
2.4534204 2.6835618 -0.40583578
2.4885876 2.6820667 -0.40895396
2.3768327 2.7184072 -0.40964606
2.366482 2.7378793 -0.40927944
2.2495325 2.8205738 -0.4064528
2.26156 2.8272009 -0.40946516
2.2501493 2.8364661 -0.40682256
2.261677 2.8438139 -0.40981427
2.2477071 2.852272 -0.40758175
2.1606436 3.006557 -0.40869877
2.161232 3.0217185 -0.40905154
2.6681769 2.6219957 -0.40179795
2.7082634 2.642467 -0.40257728
2.6695073 2.6453228 -0.40442011
2.557323 2.6571193 -0.40037429
2.5475774 2.6606636 -0.40270835
2.438457 2.6773691 -0.40100917
2.4226038 2.6905992 -0.40089792
2.4232728 2.7078462 -0.40129921
2.331706 2.7134542 -0.40213764
2.3318269 2.730608 -0.4024981
2.3358045 2.7461634 -0.40382224
2.3169832 2.7570901 -0.40058649
2.3260553 2.7558103 -0.40263695
2.3124418 2.7668431 -0.40048304
2.3172235 2.7911692 -0.40130261
2.2385225 2.8470407 -0.40491092
2.225868 2.8569818 -0.40280476
2.2264771 2.8726838 -0.40317008
2.2148328 2.8827937 -0.40124759
2.204385 2.9237599 -0.40004304
2.2049873 2.9392793 -0.40040413
2.650672 2.6360176 -0.3994363
2.6294253 2.6430669 -0.3987501
2.6682186 2.6461742 -0.39698797
2.5222826 2.6606553 -0.39522308
2.6294889 2.6627896 -0.39909509
2.5147889 2.6684976 -0.3977114
2.4224997 2.6878407 -0.39871848
2.4065406 2.6980686 -0.39642268
2.3944621 2.71488 -0.39669046
2.3030224 2.7667189 -0.39848521
2.2998383 2.7780604 -0.39850557
2.2872272 2.7890801 -0.39652354
2.2881734 2.7924161 -0.39655715
2.2031808 2.8927214 -0.39932087
2.203783 2.9082408 -0.39968196
2.1933179 2.9487503 -0.3984668
2.1939166 2.9641781 -0.39882576
2.182236 2.9733753 -0.39688209
2.7302728 2.6177235 -0.39202717
2.6149046 2.6445158 -0.39425832
2.6492686 2.657999 -0.39454451
2.5914114 2.660764 -0.39371058
2.5053289 2.6716843 -0.39291677
2.4829967 2.6761513 -0.39286724
2.4883733 2.6824539 -0.390605
2.3915854 2.7085366 -0.39428881
2.3766284 2.7187762 -0.39215022
2.380887 2.7268693 -0.39466545
2.3662863 2.7382784 -0.39246243
2.2746079 2.7999015 -0.39453688
2.2742085 2.8015039 -0.39444456
2.2747793 2.8171039 -0.39485347
2.2619839 2.827034 -0.39288527
2.261483 2.8441644 -0.39320192
2.2475142 2.8526201 -0.39107609
2.1705489 2.9823892 -0.39493409
2.1598785 2.991755 -0.39317417
2.1604667 3.0069168 -0.39352694
2.1487622 3.0154819 -0.39156854
2.7046936 2.6132681 -0.38767979
2.6891961 2.6163065 -0.38654345
2.6861937 2.6274288 -0.38531685
2.689261 2.6364863 -0.38689646
2.5639017 2.6479771 -0.38672328
2.5931406 2.6538768 -0.38652381
2.5543361 2.6587396 -0.38846686
2.689326 2.6566658 -0.38724947
2.4369671 2.6787043 -0.38570711
2.5543978 2.6778908 -0.38880187
2.4553339 2.6855869 -0.38574389
2.3606644 2.7282884 -0.38983938
2.3316267 2.7309699 -0.38534498
2.3356075 2.7465413 -0.38694
2.3258631 2.7562017 -0.38613224
2.2377253 2.8316147 -0.38873169
2.2383382 2.8474157 -0.38909933
2.2389514 2.8632166 -0.38946697
2.226294 2.8730564 -0.38745746
2.2146509 2.8831642 -0.38562638
2.727977 2.6307216 -0.38497815
2.6504505 2.6364684 -0.38042578
2.7080297 2.6428895 -0.38255262
2.6492486 2.6545568 -0.38188681
2.5311313 2.6561856 -0.38198653
2.5751891 2.6652718 -0.384213
2.4222913 2.6882172 -0.38087225
2.4224026 2.6910086 -0.38363919
2.4230716 2.7082558 -0.38404047
2.3167844 2.7574496 -0.3835476
2.3028247 2.767076 -0.38155299
2.3122506 2.7672319 -0.38408494
2.2996483 2.7784472 -0.3822065
2.2870383 2.7894642 -0.3803235
2.3170247 2.7915287 -0.38426375
2.2876663 2.8056533 -0.38070017
2.2029998 2.8930898 -0.38379106
2.2036021 2.9086092 -0.38415214
2.2042041 2.9241283 -0.38451323
2.1925392 2.9336884 -0.38266942
2.1931379 2.9491165 -0.38302839
2.1814623 2.9584026 -0.3811782
2.1820571 2.9737391 -0.38153505
2.6146865 2.6449602 -0.37552199
2.6679883 2.6465902 -0.37726799
2.6101727 2.6524034 -0.37665644
2.5145795 2.6689239 -0.37974435
2.5391481 2.6685009 -0.37918034
2.499033 2.6817253 -0.377653
2.4063337 2.6984425 -0.37869832
2.3913796 2.7089081 -0.37667871
2.3942637 2.7152841 -0.37965259
2.3806896 2.7272711 -0.37773421
2.3660903 2.738677 -0.37564546
2.287977 2.7927709 -0.3797392
2.2740135 2.8018565 -0.3777332
2.2610545 2.8112888 -0.37589139
2.2750447 2.8163738 -0.3788102
2.2617936 2.8273988 -0.37657809
2.2497787 2.8372204 -0.37501651
2.2612889 2.8445148 -0.3765896
2.1703713 2.9827511 -0.37967849
2.1597018 2.992115 -0.37800229
2.16029 3.0072765 -0.37835506
2.1608784 3.0224383 -0.37870783
2.7510195 2.6084952 -0.37400502
2.7237134 2.6188436 -0.37091696
2.730015 2.6180828 -0.3715367
2.5809298 2.6535029 -0.37090281
2.64904 2.658412 -0.37496924
2.591167 2.6611047 -0.3742789
2.5721607 2.6695166 -0.3718963
2.5051131 2.6720738 -0.37443832
2.4530127 2.684392 -0.37084609
2.4881592 2.6828408 -0.37225604
2.3764241 2.7191453 -0.37465432
2.3604615 2.7286549 -0.37246534
2.3392737 2.7453523 -0.37156317
2.2381539 2.8477907 -0.37328768
2.2473216 2.8529685 -0.3745704
2.2387671 2.8635917 -0.37365532
2.2150743 2.8991456 -0.37036836
2.2156799 2.9147563 -0.37073159
2.7090101 2.6273503 -0.36906281
2.7052205 2.6331453 -0.36870208
2.7084355 2.6454968 -0.3659732
2.611001 2.661901 -0.36994827
2.5749671 2.6656728 -0.36520138
2.5555859 2.6775086 -0.366337
2.4551227 2.6859689 -0.36764631
2.4378014 2.6962869 -0.36709431
2.4228706 2.7086649 -0.36678174
2.3314264 2.7313318 -0.3681919
2.3164651 2.7407694 -0.36615074
2.3165853 2.7578089 -0.36650878
2.3256707 2.7565932 -0.36962751
2.3120596 2.767621 -0.36768687
2.2994585 2.7788339 -0.36590746
2.3168256 2.7918882 -0.36722493
2.302866 2.8012991 -0.36533242
2.2138629 2.8679242 -0.36964193
2.2022169 2.8779387 -0.3679001
2.2040231 2.9244967 -0.36898339
2.1923594 2.9340546 -0.36723104
2.1929581 2.9494827 -0.36758998
2.1812835 2.9587665 -0.3658312
2.1818783 2.9741032 -0.36618805
2.1824734 2.98944 -0.36654487
2.7277415 2.6311471 -0.36480111
2.668473 2.6420388 -0.3639479
2.6489985 2.6549053 -0.36201331
2.5309203 2.656615 -0.36388999
2.6884599 2.6560957 -0.36365983
2.5143702 2.6693499 -0.36177731
2.4061267 2.6988163 -0.36097395
2.3940651 2.7156882 -0.36261475
2.3804924 2.7276726 -0.36080298
2.3026271 2.7674332 -0.36462077
2.2868497 2.7898486 -0.3641234
2.2876883 2.807991 -0.36388737
2.2743969 2.8178382 -0.36204112
2.2622292 2.8272755 -0.36091366
2.2740541 2.8356333 -0.36172423
2.2612123 2.8614783 -0.36032641
2.1595249 2.9924748 -0.36283046
2.1601131 3.0076365 -0.36318323
2.1607015 3.0227981 -0.363536
2.772831 2.6202841 -0.35614839
2.6144681 2.6454046 -0.35678566
2.6488113 2.6588249 -0.35539398
2.6289928 2.6634812 -0.35965282
2.5048974 2.6724639 -0.35595986
2.6099896 2.6723247 -0.3574225
2.4988251 2.6821485 -0.35980779
2.4680398 2.689755 -0.35559192
2.3911741 2.7092795 -0.3590686
2.3762197 2.7195144 -0.35715845
2.3602586 2.7290215 -0.35509136
2.3658943 2.7390761 -0.35882846
2.3397243 2.7623465 -0.35533807
2.2495933 2.8375978 -0.35911351
2.261095 2.8448653 -0.3599773
2.2379699 2.8481658 -0.35747606
2.2253189 2.8580999 -0.35566691
2.2259281 2.8738017 -0.35603222
2.215498 2.9151268 -0.35511038
2.2161038 2.9307375 -0.35547358
2.7234855 2.6193078 -0.35134283
2.7508261 2.6295092 -0.35371584
2.5807145 2.6539412 -0.35242543
2.5538542 2.659411 -0.35016724
2.6107757 2.6623077 -0.35066244
2.5641854 2.6671829 -0.35045409
2.4879448 2.683228 -0.35390705
2.4709904 2.6937332 -0.35184884
2.4372358 2.6968899 -0.35136506
2.3453007 2.7387915 -0.35317147
2.3352137 2.747297 -0.35317555
2.3261185 2.7734785 -0.35350657
2.3125043 2.7843971 -0.35167006
2.3166265 2.7922478 -0.35018605
2.2142868 2.8839054 -0.35438395
2.2148924 2.8995161 -0.35474715
2.2044444 2.9403844 -0.35381469
2.1927781 2.9498489 -0.35215154
2.1811047 2.9591305 -0.35048416
2.1816995 2.9744673 -0.35084102
2.6886883 2.6170142 -0.34618714
2.7685366 2.6272037 -0.34940389
2.704994 2.6336062 -0.3492727
2.7475915 2.6394367 -0.34716579
2.7088196 2.6480389 -0.34908795
2.7276483 2.6517506 -0.34504813
2.6888182 2.6573734 -0.34689316
2.535852 2.6679816 -0.34805769
2.5928283 2.6738343 -0.34862876
2.4379544 2.696475 -0.34748244
2.4223349 2.7079458 -0.34753889
2.3938665 2.7160923 -0.34557685
2.3945272 2.7331188 -0.34597299
2.3163862 2.7581685 -0.3494699
2.3024292 2.7677903 -0.34768859
2.2999005 2.7955084 -0.34998736
2.3026681 2.8016562 -0.34840024
2.2872889 2.8064218 -0.34830001
2.2877028 2.8102992 -0.34645668
2.2742054 2.8182056 -0.34563494
2.2739768 2.8526978 -0.34536409
2.1700156 2.9834747 -0.3491672
2.1706071 2.9987202 -0.34952193
2.1599364 3.0079963 -0.34801137
2.1605248 3.0231581 -0.34836414
2.6682501 2.6424928 -0.34480032
2.6324975 2.6511085 -0.34044811
2.6487484 2.6552539 -0.34213984
2.7077031 2.6637597 -0.34292412
2.5141609 2.669776 -0.34381023
2.5567949 2.6771889 -0.34414744
2.4986172 2.6825719 -0.34196261
2.4830642 2.6951237 -0.34010929
2.4060447 2.7169156 -0.34362206
2.3761389 2.7373803 -0.34003028
2.3809514 2.7449939 -0.34426546
2.3521099 2.7510228 -0.3402963
2.3527577 2.7677219 -0.34068483
2.2614133 2.8281288 -0.34396374
2.249408 2.837975 -0.34321049
2.2377856 2.8485408 -0.34166443
2.2383988 2.8643417 -0.34203207
2.2610183 2.8618288 -0.34371409
2.2390118 2.8801427 -0.34239972
2.7619848 2.6104262 -0.33618614
2.7725689 2.6206489 -0.3353304
2.6485827 2.6592379 -0.33581874
2.6287446 2.6638269 -0.3399317
2.6097434 2.672668 -0.33784613
2.5217619 2.6804414 -0.33979037
2.504812 2.6913328 -0.33786976
2.4878597 2.7019649 -0.3359437
2.3760154 2.7198834 -0.33966261
2.3450992 2.7391553 -0.33591172
2.345221 2.7564158 -0.33627442
2.3259263 2.77387 -0.33700186
2.3453426 2.7736764 -0.33663714
2.3265662 2.7903636 -0.33738559
2.2141047 2.8842759 -0.33876273
2.2147102 2.8998866 -0.33912593
2.2153158 2.9154973 -0.33948916
2.2159216 2.931108 -0.33985236
2.2042634 2.9407527 -0.33828488
2.2048655 2.9562721 -0.33864596
2.193197 2.9656429 -0.3370721
2.1815207 2.9748313 -0.33549398
2.1827109 3.0055046 -0.33620766
2.7232573 2.619772 -0.33176872
2.7505665 2.6298714 -0.33306545
2.7893841 2.6357367 -0.33142006
2.5804992 2.6543794 -0.33394808
2.5536132 2.6597466 -0.3310174
2.5812154 2.6728444 -0.33437768
2.6296356 2.6707644 -0.33380339
2.5536749 2.6788981 -0.33135241
2.5474346 2.6805983 -0.33025837
2.4540555 2.7037678 -0.33404729
2.4377072 2.714663 -0.33439606
2.4231377 2.7267308 -0.33266553
2.3163075 2.7755675 -0.33278909
2.3164277 2.7926071 -0.33314717
2.2871001 2.8068061 -0.33209997
2.3147485 2.8054099 -0.33457923
2.274482 2.8175194 -0.33050704
2.316668 2.8266864 -0.33386329
2.2751062 2.8336096 -0.33088142
2.169838 2.9838367 -0.33391157
2.171021 3.0143273 -0.33462101
2.1716125 3.0295725 -0.33497572
2.7084985 2.6280632 -0.3284018
2.7047677 2.6340671 -0.32984328
2.6680269 2.642947 -0.32565272
2.7085638 2.6483951 -0.32875746
2.7684417 2.6481261 -0.32934523
2.6885645 2.6577272 -0.32671496
2.5926049 2.6742382 -0.32948005
2.5565746 2.6775873 -0.32527292
2.421792 2.7071939 -0.32770854
2.4058378 2.7172894 -0.32589766
2.3943288 2.7335229 -0.32893512
2.3807542 2.7453957 -0.32733423
2.3661544 2.7566795 -0.32558548
2.3668065 2.7734852 -0.32597652
2.2876251 2.8274727 -0.32999212
2.2736638 2.8363383 -0.32830155
2.2624764 2.8440259 -0.32928166
2.2498393 2.8542445 -0.32767722
2.2737815 2.8530505 -0.32865274
2.2382145 2.8647168 -0.32622045
2.2608242 2.8621793 -0.32710177
2.2388275 2.880518 -0.32658809
2.2400537 2.9121199 -0.32732338
2.2273896 2.9216533 -0.32570305
2.6322775 2.6515563 -0.32157469
2.7274127 2.6521764 -0.32487112
2.6484983 2.6556022 -0.3222664
2.6284966 2.6641726 -0.32021055
2.7074692 2.6641822 -0.32289946
2.4984093 2.6829951 -0.32411739
2.538624 2.6884251 -0.32336193
2.4991014 2.7008283 -0.32453233
2.4683123 2.7081876 -0.32078317
2.390887 2.7276337 -0.32421842
2.3759346 2.7377493 -0.32253441
2.3760579 2.7552462 -0.32290208
2.3600979 2.764504 -0.32107359
2.3399813 2.7797346 -0.32250163
2.3602204 2.7818787 -0.3214387
2.3263738 2.790755 -0.32088083
2.3270137 2.8072486 -0.32126459
2.2261713 2.8902493 -0.32497236
2.2157397 2.9314785 -0.32423115
2.2040825 2.9411211 -0.32275504
2.2046845 2.9566405 -0.32311612
2.193017 2.9660091 -0.32163367
2.1936154 2.9814372 -0.32199264
2.181937 2.9905319 -0.32050377
2.1825321 3.0058684 -0.32086062
2.1954112 3.0277214 -0.32306954
2.1837223 3.0365419 -0.3215743
2.7933037 2.6109474 -0.31649226
2.8321686 2.6317887 -0.31513262
2.5975208 2.6599174 -0.31760967
2.6483543 2.6596508 -0.31624347
2.5810001 2.6732826 -0.31590033
2.6094971 2.6730111 -0.31826973
2.5045962 2.6917226 -0.31939134
2.5047264 2.710202 -0.31977966
2.4537578 2.7206028 -0.31917512
2.4381783 2.7324364 -0.31742701
2.3311884 2.7838793 -0.31781396
2.3313096 2.801033 -0.31817442
2.3001525 2.8125696 -0.31776816
2.3163488 2.8100061 -0.31646639
2.3007846 2.8288579 -0.31814712
2.316469 2.8270457 -0.31682444
2.2881677 2.8395686 -0.31665325
2.3165891 2.8440852 -0.31718251
2.3026311 2.8531699 -0.31560329
2.7230291 2.6202364 -0.31219462
2.7723072 2.6210141 -0.31451234
2.7503066 2.6302333 -0.312415
2.7265477 2.6397247 -0.31153673
2.7891428 2.6361723 -0.31077081
2.5714326 2.6705308 -0.31403551
2.5923812 2.6746421 -0.31033134
2.6294086 2.6711745 -0.31437281
2.5534341 2.679234 -0.3122026
2.5472221 2.6810303 -0.31203997
2.4546165 2.7052124 -0.31373379
2.4376614 2.7152019 -0.3119238
2.4217095 2.7254171 -0.31023732
2.4093761 2.7393377 -0.31392011
2.4218354 2.7432642 -0.31061235
2.3947906 2.7509534 -0.31229344
2.3812134 2.762717 -0.31079665
2.3818698 2.7796369 -0.31119034
2.2745647 2.8517425 -0.31354809
2.2629104 2.8603969 -0.31365168
2.2502706 2.8705139 -0.31214401
2.2737045 2.870115 -0.31229261
2.2386432 2.8808928 -0.31077647
2.2392564 2.8966937 -0.31114411
2.2398694 2.9124947 -0.31151175
2.2404823 2.9282956 -0.3118794
2.2410955 2.9440968 -0.31224704
2.228425 2.9534302 -0.3107211
2.2290342 2.9691319 -0.31108645
2.2296433 2.9848342 -0.31145179
2.2179801 2.9942918 -0.3100628
2.6678038 2.6434011 -0.30650511
2.708308 2.6487517 -0.30842695
2.7682025 2.6485586 -0.30885595
2.6883106 2.6580811 -0.30653682
2.5144389 2.6885834 -0.30829388
2.574435 2.6858885 -0.30856603
2.5564873 2.6968608 -0.30679503
2.4988935 2.7012515 -0.30668712
2.3908055 2.745616 -0.3069784
2.3758535 2.7556152 -0.30540621
2.3530164 2.7852137 -0.30765262
2.3404317 2.7967288 -0.3062765
2.3410759 2.813329 -0.30666274
2.3274615 2.8241336 -0.30514368
2.20631 3.003567 -0.30866963
2.206912 3.0190864 -0.30903071
2.1952314 3.0280876 -0.30763113
2.1835434 3.036906 -0.3062273
2.6320577 2.6520038 -0.30270126
2.7271771 2.652602 -0.30469415
2.6482484 2.6559505 -0.30239293
2.6282485 2.6645184 -0.30048943
2.7072356 2.6646047 -0.30287477
2.6872914 2.6763027 -0.30104905
2.5214589 2.6998355 -0.30296555
2.468107 2.7086053 -0.30317411
2.5045106 2.7105918 -0.30130121
2.4535539 2.7210178 -0.30168024
2.4379759 2.7328486 -0.30005404
2.359895 2.7648704 -0.30369958
2.3449395 2.7744048 -0.30211765
2.3309882 2.784241 -0.30066085
2.3311093 2.8013949 -0.30102131
2.3138385 2.8347251 -0.30361962
2.3163903 2.8444448 -0.30014366
2.3012269 2.8455324 -0.30222705
2.2886071 2.856142 -0.30082986
2.8161073 2.6230953 -0.29790646
2.5973041 2.6603589 -0.29900283
2.563544 2.6684885 -0.29541045
2.6092508 2.6733541 -0.29869336
2.6482639 2.6796403 -0.29707959
2.5902517 2.6819005 -0.2968922
2.4704807 2.7131066 -0.29757327
2.4225159 2.7442188 -0.29565775
2.4229136 2.761766 -0.2960459
2.3952527 2.768384 -0.29565173
2.31615 2.8103657 -0.29942754
2.3162701 2.8274052 -0.29978558
2.3024335 2.8535271 -0.29867104
2.2874696 2.8618197 -0.29706302
2.2759795 2.8665538 -0.29942808
2.2633445 2.8767676 -0.2980217
2.2875881 2.8786383 -0.29741645
2.2639649 2.8927588 -0.29839379
2.2513185 2.9026759 -0.2969805
2.2652059 2.9247413 -0.29913792
2.2525518 2.9344604 -0.29772004
2.2531683 2.9503527 -0.2980898
2.2415245 2.9602728 -0.29680306
2.2421374 2.9760737 -0.2971707
2.2427506 2.9918747 -0.29753834
2.7228012 2.6207006 -0.29262051
2.7720451 2.6213789 -0.29369438
2.7500467 2.6305954 -0.29176456
2.8319237 2.6322312 -0.29415584
2.7889018 2.6366081 -0.29012156
2.7235601 2.6402614 -0.29307562
2.7890475 2.657258 -0.29055551
2.5531931 2.6795697 -0.29305276
2.5921576 2.675046 -0.29118261
2.5470099 2.6814625 -0.29382154
2.5142295 2.6890097 -0.29032683
2.4374516 2.7155809 -0.29395571
2.4375784 2.7335501 -0.29433331
2.3816726 2.7800386 -0.2942591
2.3670666 2.7910886 -0.29273355
2.3534694 2.802309 -0.29133084
2.3408823 2.8137231 -0.29005143
2.3415263 2.8303232 -0.29043767
2.2177982 2.9946625 -0.29444158
2.2061291 3.0039353 -0.29313979
2.2067311 3.0194545 -0.29350087
2.1950514 3.0284538 -0.29219273
2.1956501 3.0438819 -0.2925517
2.7290499 2.6400118 -0.28993326
2.685818 2.6489875 -0.28934172
2.7080524 2.6491082 -0.28809646
2.6500802 2.6577208 -0.28581527
2.7470226 2.6610537 -0.286605
2.7075598 2.6672337 -0.28565112
2.574213 2.6862898 -0.28955442
2.556267 2.6972589 -0.2879205
2.4986856 2.7016749 -0.2888419
2.4679019 2.709023 -0.28556499
2.4685845 2.7266202 -0.28597444
2.3907242 2.7635984 -0.28973836
2.3757727 2.7734809 -0.28827801
2.3598146 2.7826118 -0.28669071
2.3448598 2.7920294 -0.28522059
2.3449817 2.8092899 -0.28558332
2.327909 2.8410187 -0.28902271
2.3142834 2.851501 -0.28760281
2.6143212 2.665906 -0.28227603
2.6680601 2.6674571 -0.28461555
2.6480625 2.6761742 -0.2828671
2.6870594 2.676722 -0.28117669
2.6280637 2.684587 -0.28111336
2.5041647 2.6925023 -0.28243443
2.5042949 2.7109816 -0.28282276
2.4540284 2.7389159 -0.28459218
2.4232037 2.7452061 -0.28129062
2.4096415 2.7572918 -0.28001472
2.3310299 2.8189106 -0.28422868
2.331151 2.8360643 -0.28458914
2.3161912 2.8448043 -0.28310478
2.2884183 2.8565264 -0.28462979
2.2872732 2.8621745 -0.28024507
2.3163114 2.8618441 -0.28346285
2.288219 2.8758543 -0.28280246
2.2764161 2.8830259 -0.28370139
2.2770405 2.899116 -0.28407577
2.2776647 2.9152062 -0.28445014
2.2523663 2.9348378 -0.28181702
2.2782891 2.9312966 -0.28482452
2.2529829 2.9507301 -0.28218678
2.2413402 2.9606478 -0.28099144
2.2419531 2.9764488 -0.28135908
2.2292771 2.9855795 -0.28002658
2.2298863 3.0012815 -0.28039193
2.8378351 2.6134145 -0.27850083
2.7815342 2.6170897 -0.27861443
2.8158412 2.623466 -0.27675328
2.7620606 2.6316981 -0.2770347
2.8768499 2.6497111 -0.27751231
2.7628312 2.651556 -0.27749673
2.5805695 2.674159 -0.2789456
2.6480353 2.6800532 -0.27750432
2.5640416 2.6872594 -0.27748919
2.5710094 2.6904955 -0.27579901
2.6090674 2.6932755 -0.27945945
2.470268 2.713491 -0.2793538
2.4372418 2.71596 -0.27598757
2.4373686 2.7339292 -0.27636516
2.3927865 2.7663789 -0.27537104
2.3814754 2.7804401 -0.27732787
2.3668709 2.7914875 -0.27591658
2.367523 2.8082931 -0.27630758
2.3539228 2.8194046 -0.27500901
2.2182221 3.0106435 -0.27918363
2.2065501 3.0198231 -0.27797109
2.2071524 3.0353422 -0.27833217
2.2077546 3.0508618 -0.27869326
2.7928433 2.6326625 -0.27490333
2.7718501 2.6425636 -0.27324054
2.8107452 2.6455407 -0.27159432
2.7498534 2.6516094 -0.2714754
2.7240908 2.6602867 -0.2739566
2.7499199 2.6722617 -0.27183667
2.6100109 2.6832218 -0.27392444
2.5739911 2.6866908 -0.2705428
2.5312693 2.6949301 -0.27424881
2.5147169 2.7073908 -0.2727775
2.4214187 2.7440171 -0.27491987
2.405467 2.7538614 -0.27346948
2.3755684 2.77385 -0.27078211
2.3413327 2.8307173 -0.2738263
2.3277166 2.8414102 -0.27251798
2.3140922 2.8518901 -0.27120477
2.864295 2.6391022 -0.2663376
2.6498587 2.6581717 -0.26680475
2.7888064 2.6576939 -0.26990628
2.7467852 2.6614823 -0.2662757
2.707315 2.667623 -0.26547354
2.6323495 2.6717598 -0.26539326
2.5560465 2.6976571 -0.26904598
2.4676967 2.7094407 -0.26795593
2.5380995 2.7083492 -0.26754344
2.4531462 2.7218478 -0.26669052
2.437571 2.7336726 -0.26530805
2.4382446 2.751034 -0.26571199
2.3596117 2.7829783 -0.26931667
2.3597341 2.8003531 -0.26968178
2.3447802 2.8096542 -0.26832357
2.3449018 2.8269145 -0.26868626
2.3309507 2.8364263 -0.26743606
2.3159924 2.8451638 -0.26606596
2.2882295 2.8569107 -0.26842976
2.3161125 2.8622034 -0.26642403
2.2888575 2.8730998 -0.26880643
2.3021574 2.8711743 -0.26516241
2.2894857 2.8892889 -0.26918313
2.3022768 2.8881073 -0.26551825
2.2768528 2.899498 -0.26797476
2.277477 2.9155881 -0.26834914
2.2781014 2.9316783 -0.26872352
2.2521811 2.935215 -0.26591399
2.2527976 2.9511073 -0.26628375
2.2411559 2.9610229 -0.26517978
2.2417688 2.9768238 -0.26554742
2.8023257 2.6429799 -0.26094949
2.5975919 2.6798358 -0.26222181
2.6873474 2.6780548 -0.26391894
2.6678727 2.6878352 -0.26494008
2.6478763 2.6963975 -0.26334128
2.5040791 2.7113714 -0.2643443
2.4871323 2.7218633 -0.26293349
2.4236717 2.7628627 -0.26443318
2.3948557 2.7691922 -0.261576
2.3955164 2.7862186 -0.26197216
2.3819344 2.7977614 -0.26079032
2.229094 2.9859524 -0.26431394
2.2297032 3.0016541 -0.26467928
2.21804 3.011014 -0.26356238
2.2063692 3.0201912 -0.26244125
2.2069714 3.0357108 -0.26280233
2.2075737 3.05123 -0.26316342
2.8155069 2.6026821 -0.25523001
2.8376355 2.6351109 -0.25755307
2.8766007 2.6501608 -0.2561928
2.7828538 2.6575847 -0.25952208
2.6478066 2.6804662 -0.25792903
2.563828 2.6876945 -0.25914133
2.6088212 2.6936185 -0.25988302
2.5310585 2.6953592 -0.25615227
2.5898252 2.7020152 -0.25836879
2.4541101 2.7244563 -0.25982133
2.4371588 2.7343082 -0.25839707
2.4212103 2.7443938 -0.25707367
2.4052601 2.7542355 -0.25574511
2.367327 2.808692 -0.25949061
2.3566909 2.8189478 -0.25548577
2.3411393 2.8311114 -0.25721496
2.3275244 2.8418016 -0.25601327
2.3281643 2.8582952 -0.25639704
2.8130727 2.6454859 -0.25337383
2.7495937 2.6519716 -0.25082496
2.7926469 2.6540098 -0.25429237
2.7238626 2.6607509 -0.25438249
2.5917103 2.675854 -0.25288516
2.5737691 2.6870918 -0.25153121
2.5145075 2.7078171 -0.25481045
2.5739031 2.706104 -0.25193074
2.4989617 2.7203546 -0.25356647
2.4681742 2.7274556 -0.25075626
2.3752408 2.7567225 -0.2529186
2.3753643 2.774219 -0.25328627
2.3594089 2.7833447 -0.25194269
2.3595312 2.8007197 -0.2523078
2.3447001 2.8272786 -0.25142655
2.3307502 2.8367882 -0.25028294
2.3308711 2.8539419 -0.2506434
2.3012888 2.8629804 -0.25370881
2.2886689 2.8734841 -0.25260636
2.2892971 2.8896732 -0.25298303
2.2899251 2.9058623 -0.25335971
2.2772894 2.9159701 -0.25224808
2.2779138 2.9320602 -0.25262246
2.2652669 2.9418712 -0.25150391
2.2526124 2.9514844 -0.25038075
2.2532289 2.9673767 -0.25075051
2.242198 2.993 -0.25010347
2.6496372 2.6586227 -0.24779427
2.7885652 2.6581292 -0.24925703
2.7286003 2.6612222 -0.24931079
2.6321297 2.6722076 -0.24651986
2.7076063 2.6701531 -0.24779107
2.7676291 2.6703453 -0.24781863
2.687614 2.6793222 -0.24635532
2.6876791 2.6995018 -0.24670832
2.5378809 2.7087445 -0.24880601
2.5038633 2.7117612 -0.24586588
2.4380422 2.751446 -0.24833903
2.4234707 2.7632718 -0.24717446
2.3159134 2.8625629 -0.24938516
2.3160336 2.8796024 -0.24974322
2.3020792 2.8884645 -0.24858603
2.2415848 2.9771988 -0.24973583
2.2295201 3.002027 -0.24896669
2.2178581 3.0113845 -0.24794118
2.2061882 3.0205598 -0.24691142
2.2067904 3.0360789 -0.24727251
2.2073927 3.0515985 -0.24763361
2.7266126 2.6740568 -0.24458718
2.5973752 2.6802771 -0.24361497
2.5636141 2.6881297 -0.24079344
2.7066753 2.6858976 -0.24322164
2.6085746 2.6939616 -0.24030663
2.6476264 2.6967459 -0.24346781
2.6086376 2.7135396 -0.2406491
2.486918 2.7222502 -0.24458455
2.4371588 2.734386 -0.24418202
2.4870474 2.7405999 -0.24497014
2.3946571 2.7695963 -0.24453816
2.3810809 2.7812433 -0.24346539
2.3817372 2.7981632 -0.24385907
2.367131 2.8090909 -0.24267364
2.3403018 2.8149052 -0.24021739
2.3409457 2.8315053 -0.24060363
2.8603585 2.6257763 -0.23772281
2.7818441 2.6380496 -0.23903303
2.7421157 2.6469374 -0.23601022
2.8604276 2.647274 -0.23809887
2.8994355 2.6593261 -0.23673771
2.7428803 2.6666429 -0.23646872
2.6095605 2.6840358 -0.2353528
2.6475782 2.6808791 -0.23835379
2.5308478 2.6957884 -0.23805572
2.5142982 2.7082431 -0.23684338
2.4987535 2.7207778 -0.23572126
2.4210019 2.7447703 -0.23922741
2.3750365 2.7570915 -0.23542275
2.4211278 2.7626173 -0.23960245
2.37516 2.7745881 -0.23579042
2.3752832 2.7920847 -0.23615809
2.3594508 2.8184609 -0.23529893
2.327332 2.8421931 -0.23950855
2.3279719 2.8586867 -0.23989232
2.3150303 2.8659885 -0.23556808
2.28848 2.8738682 -0.23640631
2.2891083 2.8900576 -0.23678298
2.2764778 2.9002619 -0.23577265
2.277102 2.9163518 -0.23614702
2.2777264 2.9324422 -0.23652139
2.2650805 2.9422507 -0.23550187
2.2657008 2.9582419 -0.23587394
2.2432396 3.024977 -0.23502713
2.7713263 2.6432936 -0.2316045
2.815377 2.6453626 -0.23481697
2.7493339 2.6523337 -0.23017453
2.8544216 2.6634271 -0.23353447
2.810406 2.6672366 -0.23039818
2.7494004 2.6729856 -0.23053579
2.5735471 2.6874928 -0.23251958
2.7494669 2.6936376 -0.23089705
2.5736811 2.7065051 -0.2329191
2.4679689 2.7278733 -0.23314716
2.4534168 2.7401607 -0.23210764
2.4378397 2.7518582 -0.23096605
2.3593283 2.8010859 -0.23493381
2.3444986 2.8276429 -0.23416677
2.3446205 2.8449035 -0.2345295
2.3306708 2.8543038 -0.2334903
2.3158348 2.879962 -0.23270437
2.3159549 2.8970017 -0.23306245
2.2530437 2.9677539 -0.23484747
2.2414005 2.9775739 -0.23392421
2.2420137 2.9933748 -0.23429185
2.2426267 3.0091758 -0.23465949
2.2182815 3.0273657 -0.23268318
2.2066095 3.0364475 -0.23174268
2.2072117 3.0519667 -0.23210378
2.6494157 2.6590736 -0.22878376
2.6319098 2.6726551 -0.22764646
2.76739 2.6707773 -0.22732936
2.5971584 2.6807184 -0.22500813
2.7074158 2.6908417 -0.22781622
2.5205896 2.7014058 -0.22853385
2.5036476 2.7121511 -0.22738743
2.4867036 2.7226372 -0.22623558
2.4697583 2.7328646 -0.22507828
2.4232695 2.7636814 -0.22991571
2.3944588 2.7700005 -0.22750029
2.3808835 2.7816448 -0.22653417
2.3815398 2.7985647 -0.22692785
2.726377 2.6744823 -0.22441021
2.6863632 2.6779795 -0.22155975
2.5634003 2.688565 -0.22244555
2.6673687 2.6885376 -0.22488841
2.6473763 2.6970944 -0.22359435
2.6273828 2.7053466 -0.22229494
2.4367392 2.7350664 -0.22246082
2.4048462 2.7549834 -0.22029637
2.4368658 2.7530351 -0.22283842
2.3526907 2.8038945 -0.22448938
2.3401082 2.815299 -0.22360605
2.3407521 2.8318992 -0.22399229
2.3271399 2.8425846 -0.22300385
2.3277798 2.8590782 -0.22338761
2.3141549 2.8694439 -0.22239177
2.3015411 2.8800416 -0.22148964
2.2889194 2.8904417 -0.22058293
2.2769144 2.9167337 -0.22004597
2.2775388 2.9328241 -0.22042035
2.278163 2.9489143 -0.22079472
2.8371675 2.6571808 -0.21528454
2.8832161 2.6594429 -0.21829428
2.762907 2.6728277 -0.21834528
2.6093352 2.6844425 -0.21606697
2.6473496 2.6812921 -0.21877852
2.5306368 2.6962175 -0.21995918
2.4978538 2.7033679 -0.21746112
2.5893362 2.7026966 -0.21950544
2.4985456 2.7212009 -0.21787605
2.4677637 2.728291 -0.21553807
2.3899016 2.7650843 -0.21929784
2.3749557 2.7749572 -0.21829455
2.3750789 2.792454 -0.21866222
2.3591254 2.8014526 -0.21755981
2.3592479 2.8188276 -0.21792494
2.3442972 2.8280067 -0.21690702
2.3303497 2.837512 -0.21597672
2.3304706 2.8546658 -0.21633719
2.3155155 2.8632817 -0.21530744
2.3156357 2.8803215 -0.2156655
2.3157558 2.897361 -0.21602358
2.2762902 2.9006438 -0.21967161
2.2655144 2.9586215 -0.21987189
2.2528584 2.9681311 -0.21894446
2.2412162 2.9779489 -0.21811259
2.2418294 2.9937501 -0.21848023
2.2424424 3.009551 -0.21884787
2.2180996 3.0277362 -0.21706197
2.2430553 3.025352 -0.21921551
2.2064285 3.0368156 -0.21621287
2.2070308 3.0523353 -0.21657397
2.7226477 2.6421187 -0.21477911
2.792119 2.6547456 -0.21233639
2.7711315 2.6644781 -0.21115069
2.8541746 2.6638732 -0.21238253
2.6856668 2.670089 -0.21265136
2.7711985 2.6852977 -0.21151489
2.749207 2.6939998 -0.21024662
2.5913985 2.6958117 -0.21499012
2.5734591 2.7069063 -0.21390748
2.4369638 2.7349091 -0.21318913
2.4376373 2.7522702 -0.21359307
2.4230685 2.7640905 -0.21265696
2.4095073 2.7760596 -0.21180512
2.3949208 2.787431 -0.21085857
2.810163 2.6676757 -0.20958138
2.6316898 2.6731029 -0.20877303
2.7671506 2.6712098 -0.20684007
2.5969415 2.6811597 -0.20640129
2.5804248 2.6943769 -0.20546582
2.70716 2.6911979 -0.20748572
2.5203724 2.7017984 -0.20992592
2.5034318 2.7125409 -0.208909
2.4864895 2.7230244 -0.20788664
2.4695454 2.7332489 -0.20685881
2.3813426 2.7989664 -0.20999661
2.366739 2.8098886 -0.20903966
2.3531439 2.8209901 -0.20816757
2.3405585 2.8322933 -0.20738095
2.3269475 2.8429761 -0.20649914
2.3275874 2.8594697 -0.20688291
2.3139639 2.8698328 -0.20599368
2.3013511 2.8804283 -0.20519057
2.2906151 2.9393935 -0.2055129
2.7261415 2.6749082 -0.2042332
2.686131 2.6783988 -0.20168741
2.6671169 2.6888888 -0.20486261
2.530426 2.6966469 -0.20186265
2.6471262 2.697443 -0.20372087
2.5890918 2.7030373 -0.20007376
2.6271348 2.7056923 -0.20257381
2.4983377 2.7216244 -0.20003085
2.4365294 2.7354455 -0.20449272
2.436656 2.7534142 -0.20487031
2.420711 2.7633703 -0.20390995
2.4047639 2.7730823 -0.20294447
2.3747513 2.7753263 -0.20079868
2.3748746 2.7928231 -0.20116635
2.3589227 2.8018193 -0.20018582
2.3590453 2.8191941 -0.20055094
2.2887309 2.890826 -0.20438287
2.2761025 2.9010255 -0.20357057
2.2767267 2.9171157 -0.20394494
2.2779753 2.9492962 -0.20469369
2.2653279 2.9590011 -0.20386986
2.2526731 2.9685082 -0.20304143
2.2410319 2.9783239 -0.20230095
2.2416451 2.9941249 -0.20266859
2.2422581 3.0099258 -0.20303623
2.2295804 3.018847 -0.2021942
2.2179177 3.0281069 -0.20144075
2.2185235 3.0437179 -0.20180397
2.2068498 3.0527034 -0.20104414
2.9309902 2.6624012 -0.19940175
2.7626755 2.6732988 -0.19847411
2.9070024 2.6721313 -0.19820519
2.647121 2.681705 -0.19920325
2.7239375 2.6817048 -0.19611524
2.6281843 2.6930652 -0.1981979
2.5911748 2.6962156 -0.19584139
2.4976459 2.7037911 -0.19961593
2.4827864 2.7339096 -0.19914679
2.4530091 2.7409906 -0.19711795
2.4374349 2.7526822 -0.19622009
2.4228673 2.7645001 -0.19539823
2.3440955 2.828371 -0.19964728
2.3301494 2.8378739 -0.1988236
2.3302703 2.8550277 -0.19918407
2.3153167 2.8636413 -0.19826861
2.3154368 2.880681 -0.19862667
2.301486 2.8895361 -0.19778937
2.8149128 2.6672592 -0.19288068
2.8569419 2.6669223 -0.19335678
2.7709365 2.6856627 -0.19069688
2.8540766 2.6854725 -0.19167507
2.5551651 2.6992497 -0.19354795
2.5372245 2.7099304 -0.19259377
2.503216 2.7129307 -0.19043058
2.3940616 2.7708087 -0.19342455
2.3947222 2.7878351 -0.19382071
2.3811452 2.7993679 -0.19306538
2.3665431 2.8102875 -0.19222267
2.3529491 2.8213863 -0.19145723
2.3403649 2.8326874 -0.19076958
2.327395 2.8598611 -0.19037819
2.7488143 2.6530578 -0.18887366
2.63147 2.6735506 -0.18989964
2.7459788 2.6835282 -0.18538556
2.7879875 2.6800864 -0.18774328
2.6139562 2.6868517 -0.18903013
2.5802095 2.6948154 -0.18698844
2.7069044 2.6915545 -0.18715522
2.7489474 2.6943617 -0.18959619
2.6869173 2.7005632 -0.18617384
2.4862752 2.7234116 -0.18953767
2.4693327 2.7336333 -0.18863936
2.4533923 2.7440817 -0.18781126
2.4364462 2.7537932 -0.1869022
2.4205027 2.7637467 -0.18606372
2.326755 2.8433676 -0.18999442
2.3137727 2.8702216 -0.18959558
2.288542 2.8912103 -0.18818282
2.2759149 2.9014075 -0.18746951
2.2765391 2.9174976 -0.18784387
2.2904263 2.9397779 -0.18931285
2.2777877 2.9496782 -0.18859263
2.2651415 2.9593806 -0.18786784
2.2524877 2.9688854 -0.18713842
2.2531044 2.9847779 -0.1875082
2.241461 2.9945002 -0.18685699
2.2287879 3.0035176 -0.18611625
2.2293973 3.0192194 -0.18648158
2.2177355 3.0284774 -0.18581954
2.2183414 3.0440884 -0.18618275
2.2066689 3.053072 -0.18551435
2.685899 2.6788182 -0.1818151
