# .PCD v0.7 - Point Cloud Data file format
VERSION 0.7
FIELDS x y z
SIZE 4 4 4
TYPE F F F
COUNT 1 1 1
WIDTH 1346
HEIGHT 1
VIEWPOINT 0 0 0 1 0 0 0
POINTS 1346
DATA ascii
1.5892696 0.40204975 -0.47195575
1.5919911 0.41863656 -0.46406308
1.5891776 0.4021979 -0.45979699
1.5890713 0.41435647 -0.45994595
1.5962174 0.3890447 -0.44945568
1.5909432 0.46077853 -0.44988403
1.5987911 0.39425129 -0.44154045
1.5987852 0.40641078 -0.44165152
1.5987792 0.41857028 -0.44176263
1.5942247 0.42590111 -0.44096395
1.5913305 0.44592893 -0.4448778
1.5917428 0.45517612 -0.44018364
1.5962317 0.37698153 -0.437094
1.5977699 0.44679949 -0.43959379
1.5907789 0.46098036 -0.43789446
1.5913492 0.55680627 -0.43656701
1.595603 0.48924965 -0.43120882
1.5955969 0.50135612 -0.43127295
1.5986754 0.39436233 -0.42938146
1.5916513 0.40686202 -0.42763567
1.5986634 0.41868132 -0.42960364
1.5981157 0.4328995 -0.42853168
1.5946192 0.44509137 -0.42775917
1.5916275 0.45528665 -0.42807806
1.5916215 0.4673928 -0.42818868
1.5916156 0.47949898 -0.42829928
1.602551 0.46594122 -0.42080843
1.5985596 0.39447334 -0.41722253
1.5985537 0.40663284 -0.4173336
1.5985477 0.41879234 -0.41744471
1.605401 0.42049402 -0.41715181
1.5915183 0.44329104 -0.41586182
1.5915123 0.45539719 -0.41597241
1.5975016 0.47129291 -0.41591263
1.5955276 0.48931372 -0.41910255
1.5955216 0.5014202 -0.41916668
1.5955155 0.51352674 -0.41923079
1.59427 0.53327233 -0.41906899
1.5960469 0.37727913 -0.41266984
1.5959399 0.38949111 -0.41281945
1.5983473 0.55922931 -0.4141705
1.6054611 0.39419183 -0.40681338
1.5984321 0.41890335 -0.40528575
1.6052352 0.42069775 -0.40504798
1.6024752 0.46600559 -0.40864882
1.602469 0.47816542 -0.40871325
1.5932559 0.48696342 -0.40522647
1.594745 0.50559866 -0.40691537
1.59544 0.51359081 -0.40712452
1.5940822 0.52159691 -0.40697819
1.6039822 0.37606406 -0.4024606
1.6038747 0.38833696 -0.40261096
1.5970893 0.40429786 -0.40296581
1.5943265 0.43332952 -0.40345421
1.5943389 0.44540459 -0.40361065
1.5943514 0.45747966 -0.40376711
1.5973366 0.4714956 -0.40386972
1.5983689 0.57138425 -0.40200552
1.598394 0.58354419 -0.40200052
1.5984193 0.5957042 -0.40199551
1.6076506 0.41978794 -0.39688146
1.6050686 0.43282542 -0.39551196
1.6072768 0.44379801 -0.39571911
1.6023995 0.46606997 -0.39648926
1.6023933 0.47822979 -0.3965537
1.6023872 0.49038962 -0.3966181
1.5939326 0.52180523 -0.39509523
1.5939709 0.53368902 -0.3953031
1.5940092 0.54557288 -0.39551097
1.5953404 0.56208086 -0.39527479
1.5953344 0.5741874 -0.39533892
1.5953283 0.58629394 -0.39540306
1.5953223 0.59840035 -0.39546719
1.5953162 0.61050689 -0.39553133
1.5943534 0.65252733 -0.39738193
1.6112368 0.33804214 -0.39143372
1.6111288 0.35036835 -0.39158472
1.6110208 0.36269459 -0.39173573
1.6037817 0.3884865 -0.39033791
1.6045065 0.40363777 -0.39260048
1.5983163 0.41901439 -0.39312685
1.6050694 0.42090148 -0.39294416
1.5983104 0.43117389 -0.39323795
1.5983044 0.44333339 -0.39334902
1.5942113 0.4576363 -0.39169288
1.5938178 0.48615366 -0.39447156
1.5941178 0.49525353 -0.39300132
1.5933084 0.514902 -0.39366624
1.6032226 0.56407964 -0.39461166
1.6153086 0.40640387 -0.38598543
1.6146008 0.41805974 -0.38556433
1.6075383 0.4319886 -0.38510165
1.609346 0.44254935 -0.38587448
1.6093338 0.46697569 -0.38600388
1.6093277 0.47918883 -0.38606858
1.6192801 0.32425991 -0.38083428
1.6191716 0.33664709 -0.38098606
1.6132472 0.39396733 -0.38426667
1.6052166 0.41884053 -0.38261199
1.5981946 0.4312849 -0.38107896
1.5981886 0.4434444 -0.38119006
1.5981827 0.4556039 -0.38130116
1.6071682 0.45609128 -0.38369477
1.5981766 0.46776339 -0.38141224
1.5981706 0.47992289 -0.38152334
1.6050587 0.48162982 -0.38185698
1.5981647 0.49208239 -0.38163441
1.6050897 0.49373475 -0.38206032
1.5981587 0.50424188 -0.38174552
1.607218 0.50472742 -0.38423079
1.5981528 0.51640135 -0.38185659
1.6037256 0.51635909 -0.38352716
1.5981468 0.52856088 -0.38196769
1.5952772 0.53793198 -0.38304025
1.6051565 0.54096872 -0.38372776
1.6042255 0.55289799 -0.38389897
1.6055814 0.56383395 -0.38332388
1.5981288 0.56503934 -0.38230097
1.6054502 0.57642496 -0.38361314
1.6054579 0.58797657 -0.38376519
1.6018615 0.59727526 -0.38062096
1.6015389 0.63409394 -0.38107201
1.6012166 0.67091262 -0.3815231
1.5963554 0.71657991 -0.3846128
1.5951388 0.74649823 -0.38247949
1.6040113 0.35181737 -0.37761384
1.6109276 0.36284479 -0.3794094
1.6108196 0.37517101 -0.37956041
1.6107116 0.38749725 -0.37971142
1.611867 0.39695144 -0.37592795
1.6034739 0.41318181 -0.37836561
1.5953417 0.42657337 -0.37663206
1.5952349 0.43878531 -0.3767817
1.595021 0.46320921 -0.37708092
1.5959604 0.47366107 -0.37850726
1.5948069 0.48763311 -0.37738013
1.5947001 0.49984509 -0.37752974
1.5944862 0.52426898 -0.37782896
1.5943792 0.5364809 -0.37797856
1.5942721 0.54869282 -0.37812817
1.6131244 0.40635318 -0.3721056
1.6143984 0.42878073 -0.374731
1.6050944 0.43116486 -0.37051129
1.6050884 0.44337767 -0.37062287
1.6145618 0.45561013 -0.37325329
1.6130881 0.47999582 -0.37277842
1.6005862 0.73242664 -0.37000185
1.6190779 0.33679801 -0.36859879
1.6108344 0.362995 -0.36708301
1.6187525 0.37395954 -0.36905405
1.618644 0.3863467 -0.3692058
1.6105103 0.39997363 -0.36753604
1.6104023 0.41229987 -0.36768705
1.6102946 0.42462611 -0.36783805
1.6101866 0.43695232 -0.36798906
1.6030586 0.45015004 -0.36654368
1.598067 0.45571491 -0.36914223
1.598061 0.46787441 -0.36925331
1.6039064 0.46607581 -0.36812192
1.6098626 0.47393101 -0.36844209
1.6008012 0.70788085 -0.36970115
1.6186585 0.37411049 -0.35666674
1.6185501 0.38649765 -0.3568185
1.6184416 0.3988848 -0.35697025
1.6183331 0.41127196 -0.357122
1.6182246 0.42365915 -0.35727376
1.6181161 0.4360463 -0.35742551
1.6180077 0.44843346 -0.35757726
1.608258 0.64664829 -0.35822988
1.60815 0.65897453 -0.35838088
1.608042 0.67130071 -0.35853189
1.6009233 0.68348461 -0.35712743
1.6008158 0.69575751 -0.35727778
1.6007082 0.7080304 -0.35742813
1.5975919 0.89404833 -0.35073608
1.6082726 0.63447225 -0.34575254
1.6081645 0.64679849 -0.34590355
1.6080565 0.65912467 -0.34605455
1.6079488 0.67145091 -0.34620556
1.6006155 0.70817995 -0.34515509
1.6075168 0.72075582 -0.3468096
1.6004004 0.73272574 -0.3454558
1.5999706 0.78181732 -0.34605721
1.6008303 0.68363416 -0.34485438
1.6069918 0.77021086 -0.33508727
1.6068838 0.7825371 -0.33523828
1.5989101 0.89242291 -0.33513737
1.6166267 0.5849942 -0.33447197
1.6165183 0.59738135 -0.33462372
1.6164098 0.60976851 -0.33477548
1.6082873 0.62229621 -0.33327517
1.6081793 0.63462245 -0.33342618
1.6080713 0.6469487 -0.33357719
1.6079633 0.65927488 -0.33372819
1.6078556 0.67160112 -0.3338792
1.6077476 0.68392736 -0.33403021
1.6076396 0.69625354 -0.33418122
1.6005225 0.7083295 -0.33288205
1.6074235 0.72090602 -0.33448324
1.6073158 0.73323226 -0.33463424
1.6072078 0.74555844 -0.33478525
1.6070998 0.75788468 -0.33493626
1.5997701 0.79423976 -0.33393455
1.5990176 0.88015002 -0.33498701
1.6047678 0.82200372 -0.32613188
1.6051911 0.85790104 -0.32764113
1.6044133 0.87127256 -0.32567897
1.6164246 0.59753227 -0.32223645
1.6163161 0.60991943 -0.3223882
1.6162076 0.62230659 -0.32253996
1.6160991 0.6346938 -0.32269171
1.6079781 0.64709884 -0.32125083
1.6078701 0.65942508 -0.32140183
1.6157737 0.67185527 -0.32314697
1.6076541 0.6840775 -0.32170385
1.6075461 0.69640374 -0.32185486
1.6074383 0.70872998 -0.32200587
1.6073303 0.72105622 -0.32215688
1.6072223 0.7333824 -0.32230788
1.6071143 0.74570864 -0.32245889
1.6068985 0.77036107 -0.32276091
1.6067905 0.78268731 -0.32291192
1.5996771 0.79438925 -0.32166156
1.5994623 0.8189351 -0.32196227
1.6079457 0.84092647 -0.32029554
1.601355 0.97383559 -0.32120845
1.6118879 0.79694629 -0.31586087
1.6078684 0.81694555 -0.31987604
1.6049633 0.83389497 -0.31513065
1.6050253 0.85810477 -0.3155373
1.6051184 0.89441955 -0.3161473
1.624454 0.58497417 -0.31122535
1.6161137 0.62245756 -0.31015265
1.6160052 0.63484472 -0.3103044
1.6156797 0.67200625 -0.31075966
1.6154628 0.69678056 -0.3110632
1.6169817 0.72229886 -0.31366852
1.6151373 0.73394203 -0.31151846
1.6150289 0.74632925 -0.31167021
1.6149204 0.7587164 -0.31182197
1.6068051 0.77051127 -0.31043455
1.6065891 0.79516369 -0.31073657
1.6046767 0.87079686 -0.31460369
1.6046892 0.88295579 -0.31476113
1.6163306 0.59768319 -0.30984914
1.6082087 0.61027038 -0.30847144
1.6078846 0.64724904 -0.30892447
1.6077766 0.65957528 -0.30907547
1.6075609 0.68422771 -0.30937749
1.6073449 0.70888019 -0.30967951
1.6051387 0.96725279 -0.30526346
1.6051697 0.97935772 -0.30546677
1.6012433 0.98598206 -0.30948099
1.6117214 0.79715091 -0.30370373
1.6047975 0.8340987 -0.30302683
1.6122063 0.84888142 -0.30250311
1.6118771 0.8579421 -0.30472484
1.6050146 0.91883314 -0.30445012
1.6051385 0.94313574 -0.30253959
1.6318104 0.53483903 -0.29944813
1.6243598 0.5851258 -0.2987771
1.6162369 0.59783417 -0.29746187
1.6161284 0.61022133 -0.29761362
1.61602 0.62260848 -0.29776537
1.6159115 0.63499564 -0.29791713
1.615803 0.6473828 -0.29806888
1.6156945 0.65977001 -0.29822063
1.615586 0.67215717 -0.29837239
1.6154776 0.68454432 -0.29852417
1.6073596 0.69670415 -0.29720217
1.6072516 0.70903039 -0.29735318
1.6151521 0.72170585 -0.29897943
1.6150436 0.73409301 -0.29913118
1.6149352 0.74648017 -0.29928294
1.6148267 0.75886732 -0.29943469
1.6147182 0.77125448 -0.29958645
1.6146097 0.7836417 -0.2997382
1.6064959 0.79531389 -0.29841027
1.6076441 0.84134686 -0.29631639
1.6057403 0.88159746 -0.29946733
1.6056323 0.8939237 -0.29961833
1.6185708 0.79672337 -0.29278013
1.6164778 0.80557406 -0.29311699
1.6153674 0.82279623 -0.29159802
1.6119347 0.89635503 -0.29192942
1.6118351 0.90677977 -0.29338461
1.6048487 0.91903687 -0.2923463
1.6318252 0.52248996 -0.28679341
1.6316061 0.5474928 -0.28709972
1.6244838 0.56038129 -0.28602383
1.6243746 0.57282937 -0.28617635
1.6161432 0.59798509 -0.28507456
1.6160347 0.61037225 -0.28522632
1.6159263 0.6227594 -0.28537807
1.6158178 0.63514662 -0.28552982
1.6157093 0.64753377 -0.28568158
1.6156008 0.65992093 -0.28583333
1.6154923 0.67230809 -0.28598508
1.6153839 0.68469524 -0.28613684
1.6152751 0.6970824 -0.28628862
1.6151667 0.70946962 -0.28644037
1.6150582 0.72185677 -0.28659213
1.6149497 0.73424393 -0.28674388
1.6148412 0.74663109 -0.28689563
1.6147327 0.7590183 -0.28704739
1.6146243 0.77140546 -0.28719914
1.6065106 0.78313792 -0.28593284
1.6064026 0.7954641 -0.28608385
1.6062946 0.80779034 -0.28623489
1.6061866 0.82011652 -0.28638589
1.6040826 0.83496857 -0.28870741
1.6056468 0.88174766 -0.28714094
1.6051071 0.94337875 -0.28789598
1.6079563 0.98544294 -0.28684378
1.6079949 0.99743342 -0.28705353
1.608072 1.0214144 -0.28747302
1.6162517 0.58559793 -0.28492281
1.6184036 0.79692894 -0.28056964
1.6184661 0.82135206 -0.2809799
1.6115751 0.87050962 -0.28061479
1.604652 0.90713567 -0.28003922
1.6047761 0.95555532 -0.28085253
1.6398566 0.5094555 -0.27547929
1.6328681 0.57371116 -0.27937204
1.6328996 0.58603704 -0.27957907
1.622972 0.72235841 -0.27555811
1.6228631 0.73480654 -0.27571061
1.6227541 0.74725467 -0.27586311
1.6226451 0.75970274 -0.27601561
1.6225359 0.77215087 -0.27616814
1.6114193 0.80971843 -0.27959368
1.6139882 0.83349222 -0.27557057
1.6046211 0.89503074 -0.27983588
1.6119304 0.935022 -0.27874163
1.6078441 0.99764365 -0.2750639
1.6037183 1.0914437 -0.27738175
1.6036103 1.1037698 -0.27753276
1.6035025 1.116096 -0.27768376
1.6315117 0.54764515 -0.27459812
1.6243894 0.56053293 -0.27357557
1.6242805 0.57298106 -0.2737281
1.616158 0.58574885 -0.27253547
1.6160495 0.59813601 -0.27268723
1.615941 0.61052316 -0.27283898
1.6158326 0.62291038 -0.27299073
1.6157241 0.63529754 -0.27314249
1.6156156 0.64768469 -0.27329424
1.6155071 0.66007185 -0.27344599
1.6153986 0.67245901 -0.27359775
1.6152902 0.68484622 -0.2737495
1.6151814 0.69723338 -0.27390128
1.615073 0.70962054 -0.27405304
1.6144221 0.78394353 -0.27496356
1.6222482 0.80203176 -0.27421075
1.611689 0.98013848 -0.27029571
1.6078055 0.98565316 -0.27485415
1.6117201 0.99229676 -0.27049994
1.6326993 0.57391858 -0.26704732
1.6327624 0.59857035 -0.26746139
1.612566 0.84621406 -0.26569214
1.6114397 0.88287252 -0.26866192
1.6114708 0.89503074 -0.26886615
1.6115021 0.90718901 -0.26907036
1.6115332 0.91934729 -0.26927459
1.6115643 0.9315055 -0.26947883
1.6116266 0.95582199 -0.26988727
1.6036251 1.0915939 -0.26505539
1.6035171 1.10392 -0.2652064
1.6398716 0.49704617 -0.26276287
1.6397614 0.50960857 -0.26291677
1.6396515 0.52217096 -0.26307067
1.6395414 0.53473336 -0.26322457
1.6244042 0.54823655 -0.26097485
1.6242952 0.56068462 -0.26112735
1.6241863 0.57313275 -0.26127988
1.6160641 0.58589977 -0.2601482
1.6159556 0.59828699 -0.26029995
1.6158471 0.61067414 -0.2604517
1.6157386 0.6230613 -0.26060346
1.6156301 0.63544846 -0.26075521
1.6155217 0.64783561 -0.26090696
1.6154132 0.66022277 -0.26105872
1.6153047 0.67260998 -0.26121047
1.6151962 0.68499714 -0.26136222
1.6150877 0.6973843 -0.26151401
1.6149793 0.70977145 -0.26166576
1.6228778 0.7225101 -0.26310989
1.6227689 0.73495823 -0.26326239
1.6226599 0.74740636 -0.26341489
1.622551 0.75985444 -0.26356739
1.6224418 0.77230257 -0.26371992
1.6143284 0.78409445 -0.26257628
1.6142199 0.79648161 -0.26272804
1.6244988 0.80265456 -0.26487726
1.6138945 0.83364314 -0.2631833
1.6147054 0.9969514 -0.26420388
1.6041648 1.0299628 -0.26430035
1.6040568 1.0422889 -0.26445135
1.6039491 1.0546151 -0.26460236
1.626085 0.79662067 -0.25737575
1.6267779 0.8155663 -0.2553733
1.6267718 0.82795441 -0.25548649
1.6183194 0.89503258 -0.25778973
1.6113666 0.91955191 -0.25711745
1.6115224 0.9803431 -0.25813857
1.6117094 1.0532926 -0.25936395
1.6117405 1.0654508 -0.25956815
1.6479032 0.48383111 -0.25126371
1.6395564 0.52232403 -0.25050816
1.6394465 0.53488642 -0.25066206
1.6325303 0.57412606 -0.2547226
1.6348931 0.60556418 -0.25466621
1.634887 0.6180132 -0.25477993
1.6232197 0.67286932 -0.25005165
1.6227837 0.72266179 -0.25066164
1.6226747 0.73510993 -0.25081414
1.6225655 0.747558 -0.25096664
1.6224566 0.76000613 -0.25111914
1.6223476 0.77245426 -0.25127167
1.6222386 0.78490233 -0.25142416
1.6141262 0.79663259 -0.25034076
1.6231765 0.80222279 -0.25492951
1.6140177 0.80901974 -0.25049251
1.6159432 0.84618378 -0.25395852
1.6161661 0.85474259 -0.25279218
1.6131496 0.90811706 -0.25170657
1.6121266 0.94457352 -0.25484386
1.6127157 0.95766574 -0.25231358
1.6144376 0.96103114 -0.25152895
1.614709 1.0453378 -0.25300372
1.6057068 1.0747123 -0.25246066
1.605516 1.1647692 -0.25449228
1.6313224 0.54794979 -0.24959499
1.6242011 0.56083632 -0.24867912
1.6238739 0.59818065 -0.24913663
1.623765 0.61062878 -0.24928913
1.6233287 0.66042119 -0.24989912
1.6207724 0.78870136 -0.24720277
1.625917 0.7968272 -0.24510436
1.6288065 0.80496711 -0.24842031
1.6180896 0.87081498 -0.24516906
1.6113247 0.96838951 -0.24577717
1.6184025 0.99293071 -0.24722028
1.611605 1.0778137 -0.2476152
1.615002 1.1046488 -0.24540687
1.6117609 1.138605 -0.24863634
1.6393796 0.60843527 -0.24475424
1.6411268 0.60793865 -0.24369946
1.6417781 0.6187011 -0.24334346
1.62666 0.81567943 -0.24298581
1.6266539 0.82806754 -0.243099
1.6263453 0.84318638 -0.24457055
1.6266418 0.85284358 -0.24332535
1.6266356 0.86523163 -0.24343853
1.6266295 0.87761974 -0.24355172
1.6266234 0.89000773 -0.24366489
1.6266173 0.90239584 -0.24377806
1.6249981 0.94684553 -0.24120888
1.6125135 0.97020388 -0.24007803
1.6153879 0.98165506 -0.24362247
1.6151564 1.0554514 -0.2446931
1.6478078 0.48398495 -0.23864026
1.6394613 0.52247709 -0.23794565
1.6311183 0.56060356 -0.23724657
1.6238887 0.58588421 -0.23653586
1.6307898 0.59810793 -0.23770604
1.6306803 0.61060935 -0.23785919
1.6235616 0.62322855 -0.23699337
1.6234527 0.63567668 -0.23714587
1.6303518 0.64811367 -0.23831865
1.6302423 0.66061509 -0.23847182
1.6231256 0.67302102 -0.23760338
1.6230166 0.68546915 -0.23775588
1.6229076 0.69791722 -0.23790839
1.6227984 0.71036536 -0.23806089
1.6226895 0.72281349 -0.23821339
1.6295853 0.73562372 -0.23939075
1.6224713 0.74770969 -0.2385184
1.6223624 0.76015782 -0.2386709
1.6222534 0.7726059 -0.2388234
1.6351693 0.78351355 -0.2355316
1.6221445 0.78505403 -0.2389759
1.6217912 0.80266845 -0.23789917
1.6289558 0.84954691 -0.23975788
1.6277564 0.86352485 -0.23551078
1.6416775 0.58130825 -0.230499
1.6345764 0.76762855 -0.23124787
1.6336627 0.79446638 -0.23263761
1.6345581 0.80497557 -0.23158908
1.634552 0.8174246 -0.2317028
1.6265239 0.85295671 -0.23093784
1.6265116 0.87773287 -0.2311642
1.6277636 0.91567791 -0.2337448
1.6264751 0.95206118 -0.23184326
1.626469 0.96444917 -0.23195645
1.6146786 1.1663239 -0.23400015
1.610467 1.1933239 -0.23042232
1.6099243 1.2552596 -0.2311811
1.6098158 1.2676468 -0.23133285
1.6069121 1.3126775 -0.23218963
1.6471593 0.5472554 -0.22679003
1.6390362 0.56031734 -0.22584483
1.6499553 0.57375669 -0.22586945
1.6303666 0.63576454 -0.22566392
1.6302571 0.64826602 -0.22581707
1.6381559 0.66081643 -0.22707605
1.630038 0.67326885 -0.22612339
1.6299286 0.68577033 -0.22627655
1.6298192 0.69827175 -0.2264297
1.6297097 0.71077317 -0.22658285
1.6296 0.72327465 -0.22673601
1.6294906 0.73577607 -0.22688916
1.6293812 0.74827749 -0.22704232
1.6222682 0.76030946 -0.22622268
1.6221592 0.77275759 -0.22637518
1.6290526 0.78578186 -0.22750178
1.6356145 0.7871635 -0.22749108
1.6219411 0.79765379 -0.22668019
1.6286464 0.80112779 -0.22675002
1.6251888 0.83630008 -0.22726287
1.6204147 0.9719274 -0.22881521
1.6112263 1.1066136 -0.22936003
1.6111178 1.1190008 -0.22951178
1.630914 0.57325733 -0.22489814
1.6403203 0.68441629 -0.22064674
1.640479 0.74635023 -0.22168706
1.6405107 0.75873697 -0.22189513
1.6325923 0.79661363 -0.22147517
1.6326239 0.80893946 -0.22168221
1.6326555 0.82126528 -0.22188926
1.6326871 0.8335911 -0.22209629
1.6236057 0.8468883 -0.22433816
1.6182868 1.0788227 -0.22423518
1.6183182 1.0910343 -0.22444031
1.6137698 1.2269819 -0.22293295
1.608132 1.3224379 -0.22077917
1.6367486 0.56451428 -0.21513098
1.6480452 0.57112199 -0.21979991
1.6495686 0.5818969 -0.21903019
1.6495624 0.59446019 -0.21914497
1.6495562 0.60702348 -0.21925975
1.6414847 0.73145044 -0.21936791
1.6374009 0.7363438 -0.21543695
1.6372907 0.7489062 -0.21559085
1.6289582 0.78593415 -0.21500021
1.634973 0.79611462 -0.21726054
1.6344396 0.80508924 -0.21914063
1.6344335 0.81753826 -0.21925436
1.6344274 0.82998729 -0.2193681
1.6356181 0.83622313 -0.21613503
1.6344212 0.84243625 -0.21948184
1.6344151 0.85488522 -0.21959557
1.6238507 0.86275196 -0.21682899
1.6237931 0.87517005 -0.21696183
1.6210837 0.88494229 -0.21529944
1.6263754 0.91501009 -0.21911626
1.6199934 1.0094235 -0.21682447
1.6198845 1.0218716 -0.21697697
1.6222272 1.0330832 -0.21771468
1.6242242 1.0684198 -0.21558762
1.622383 1.0815022 -0.21856166
1.622422 1.0936069 -0.21877341
1.6145029 1.1543055 -0.21541761
1.6144643 1.1666049 -0.21559605
1.6184342 1.1863147 -0.21641517
1.6143485 1.2035029 -0.21613136
1.6098306 1.2554106 -0.21879381
1.6097221 1.2677977 -0.21894556
1.6095052 1.292572 -0.21924907
1.6093967 1.3049593 -0.21940082
1.6092882 1.3173463 -0.21955258
1.6390512 0.54790801 -0.21312842
1.6308196 0.57340968 -0.21239658
1.630491 0.61091399 -0.21285604
1.6302722 0.63591689 -0.21316235
1.638171 0.6484071 -0.21435964
1.630053 0.66091979 -0.21346867
1.6299436 0.6734212 -0.21362182
1.6298342 0.68592262 -0.21377498
1.6377308 0.69865662 -0.21497524
1.6296151 0.71092552 -0.21408129
1.6295056 0.72342694 -0.21423444
1.6291771 0.76093125 -0.2146939
1.6215198 0.83514982 -0.21468943
1.6214108 0.84759796 -0.21484195
1.6181509 1.0912398 -0.21222985
1.6183699 1.1767209 -0.21366569
1.6116663 1.297276 -0.21481988
1.6494552 0.56944835 -0.2063527
1.6398649 0.57314372 -0.2063885
1.6479385 0.59622693 -0.20777148
1.6413658 0.73156458 -0.20686613
1.6413597 0.74406689 -0.20698035
1.6413535 0.75656927 -0.20709457
1.6333754 0.79478753 -0.20786446
1.633388 0.80717492 -0.20802484
1.634315 0.81765193 -0.20680591
1.6254755 0.82199192 -0.20870243
1.6340972 0.83344555 -0.20687193
1.6334263 0.84433717 -0.208506
1.6342967 0.85499895 -0.20714712
1.6342906 0.86744791 -0.20726086
1.6342844 0.87989694 -0.20737459
1.6342722 0.90479493 -0.20760207
1.634266 0.91724396 -0.20771579
1.6349998 0.92580497 -0.20662469
1.6251899 0.93669289 -0.20506382
1.6290841 1.0325576 -0.20647658
1.6291232 1.0447156 -0.20668925
1.6223866 1.1301334 -0.20730481
1.618264 1.1962968 -0.20666376
1.6158234 1.2176328 -0.20777531
1.6169314 1.2255499 -0.20740455
1.6147568 1.2769895 -0.20566913
1.6147805 1.2963116 -0.20594785
1.6132873 1.3072921 -0.20645653
1.6129992 1.3136637 -0.20902276
1.6389561 0.54806107 -0.2005659
1.6388459 0.56062347 -0.2007198
1.6384058 0.61087298 -0.20133542
1.6302869 0.62356776 -0.20050763
1.6381857 0.63599777 -0.20164321
1.6380758 0.64856017 -0.20179713
1.6299584 0.66107208 -0.2009671
1.629849 0.67357355 -0.20112026
1.6377456 0.68624729 -0.20225883
1.6376357 0.69880968 -0.20241272
1.629411 0.72357929 -0.20173287
1.6373057 0.73649687 -0.20287444
1.6371956 0.74905926 -0.20302834
1.6290824 0.7610836 -0.20219234
1.628973 0.77358508 -0.20234549
1.6288636 0.7860865 -0.20249864
1.6275337 1.0561249 -0.20362487
1.627569 1.0683403 -0.2038343
1.6241344 1.0930065 -0.2038179
1.6182027 1.1769264 -0.20145524
1.6183035 1.1864933 -0.2040858
1.6182101 1.2050471 -0.20434088
1.618148 1.2358127 -0.20480105
1.6477361 0.58398873 -0.19511579
1.6477679 0.5964365 -0.19532487
1.6560669 0.60765493 -0.19568701
1.648055 0.70846599 -0.19720668
1.6447072 0.75858319 -0.19631776
1.6402031 0.77154076 -0.19733191
1.6447327 0.78353322 -0.19664061
1.6407413 0.79525232 -0.19634175
1.6322863 0.80935436 -0.19703276
1.64121 0.80669272 -0.19504969
1.6323179 0.82168019 -0.19723982
1.6323495 0.83400607 -0.19744685
1.6411915 0.84419978 -0.19539236
1.6323811 0.84633189 -0.19765389
1.6324127 0.85865772 -0.19786093
1.6411853 0.85670209 -0.19550659
1.6411792 0.8692044 -0.19562081
1.6254961 0.89583355 -0.19766791
1.6333464 0.90643489 -0.19692135
1.6341476 0.91735756 -0.19526735
1.6341355 0.94225562 -0.19549483
1.6341293 0.95470464 -0.19560856
1.6259 0.96712863 -0.19684938
1.6341171 0.97960263 -0.19583604
1.6290877 1.081403 -0.19517013
1.6291268 1.0935611 -0.19538282
1.6227994 1.1231773 -0.19581714
1.6222343 1.1303456 -0.19520096
1.6222733 1.1424503 -0.19541271
1.6227684 1.1848145 -0.19614366
1.6178508 1.2460939 -0.19564074
1.6149001 1.3211279 -0.19730347
1.6573381 0.58260196 -0.19481581
1.6573319 0.59522623 -0.19493115
1.6373205 0.72408754 -0.19015801
1.6372106 0.73664993 -0.19031191
1.6369905 0.76177472 -0.19061971
1.6368804 0.77433705 -0.19077362
1.6286592 0.79874027 -0.19015025
1.6285498 0.81124169 -0.1903034
1.6341966 0.81776559 -0.19435747
1.6284404 0.8237431 -0.19045655
1.6432781 0.82256186 -0.19241084
1.6422577 0.83326578 -0.19395182
1.634166 0.8800106 -0.19492614
1.635586 0.92213118 -0.19320935
1.6287354 0.97198033 -0.19325601
1.6288528 1.0084546 -0.19389404
1.6288921 1.0206126 -0.19410673
1.6289312 1.0327708 -0.19431941
1.6219616 1.0456123 -0.19371873
1.6220006 1.0577171 -0.19393048
1.6290486 1.069245 -0.19495745
1.6237388 1.1765199 -0.19408804
1.6182785 1.1840003 -0.19406301
1.6242559 1.1907248 -0.19330184
1.6181695 1.1964486 -0.19421552
1.6179516 1.2213447 -0.19452052
1.6178424 1.2337928 -0.19467303
1.6179366 1.255788 -0.19400735
1.6179006 1.2729809 -0.19300814
1.6155528 1.2840134 -0.19412607
1.6178229 1.2976406 -0.19336575
1.6468728 0.54771686 -0.18891963
1.6564193 0.57052249 -0.18501957
1.6383107 0.61102605 -0.18877289
1.6380906 0.63615084 -0.18908069
1.6379807 0.64871323 -0.18923458
1.6378706 0.66127563 -0.1893885
1.6376505 0.68640041 -0.1896963
1.6479802 0.74601865 -0.18538736
1.6287689 0.78623879 -0.18999708
1.6321806 0.8342135 -0.18512215
1.6322753 0.87119102 -0.18574327
1.6324017 0.92049438 -0.18657143
1.6332664 0.9685325 -0.18533672
1.6256111 1.0064927 -0.18725182
1.6327491 1.0560787 -0.18884888
1.627332 1.0686567 -0.18554142
1.6273673 1.0808721 -0.18575083
1.6259255 1.1292179 -0.18931326
1.627579 1.1541638 -0.18700731
1.6276143 1.1663791 -0.18721671
1.617337 1.3330071 -0.18712103
1.6558954 0.58269244 -0.18279991
1.6546048 0.59516871 -0.18361765
1.6559212 0.60781777 -0.18312523
1.6571808 0.65846264 -0.18288419
1.6445625 0.75874478 -0.18384357
1.6485806 0.77080226 -0.18443462
1.6445881 0.78369486 -0.18416642
1.6446009 0.79616988 -0.18432784
1.6446136 0.80864489 -0.18448925
1.6410848 0.81930923 -0.18266214
1.632149 0.82188767 -0.1849151
1.6431237 0.82277697 -0.18013938
1.644652 0.84606999 -0.18497352
1.640661 0.85763645 -0.18470377
1.6331773 0.88182056 -0.184214
1.6340414 0.89257324 -0.18259144
1.6332028 0.90659541 -0.18453479
1.6340292 0.91747129 -0.1828189
1.6410295 0.93183017 -0.18369015
1.6410233 0.94433254 -0.18380436
1.6340108 0.95481825 -0.18316011
1.6272869 0.97474158 -0.18180925
1.6340942 0.98276293 -0.18483678
1.6348304 0.99388951 -0.18289092
1.6357075 1.0078251 -0.18249415
1.6287391 1.0208257 -0.18194956
1.6288173 1.0451419 -0.18237491
1.6288564 1.0573 -0.18258759
1.6289738 1.0937743 -0.18322565
1.6290131 1.1059324 -0.18343832
1.6290522 1.1180904 -0.183651
1.6290913 1.1302485 -0.18386368
1.6291305 1.1424066 -0.18407635
1.6259729 1.1757166 -0.18423277
1.627174 1.1949887 -0.18373835
1.6223158 1.2031864 -0.18436761
1.6183374 1.3605111 -0.18011115
1.6719327 0.41831928 -0.17729324
1.6634696 0.47040617 -0.17706993
1.655344 0.4839527 -0.1763745
1.6552329 0.49663699 -0.1765299
1.6631348 0.50864184 -0.17753837
1.663023 0.5213871 -0.1776945
1.6636457 0.56573516 -0.17518789
1.6381056 0.62374151 -0.17636427
1.6379957 0.6363039 -0.17651817
1.6378856 0.6488663 -0.17667207
1.6377757 0.66142869 -0.17682599
1.6376655 0.67399108 -0.17697988
1.6373355 0.71167821 -0.1774416
1.6452293 0.72459728 -0.17846125
1.6371155 0.736803 -0.1777494
1.6367855 0.77449018 -0.17821111
1.6366754 0.78705257 -0.17836501
1.6382463 0.79817307 -0.17574781
1.6325803 1.0562861 -0.17652416
1.6327066 1.1055894 -0.17735232
1.6257573 1.1294245 -0.17704187
1.6619588 0.55041647 -0.17208219
1.6543696 0.57037699 -0.17069775
1.6624091 0.58112979 -0.17169075
1.6637702 0.59484315 -0.17118764
1.6570419 0.69645065 -0.17060652
1.6570357 0.70907485 -0.17072186
1.6558917 0.72104436 -0.17202738
1.6477778 0.73378044 -0.17273167
1.6478097 0.74622822 -0.17294076
1.639832 0.7595709 -0.17235251
1.6484356 0.77096432 -0.17192997
1.6484485 0.78346986 -0.1720919
1.6489853 0.79593158 -0.17073056
1.639959 0.80911803 -0.17318477
1.6489791 0.80849493 -0.17084534
1.6409658 0.81942338 -0.17016037
1.6399907 0.82150483 -0.17339283
1.6320118 0.83442092 -0.17279743
1.6489668 0.8336215 -0.17107491
1.6405039 0.84535325 -0.17209888
1.6405166 0.85779774 -0.17226002
1.6409413 0.86943269 -0.17061725
1.6401176 0.87105197 -0.17422509
1.6321381 0.88372433 -0.17362559
1.6409351 0.881935 -0.17073148
1.6330464 0.89436853 -0.17198783
1.633059 0.90675598 -0.17214821
1.6339107 0.91758496 -0.17037049
1.6322329 0.92070186 -0.17424671
1.6322645 0.93302768 -0.17445375
1.6409105 0.93194437 -0.17118837
1.6409043 0.94444668 -0.17130259
1.6338923 0.95493197 -0.1707117
1.6434038 0.95798796 -0.17022943
1.6339686 0.99524236 -0.1727795
1.6360455 1.0066589 -0.17120677
1.6356325 1.032462 -0.17071091
1.6286644 1.0453551 -0.17021777
1.6287035 1.0575132 -0.17043044
1.6287427 1.0696713 -0.17064312
1.6287818 1.0818293 -0.17085581
1.6288209 1.0939875 -0.17106847
1.6288601 1.1061455 -0.17128116
1.6273125 1.1177278 -0.17416479
1.6289383 1.1304617 -0.17170653
1.6289775 1.1426197 -0.1719192
1.6290166 1.1547778 -0.17213188
1.629095 1.179094 -0.17255725
1.6257699 1.1879997 -0.17205621
1.6270502 1.1951715 -0.171409
1.6235297 1.2135479 -0.17133836
1.6269994 1.2259101 -0.17188117
1.625339 1.2382362 -0.17470236
1.6245284 1.2490968 -0.17066069
1.6243093 1.2740997 -0.170967
1.6651616 0.46914262 -0.16931462
1.6713872 0.46969998 -0.16511448
1.6651367 0.51988333 -0.1697782
1.6651822 0.56864744 -0.16578005
1.657104 0.57020831 -0.16945316
1.6570978 0.58283252 -0.16956849
1.6371305 0.72439367 -0.16503298
1.6496562 0.72274524 -0.16683303
1.6497753 0.75972223 -0.16747986
1.6368003 0.76208085 -0.16549468
1.649815 0.77204788 -0.16769548
1.6365802 0.78720564 -0.16580249
1.6364703 0.79976797 -0.16595639
1.6499339 0.80902493 -0.16834231
1.6363602 0.81233037 -0.16611029
1.6499736 0.82135057 -0.16855793
1.6285862 1.021039 -0.1697924
1.6256835 1.1664486 -0.16538891
1.6327274 1.1797519 -0.16626987
1.6718359 0.4184753 -0.16448691
1.6631498 0.49605194 -0.16463688
1.6630383 0.50879717 -0.16479301
1.6466818 0.54802448 -0.16367272
1.6465712 0.56064779 -0.16382736
1.6459079 0.63638777 -0.16475525
1.662398 0.64415127 -0.16018492
1.6624302 0.65671325 -0.16039592
1.6373503 0.69926894 -0.16472517
1.6372404 0.71183133 -0.16487908
1.6545826 0.72060001 -0.16071765
1.6537373 0.8255499 -0.16016479
1.6518722 0.83589488 -0.16450244
1.6313994 1.084964 -0.16325268
1.6279808 1.2092003 -0.16391502
1.6266217 1.217604 -0.16174161
1.6305159 1.2390667 -0.16019857
1.6267893 1.2413697 -0.16224103
1.6245202 1.2526412 -0.1617488
1.6273693 1.2647258 -0.16388911
1.6274321 1.2757004 -0.16128123
1.6247044 1.2886224 -0.16244099
1.6249332 1.314055 -0.16381608
1.6730419 0.48193333 -0.15746967
1.6570212 0.49457815 -0.15613748
1.6650221 0.50731397 -0.1569777
1.6490016 0.5196541 -0.15564272
1.6489954 0.53221738 -0.1557575
1.6620264 0.55335033 -0.15908286
1.6569902 0.55769932 -0.15671416
1.6618738 0.56310791 -0.15952471
1.6541983 0.5705874 -0.15819784
1.6634291 0.57323623 -0.15857437
1.6569778 0.58294779 -0.15694483
1.662237 0.58134127 -0.15912989
1.655617 0.59558082 -0.15783899
1.6620781 0.60372341 -0.15963863
1.6570551 0.60865778 -0.15522636
1.6618484 0.61360621 -0.15979223
1.6569592 0.62082052 -0.15729083
1.6618421 0.62623078 -0.15985911
1.656953 0.63344473 -0.15740617
1.6621008 0.63522232 -0.15994996
1.6489398 0.64528692 -0.15679051
1.6618295 0.65147996 -0.15999286
1.6569406 0.65869319 -0.15763685
1.6556944 0.67095661 -0.15881495
1.6409144 0.68201184 -0.15640216
1.6538004 0.6999135 -0.15949924
1.6409022 0.70701653 -0.15663061
1.639599 0.73500586 -0.15955074
1.6408776 0.75702584 -0.15708749
1.6537626 0.77529538 -0.15989858
1.6448961 0.82722318 -0.15571339
1.6499376 0.85854369 -0.15688001
1.6337984 0.90524966 -0.1578083
1.6320196 0.98914701 -0.15766594
1.6321039 1.0010831 -0.15791675
1.6407362 1.0445795 -0.15971461
1.6386122 1.0570731 -0.15998466
1.630603 1.0656292 -0.15927981
1.6305904 1.0904059 -0.15941106
1.6305656 1.1399596 -0.15967357
1.6239958 1.2992549 -0.15877174
1.6712904 0.46985602 -0.15230815
1.6631651 0.48346201 -0.15173537
1.6630535 0.49620724 -0.1518915
1.6549299 0.50963038 -0.15131648
1.6437842 0.54633224 -0.15309748
1.649025 0.57505327 -0.15192093
1.644727 0.76133049 -0.15488985
1.6292021 1.2444584 -0.15306063
1.6271534 1.3129171 -0.15185699
1.6698053 0.55188382 -0.14752978
1.6617953 0.56317472 -0.14690037
1.6470221 0.57237899 -0.14512034
1.6617888 0.57579935 -0.14696726
1.6470541 0.58482671 -0.14532943
1.6617825 0.58842391 -0.14703414
1.6537725 0.59947097 -0.14640342
1.6541232 0.60830098 -0.14632788
1.6621615 0.61923867 -0.14720206
1.6457564 0.62289882 -0.14583829
1.6464659 0.63500959 -0.14603515
1.6457438 0.64790416 -0.14597075
1.645587 0.96047121 -0.14762652
1.6569073 0.48206919 -0.14339848
1.6488944 0.49464223 -0.14285043
1.6568948 0.50731766 -0.14362916
1.6671827 0.5196625 -0.14033444
1.6648953 0.52011502 -0.14440897
1.6568762 0.54519033 -0.14397517
1.65687 0.5578146 -0.1440905
1.6568638 0.57043886 -0.14420584
1.6568576 0.58306307 -0.14432117
1.648845 0.5951485 -0.14376867
1.667393 0.62114799 -0.14029269
1.6674193 0.63383371 -0.14028746
1.6674719 0.65920508 -0.14027703
1.6805463 0.43042037 -0.13978016
1.6804335 0.44329509 -0.13993789
1.670969 0.49562442 -0.13981564
1.662622 0.53459817 -0.13961458
1.6594912 0.66868412 -0.13959745
1.6515365 0.6906051 -0.13891277
1.6515625 0.70316893 -0.1389076
1.6436071 0.72478521 -0.13822302
1.643633 0.73728806 -0.13821788
1.656756 0.54530561 -0.13135149
1.6657774 0.55429554 -0.13421534
1.6567498 0.55792987 -0.13146682
1.6697201 0.56463647 -0.13491172
1.6567436 0.57055414 -0.13158216
1.6617101 0.57586616 -0.13434291
1.6567374 0.58317834 -0.13169749
1.6617984 0.58512741 -0.13420898
1.6699301 0.59264195 -0.1348204
1.6487254 0.59526318 -0.13120595
1.6536943 0.59953749 -0.13384002
1.653984 0.62101245 -0.13403794
1.6805618 0.4177025 -0.12674756
1.680449 0.43057725 -0.12690529
1.6671789 0.51965725 -0.12764873
1.6753162 0.58586556 -0.12823619
1.6753427 0.59861231 -0.12823094
1.6673892 0.62114275 -0.12760697
1.6674155 0.63382846 -0.12760174
1.6674417 0.64651412 -0.12759653
1.6674943 0.67188549 -0.1275861
1.6515067 0.67803621 -0.12635413
1.6850224 0.44354457 -0.12354629
1.6656519 0.5544349 -0.12159228
1.669641 0.5647037 -0.12222642
1.6616316 0.57593298 -0.12171859
1.6616253 0.5885576 -0.12178546
1.6617531 0.59453756 -0.12165835
1.6616189 0.60118216 -0.12185234
1.6537807 0.60872179 -0.12132804
1.6536098 0.6121676 -0.1213432
1.6646725 0.4822911 -0.11869208
1.6726718 0.49502861 -0.11934945
1.6646413 0.54571706 -0.11927154
1.6566297 0.55804515 -0.11884317
1.6566235 0.57066941 -0.1189585
1.6566173 0.58329362 -0.11907384
1.6753124 0.58586031 -0.11548954
1.6753389 0.59860706 -0.11548429
1.6753652 0.61135364 -0.11547904
1.6753917 0.62410033 -0.1154738
1.6884785 0.41675708 -0.11441582
1.6883652 0.42969275 -0.11457431
1.6802387 0.44360885 -0.11418815
1.6711116 0.45751798 -0.11373238
1.6629872 0.4711827 -0.11334316
1.6706629 0.50874263 -0.11435993
1.6674117 0.63382328 -0.11491603
1.6674379 0.64650893 -0.11491081
1.6674643 0.65919465 -0.1149056
1.6674905 0.6718803 -0.11490037
1.6595098 0.68129855 -0.11434274
1.6515548 0.70315862 -0.11377998
1.6515809 0.71572244 -0.11377481
1.6851994 0.43676466 -0.10796654
1.6805618 0.48239079 -0.10696743
1.6805555 0.49519789 -0.10708444
1.6725441 0.50789112 -0.10672034
1.6614521 0.54450095 -0.10825346
1.6725254 0.54612952 -0.10706969
1.6651891 0.55588877 -0.10821375
1.6695621 0.56477082 -0.10954112
1.6630305 0.57360154 -0.10795648
1.6630242 0.58625638 -0.10804786
1.6564909 0.5960331 -0.10656551
1.6615403 0.60124898 -0.10922799
1.6564847 0.60865736 -0.10668084
1.6535314 0.61223412 -0.10877981
1.6535251 0.62479782 -0.10884636
1.6883807 0.4169147 -0.10148001
1.6882675 0.4298504 -0.10163848
1.6848637 0.44376025 -0.1042339
1.6800284 0.45664048 -0.10147102
1.6709025 0.4704802 -0.10108296
1.6707904 0.48328632 -0.10123985
1.6625559 0.50957364 -0.10106623
1.6624444 0.52231884 -0.10122237
1.6832615 0.56301969 -0.10324507
1.683288 0.5758273 -0.1032398
1.6753086 0.58585507 -0.10274287
1.675335 0.59860182 -0.10273762
1.6753879 0.62409508 -0.10272713
1.6754143 0.63684165 -0.10272188
1.6754407 0.64958829 -0.10271664
1.6754671 0.66233498 -0.10271139
1.6674865 0.67187506 -0.10221466
1.6675129 0.68456078 -0.10220945
1.6595321 0.69391805 -0.10171278
1.6930255 0.43456674 -0.095628999
1.6855068 0.52920753 -0.097557925
1.6669509 0.53636521 -0.095253929
1.6774915 0.55348742 -0.097241126
1.6694831 0.56483793 -0.096855834
1.6629308 0.5736928 -0.095302001
1.661468 0.58869123 -0.096536763
1.6614617 0.60131586 -0.096603639
1.6614491 0.62656498 -0.096737392
1.6894889 0.39236972 -0.093808904
1.689451 0.46962366 -0.094514705
1.6894447 0.4824993 -0.094632342
1.6804335 0.49531484 -0.094277926
1.6644186 0.50789315 -0.093554646
1.6644124 0.52057832 -0.09367054
1.6628399 0.54533052 -0.094797462
1.662853 0.55795419 -0.094960913
1.683284 0.57582206 -0.090432197
1.6833371 0.60143721 -0.090421654
1.6833637 0.61424482 -0.090416387
1.6833903 0.62705243 -0.090411119
1.6966376 0.37698162 -0.088487744
1.6801565 0.43104786 -0.0882807
1.6800437 0.44392258 -0.088438429
1.6709177 0.45783007 -0.088119768
1.6708057 0.47063625 -0.088276654
1.6626828 0.48423851 -0.08800859
1.662571 0.49698374 -0.088164732
1.6753047 0.58584982 -0.089996211
1.6754104 0.63683641 -0.08997523
1.6754367 0.64958304 -0.089969985
1.6754632 0.66232973 -0.08996474
1.6674827 0.67186987 -0.089528956
1.6675091 0.68455559 -0.08952374
1.6595283 0.69391286 -0.08908803
1.697364 0.40499029 -0.081406206
1.6973575 0.41792691 -0.081524402
1.6973512 0.4308635 -0.081642583
1.6803305 0.45701051 -0.081120409
1.6803242 0.46981761 -0.081237413
1.680318 0.48262468 -0.081354424
1.6803117 0.49543178 -0.081471428
1.6633786 0.50886893 -0.084595457
1.6642916 0.52069414 -0.080985926
1.672289 0.53361619 -0.08146213
1.6774186 0.54080844 -0.084427364
1.6642791 0.5460645 -0.081217706
1.6774122 0.55355489 -0.084494881
1.6642729 0.55874968 -0.0813336
1.669404 0.56490517 -0.084170543
1.6668321 0.57451278 -0.082843617
1.6628249 0.58643913 -0.082738906
1.6613832 0.60138267 -0.083979309
1.6964254 0.3901366 -0.075650208
1.6882982 0.40429422 -0.075449899
1.6881847 0.41722995 -0.075608373
1.6880715 0.43016562 -0.075766854
1.6799464 0.44407946 -0.075563557
1.670821 0.45798612 -0.075313471
1.6707087 0.47079229 -0.075470358
1.6832538 0.5630092 -0.077629842
1.6832802 0.57581681 -0.077624574
1.6833068 0.58862436 -0.077619307
1.6833333 0.60143197 -0.077614032
1.6833599 0.61423957 -0.077608764
1.6833864 0.62704718 -0.077603497
1.6754066 0.63683116 -0.077228561
1.6754329 0.6495778 -0.077223316
1.6754594 0.66232449 -0.077218071
1.6754857 0.67507106 -0.077212825
1.6675053 0.6845504 -0.076838024
1.6675315 0.69723606 -0.076832801
1.6595507 0.70653242 -0.076458074
1.6595768 0.71915716 -0.076452874
1.6676104 0.73529315 -0.076817147
1.6943619 0.50495654 -0.072178312
1.6943555 0.51783252 -0.072246522
1.6853473 0.52934313 -0.071943544
1.6773392 0.54087591 -0.07168112
1.6773328 0.55362236 -0.071748637
1.6693251 0.56497228 -0.071485251
1.6693187 0.57765782 -0.071552448
1.6972219 0.44391823 -0.068824761
1.6802086 0.45712745 -0.068313897
1.6802022 0.46993455 -0.068430901
1.680196 0.48274162 -0.068547912
1.6721866 0.49549416 -0.06836722
1.6721802 0.50824028 -0.068483673
1.6922294 0.55311781 -0.065174989
1.6922828 0.57887012 -0.065164395
1.6923094 0.59174627 -0.06515909
1.6964409 0.37729833 -0.062494233
1.688087 0.41738755 -0.06267257
1.6879737 0.43032324 -0.062831044
1.6798489 0.44423634 -0.062688693
1.6707239 0.45814213 -0.062507167
1.6832498 0.5630039 -0.064822227
1.6833293 0.60142666 -0.064806417
1.6833559 0.61423427 -0.064801149
1.683409 0.63984942 -0.064790606
1.675429 0.64957255 -0.064476646
1.6754555 0.66231924 -0.064471401
1.667475 0.67185944 -0.064157531
1.6675013 0.68454516 -0.064152315
1.6675276 0.69723082 -0.064147092
1.6675539 0.70991653 -0.064141877
1.6675801 0.72260219 -0.064136654
1.6676065 0.7352879 -0.064131439
1.7051142 0.41785255 -0.055885777
1.6970987 0.44403636 -0.055888746
1.6890897 0.45710069 -0.055771858
1.6800804 0.4700515 -0.055624407
1.6720653 0.49561054 -0.055621665
1.6720589 0.50835669 -0.055738118
1.6942817 0.50502467 -0.059302546
1.6942753 0.51790071 -0.059370756
1.6720527 0.52110279 -0.055854566
1.6852676 0.52941096 -0.059136353
1.6772598 0.54094338 -0.058934875
1.6772534 0.55368984 -0.059002392
1.677247 0.56643635 -0.059069917
1.6692333 0.59041053 -0.058934368
1.669227 0.60309613 -0.059001565
1.671237 0.48338747 -0.05275993
1.7001238 0.50396085 -0.052568018
1.7001506 0.51689804 -0.052562699
1.6922522 0.5659886 -0.052293494
1.6832989 0.58861381 -0.052004062
1.6753196 0.59858084 -0.051750958
1.683352 0.61422902 -0.051993519
1.6833786 0.62703663 -0.051988252
1.683405 0.63984418 -0.051982984
1.6754252 0.64956731 -0.051729985
1.6674449 0.6591686 -0.05147703
1.6674712 0.67185426 -0.051471815
1.6674975 0.68453997 -0.051466592
1.6675237 0.69722563 -0.051461369
1.6675501 0.70991135 -0.051456153
1.6675763 0.722597 -0.051450931
1.6964946 0.41736391 -0.046345748
1.6878757 0.43048084 -0.049895227
1.6797514 0.44439322 -0.049813829
1.6796386 0.45726797 -0.049971558
1.6752367 0.4706364 -0.046337828
1.7022089 0.49324834 -0.046565659
1.7022024 0.50618529 -0.04663419
1.694195 0.51796889 -0.046494998
1.6851878 0.52947873 -0.046329156
1.6851814 0.54228616 -0.046397001
1.6851749 0.55509365 -0.046464846
1.6771678 0.56650388 -0.046323679
1.7049968 0.40497369 -0.042770062
1.6969819 0.43121788 -0.042834539
1.6889734 0.44434261 -0.042779151
1.6889671 0.45721826 -0.042896785
1.6799523 0.48297551 -0.042934902
1.6799459 0.49578258 -0.04305191
1.6719189 0.54671144 -0.043341909
1.70503 0.40230468 -0.037017927
1.7049155 0.41536987 -0.037177987
1.7048011 0.42843506 -0.037338052
1.6876645 0.44357416 -0.037117895
1.6795411 0.45742485 -0.037096694
1.687438 0.4694455 -0.037434846
1.7051232 0.50628126 -0.036757715
1.7001467 0.51689273 -0.039625555
1.7001735 0.5298298 -0.039620236
1.7002003 0.54276693 -0.039614908
1.700227 0.555704 -0.039609589
1.7002538 0.56864119 -0.039604262
1.7002807 0.58157831 -0.039598942
1.6923015 0.59173566 -0.039406709
1.6833216 0.60141617 -0.039191179
1.6833482 0.61422378 -0.039185904
1.6833748 0.62703139 -0.039180636
1.6753949 0.63681549 -0.03898856
1.6754212 0.64956212 -0.038983315
1.6888446 0.45733583 -0.030021712
1.6798366 0.47028536 -0.030011389
1.6795731 0.48313338 -0.033770274
1.7021283 0.49331683 -0.033628941
1.6798241 0.49589953 -0.030245401
1.6941149 0.51803702 -0.033619232
1.6941085 0.53091305 -0.033687443
1.6851016 0.54235399 -0.03358981
1.6797988 0.54712784 -0.030713428
1.674443 0.5566994 -0.032111354
1.6968588 0.43133599 -0.029898517
1.6888509 0.44446018 -0.029904079
1.7080129 0.45431098 -0.026841257
1.7001696 0.52982444 -0.02668309
1.7001964 0.54276156 -0.026677769
1.7002231 0.55569863 -0.026672445
1.6922444 0.56597805 -0.026541119
1.6922711 0.57885426 -0.026535822
1.6922977 0.59173042 -0.026530525
1.6923244 0.60460657 -0.026525227
1.6833442 0.61421853 -0.026378287
1.6753646 0.62406367 -0.026247138
1.6753911 0.63681024 -0.026241895
1.6754174 0.64955688 -0.02623665
1.6754439 0.66230357 -0.026231406
1.6754702 0.67505014 -0.026226161
1.713058 0.38817969 -0.02390754
1.704931 0.40246388 -0.023952603
1.7128279 0.41443193 -0.024229158
1.7047021 0.42859426 -0.024272729
1.6955767 0.44275653 -0.024300063
1.6794438 0.45758173 -0.024221824
1.7050707 0.49334526 -0.023758721
1.705081 0.50631273 -0.023790315
1.7010887 0.51807332 -0.023758855
1.6940283 0.53098118 -0.020811686
1.6850219 0.54242182 -0.020782618
1.677009 0.56663883 -0.020831196
1.7047367 0.43120614 -0.017013624
1.6887157 0.47032905 -0.017264277
1.6887094 0.48320469 -0.01738191
1.6797023 0.49601647 -0.017438896
1.6796833 0.53443772 -0.017789915
1.679677 0.54724479 -0.017906923
1.7127285 0.41459188 -0.011102889
1.7046034 0.42875344 -0.011207409
1.6880984 0.44423357 -0.01413764
1.7080629 0.4803018 -0.013832468
1.7080898 0.49329987 -0.01382712
1.7081168 0.50629795 -0.013821771
1.7081437 0.51929605 -0.013816424
1.7001656 0.52981913 -0.01374595
1.7001925 0.54275626 -0.013740626
1.7002192 0.55569333 -0.013735304
1.6922405 0.56597275 -0.01366493
1.6922672 0.57884896 -0.013659632
1.6922938 0.59172511 -0.013654334
1.6923205 0.60460126 -0.013649036
1.6833404 0.61421323 -0.013570668
1.7099736 0.48148841 -0.0077108908
1.7019671 0.4934538 -0.0077555198
1.6939481 0.53104937 -0.0079359226
1.6939417 0.5439254 -0.0080041308
1.6849357 0.55529702 -0.0080432696
1.7136134 0.43104649 -0.0040056081
1.6886058 0.44469532 -0.0041539371
1.6885995 0.45757097 -0.0042715706
1.7050368 0.5063417 -0.0043238648
1.7010446 0.51810229 -0.004353357
1.7001617 0.52981383 -0.00080880761
1.7081937 0.54528677 -0.00080763351
1.7002152 0.55568802 -0.00079816184
1.6922365 0.56596744 -0.00078874035
1.6832569 0.57578522 -0.00077885971
1.6922898 0.59171981 -0.00077814469
1.6923165 0.60459596 -0.00077284686
1.6833365 0.61420798 -0.00076305092
1.6833631 0.62701559 -0.00075778132
1.6833895 0.63982314 -0.00075251173
1.7218719 0.38712987 0.0023527518
1.7126293 0.41475183 0.0020233784
1.7045045 0.42891264 0.0018579131
1.6873708 0.44404703 0.0016895439
1.7018671 0.53233325 0.0049755964
1.6938615 0.54399359 0.0048716306
1.6848559 0.55536485 0.0047639227
1.7216291 0.40249467 0.0057808277
1.721489 0.43091893 0.0091306912
1.704483 0.44444105 0.0088615585
1.7044766 0.45743862 0.0087428112
1.6884706 0.47056419 0.0084858667
1.6884643 0.48343983 0.0083682332
1.7098861 0.49455512 0.0052179163
1.688458 0.49631548 0.0082505997
1.6884515 0.50919116 0.0081329681
1.7018801 0.50645924 0.0051126592
1.7018735 0.51939625 0.0050441278
1.7124147 0.42803788 0.014988838
1.7042911 0.44213703 0.014763174
1.6951675 0.45622826 0.014530989
1.708055 0.4802911 0.012163721
1.7170873 0.49586758 0.01223286
1.7081358 0.51928538 0.012179765
1.7002381 0.56861991 0.012144303
1.7003186 0.60743123 0.012160272
1.7083783 0.6362679 0.012227897
1.6923927 0.64321911 0.012119235
1.7215409 0.41368002 0.015224288
1.7179558 0.50889343 0.015247241
1.709792 0.52061975 0.018077869
1.7017866 0.53240168 0.017912308
1.7017801 0.54533863 0.017843775
1.7213576 0.44416589 0.02213724
1.7213511 0.45729294 0.022017308
1.7133455 0.47048345 0.021767333
1.7043401 0.4835524 0.021502282
1.6883101 0.54793566 0.020655137
