# .PCD v0.7 - Point Cloud Data file format
VERSION 0.7
FIELDS x y z
SIZE 4 4 4
TYPE F F F
COUNT 1 1 1
WIDTH 139
HEIGHT 1
VIEWPOINT 0 0 0 1 0 0 0
POINTS 139
DATA ascii
1.6718696 1.5526228 -0.11306942
1.6753311 1.5525874 -0.092207134
1.7055211 1.5821 -0.094572291
1.6821374 1.551199 -0.080585182
1.6900165 1.5735942 -0.081458062
1.6984279 1.5839 -0.082099915
1.6988971 1.5959944 -0.082381308
1.6993665 1.6080886 -0.082662702
1.6793305 1.54353 -0.075304374
1.6790531 1.5756394 -0.076338574
1.6861438 1.5879017 -0.076894566
1.6943233 1.6126624 -0.077755839
1.6927564 1.6051285 -0.073876023
1.6996946 1.6204699 -0.07084167
1.7071229 1.631267 -0.071391344
1.6824626 1.5634634 -0.06887573
1.6829274 1.5754435 -0.069154471
1.690343 1.5859133 -0.069696531
1.69081 1.5979466 -0.069976509
1.6941787 1.6129237 -0.065370873
1.7092758 1.6256351 -0.066162929
1.7093639 1.638135 -0.066425607
1.6859999 1.5881617 -0.064570531
1.6860868 1.6004863 -0.064829513
1.7293288 1.6397971 -0.060197696
1.737764 1.6507528 -0.060732745
1.7611282 1.6593955 -0.061739214
1.7695773 1.6707089 -0.062282573
1.7700665 1.6833206 -0.062576011
1.6892689 1.5621321 -0.057095051
1.6897359 1.5741655 -0.057375032
1.6902027 1.5861989 -0.057655014
1.6986151 1.5965685 -0.058176424
1.7060387 1.6072602 -0.058670301
1.6995536 1.620757 -0.058739226
1.7069813 1.6315553 -0.059235577
1.7415076 1.6775734 -0.055625655
1.7586118 1.6913366 -0.056380283
1.694034 1.613185 -0.052985888
1.7021258 1.6257457 -0.053468857
1.80277 1.678772 -0.050746921
1.8281629 1.6881526 -0.051650073
1.8366379 1.7001524 -0.052148458
1.6975356 1.5726669 -0.045511179
1.6980048 1.5847611 -0.045792576
1.7054259 1.5954009 -0.046231907
1.7128509 1.6061472 -0.046673708
1.7291851 1.6400894 -0.047874384
1.7455764 1.6496885 -0.048536062
1.7609818 1.6596934 -0.049179785
1.7773916 1.6697719 -0.049852628
1.7088957 1.6136627 -0.040901817
1.7019805 1.6260083 -0.041022945
1.7250807 1.639137 -0.041753244
1.7492743 1.665458 -0.042780507
1.7583708 1.6787351 -0.043237325
1.7834802 1.6931115 -0.044033352
1.736515 1.6265883 -0.035388343
1.7519081 1.6363066 -0.035911087
1.7603486 1.6474403 -0.036328331
1.7847104 1.6561043 -0.03700453
1.8021209 1.6662142 -0.037575938
1.8275043 1.6754091 -0.038284257
1.8449373 1.6860974 -0.038869128
1.8544123 1.6980965 -0.039326288
1.7043415 1.5713941 -0.033510871
1.7048129 1.5835416 -0.033793509
1.7122353 1.5942359 -0.03418076
1.7276082 1.6034366 -0.034691464
1.7582204 1.6790067 -0.030364871
1.69357 1.5889364 -0.02769541
1.7168412 1.626604 -0.028766094
1.7329369 1.6396419 -0.029234257
1.7411202 1.6653676 -0.029871941
1.8621871 1.6705897 -0.02552823
1.8716642 1.6826589 -0.025918435
1.8990724 1.6925013 -0.026475616
1.6963152 1.5490525 -0.0207435
1.7037287 1.5595348 -0.021072477
1.7111462 1.5701238 -0.021403937
1.7195607 1.5806043 -0.021745022
1.7269868 1.5914139 -0.022081614
1.7354105 1.6021303 -0.022428188
1.7358906 1.6145062 -0.022716139
1.7443212 1.6254053 -0.023066968
1.7676681 1.6337713 -0.02354118
1.7681575 1.6463832 -0.023834622
1.7925196 1.6551125 -0.024329441
1.8348056 1.6614323 -0.024986982
1.7245189 1.6018046 -0.015715366
1.7326099 1.6145443 -0.016019208
1.7432113 1.6008269 -0.010043053
1.7506475 1.6119194 -0.010332882
1.7583945 1.6253601 -0.01351791
1.7754732 1.6326561 -0.010924183
1.8008227 1.6410987 -0.011233976
1.826187 1.6499221 -0.011552621
1.8346528 1.6617436 -0.011863943
1.8620318 1.6709058 -0.012199543
1.8804677 1.6817279 -0.012532959
1.7100573 1.5460117 -0.0086271036
1.7035871 1.5598232 -0.0089167207
1.718942 1.5686336 -0.0091897231
1.7263654 1.5793912 -0.0094717611
1.7347859 1.5900482 -0.0097559914
1.7009301 1.5396706 -0.0018543936
1.7403733 1.6021876 -0.0030470649
1.757466 1.6151847 -0.0032674205
1.77356 1.6284182 -0.0034958478
1.7247883 1.5427384 0.0037111603
1.7103884 1.5585021 0.0032980889
1.7257439 1.5673685 0.0031380914
1.7341615 1.577966 0.0029162085
1.7346417 1.5903419 0.0026282566
1.7500173 1.5997258 0.0024562189
1.7663954 1.6091462 0.0022864174
1.7748337 1.6202841 0.0020519625
1.7912284 1.6301308 0.0018722443
1.8165804 1.6386998 0.0017500268
1.8339909 1.6489406 0.0015642224
1.8344998 1.6620548 0.0012590932
1.8887445 1.667275 0.0013043052
1.898228 1.6795529 0.0010464108
1.7903179 1.6159537 0.0099484641
1.7076948 1.5272191 0.010933753
1.731777 1.5389837 0.010943906
1.7478634 1.5512981 0.010856718
1.8000238 1.6288464 0.014808705
1.8333292 1.6361377 0.01499239
1.8517377 1.6463498 0.014947511
1.8612045 1.6582184 0.014767727
1.7707525 1.5192029 0.017092111
1.7791761 1.5299768 0.016927086
1.7717359 1.5445484 0.016502395
1.7722276 1.5572212 0.016207537
1.7995247 1.6159834 0.015107989
1.7562082 1.5610729 0.028512962
1.7864623 1.5155873 0.030157764
1.8038124 1.5243502 0.030265447
