# .PCD v0.7 - Point Cloud Data file format
VERSION 0.7
FIELDS x y z
SIZE 4 4 4
TYPE F F F
COUNT 1 1 1
WIDTH 1286
HEIGHT 1
VIEWPOINT 0 0 0 1 0 0 0
POINTS 1286
DATA ascii
1.9877214 1.0297248 0.061435979
2.0544701 0.53942525 0.069306292
2.0304687 0.55176663 0.068382904
2.0491018 0.56274271 0.068662859
2.0664511 0.57241219 0.069560558
2.0491416 0.57827568 0.06840194
2.0458317 0.60467792 0.068218216
2.0304377 0.61354101 0.06805566
2.02528 0.62860125 0.06670212
1.9896967 0.84811485 0.068331324
2.0914681 0.52829957 0.070688002
2.0860295 0.54005522 0.070361294
2.0857973 0.57931608 0.074534982
2.0607986 0.59389329 0.073425792
2.1044323 0.59391046 0.070805192
1.9910675 1.0113782 0.074112803
1.9906881 1.0266987 0.074246481
2.0032959 1.1028515 0.073094971
1.9804178 1.1459875 0.071376272
1.9694585 1.159761 0.070669457
2.0099547 1.1638173 0.074935853
1.988014 1.1791437 0.073741406
1.9805715 1.2059865 0.070368446
2.0220952 1.2091174 0.074648693
2.003607 1.2242512 0.071055785
2.0146444 1.2410713 0.07124871
2.0036848 1.254601 0.070545994
2.0135107 0.79856765 0.078681573
2.025542 0.81306159 0.078956798
2.0137062 0.87486136 0.077400051
2.0137453 0.89012015 0.077143744
1.9907969 0.90579337 0.075886346
1.9909129 0.95104402 0.075126253
2.0103247 1.0023563 0.07591036
2.0095177 1.0280674 0.077310517
1.9947032 1.042727 0.075432256
1.9986223 1.0590259 0.076305792
2.009809 1.1185672 0.075727403
2.0098577 1.1336505 0.075463563
2.0099061 1.148734 0.075199708
2.0220087 1.2478942 0.07988441
2.0445049 1.3194606 0.079287037
2.0729868 0.6056968 0.084514685
2.0610375 0.62327439 0.083700746
2.0730674 0.63712847 0.083986722
2.0731077 0.65284425 0.083722733
2.0732284 0.6999917 0.082930781
2.0612779 0.71702081 0.082126059
2.034224 0.84213483 0.083640307
2.0005467 0.85026431 0.084002033
2.0439484 0.85616481 0.081791312
2.0557394 1.2116072 0.082047895
2.0328848 1.2309742 0.080693215
2.0440793 1.2591325 0.080554754
2.0561674 1.2723008 0.080772489
2.0672584 1.2858038 0.08094199
2.0673661 1.301061 0.080621377
2.130357 0.53312939 0.088262312
2.097801 0.53800255 0.086732343
2.1173527 0.54765397 0.08762157
2.072866 0.55854928 0.085306637
2.0913529 0.56020045 0.086427495
2.0858939 0.57195115 0.085643418
2.1043408 0.57798779 0.086897068
2.0859344 0.58776593 0.085377775
2.1043327 0.59399521 0.086812273
2.1043248 0.61000258 0.086727478
2.091321 0.62383389 0.086090408
2.0855989 0.67490876 0.08957015
2.073597 0.6896286 0.088875756
2.0855834 0.70672458 0.089279473
2.0735815 0.7212615 0.088586755
2.0359585 0.87097019 0.089869767
2.0238369 0.88521504 0.089158684
2.0237007 0.90074855 0.088968381
2.035548 0.91784489 0.089295506
2.0234287 0.93181551 0.088587783
2.0232925 0.94734895 0.088397481
1.9991951 0.95920819 0.087179072
1.9990606 0.97455883 0.086991012
2.0261576 1.1356735 0.088890895
2.0142007 1.1497757 0.088043906
2.0032437 1.1638067 0.087248944
2.0262756 1.181724 0.088117369
2.038312 1.1985962 0.088444076
2.0263543 1.2124243 0.087601691
2.0263937 1.2277744 0.087343849
2.026433 1.2431246 0.087086007
2.0504675 1.2622504 0.087984964
2.1246378 0.56503773 0.092393659
2.137624 0.58183658 0.092846759
2.0986013 0.66008985 0.090312108
2.0484946 0.80939358 0.091160722
2.0613441 0.82643175 0.093723953
2.0374413 0.85888147 0.094150372
2.0494723 0.87392551 0.094507776
2.0495121 0.88945848 0.094246864
2.0135753 0.90563571 0.092144795
2.0256069 0.92077112 0.092500679
2.0623918 0.9310832 0.094503745
2.0136535 0.93615317 0.09163218
2.0629766 0.94615352 0.094153091
2.0256855 0.95147145 0.091984995
2.0635612 0.96122384 0.093802452
2.0137315 0.96667069 0.091119573
2.064146 0.9762941 0.093451813
2.0539291 0.99656266 0.092527136
2.0258429 1.0128721 0.090953626
2.0545106 1.0115492 0.092178449
2.0659001 1.021505 0.092399895
2.0378766 1.0287389 0.091297224
2.0442991 1.0252833 0.094186455
2.078279 1.0311785 0.092669085
2.0323579 1.0415871 0.09330453
2.0443981 1.0559833 0.093649417
2.0564382 1.0705624 0.093991101
2.0499899 1.0758544 0.091115914
2.0380349 1.0905052 0.090259716
2.0353146 1.104284 0.091118604
2.0445957 1.1173831 0.092575356
2.0501091 1.1224535 0.090333179
2.068629 1.1319226 0.093514428
2.0446944 1.148083 0.092038319
2.044744 1.163433 0.0917698
2.0328 1.178914 0.090902284
2.0568359 1.1940933 0.091830179
2.080873 1.2096384 0.092751667
2.068929 1.2251192 0.091884151
2.0809736 1.2408867 0.092205033
2.0609438 0.67041051 0.098536395
2.0731742 0.76311958 0.097589247
2.0732145 0.77883542 0.097325265
2.0612643 0.79540586 0.096436806
2.0493133 0.81179351 0.095551424
2.0796156 0.81903338 0.09958449
2.0676789 0.83679974 0.098676994
2.067729 0.85233253 0.098405287
2.0797665 0.865906 0.098764554
2.0798669 0.89715439 0.098217934
2.067929 0.91446364 0.097318426
2.0785201 1.2075622 0.098435327
2.0786288 1.2229108 0.098112792
2.0907164 1.2361648 0.098420188
2.0788453 1.253608 0.097467735
2.0669725 1.2708684 0.096519127
2.0790617 1.2843052 0.096822664
2.1106505 0.56777048 0.1028026
2.1106915 0.58377582 0.10253375
2.1432266 0.58371115 0.10486285
2.1107326 0.59978116 0.1022649
2.1107736 0.61578643 0.10199606
2.1432104 0.61632025 0.1046901
2.1108146 0.63179171 0.10172721
2.1432021 0.63262475 0.10460373
2.1108556 0.64779705 0.10145836
2.0853617 0.85004097 0.10387864
2.0901718 1.1589648 0.10004245
2.0621312 1.217528 0.1049737
2.0621712 1.2331524 0.10471126
2.1562467 0.53637993 0.10577642
2.1562383 0.55278349 0.10568953
2.1374772 0.56568134 0.10929906
2.1562302 0.5691871 0.10560263
2.1374691 0.58198541 0.1091501
2.1338422 0.59816331 0.10656262
2.1338181 0.64692771 0.10621041
2.1504223 0.66459578 0.10910098
2.1244278 0.67862093 0.10756161
2.0613627 0.81058615 0.10754527
2.0861976 0.82851714 0.10863391
2.0860574 0.84452295 0.10843783
2.0859172 0.86052871 0.10824174
2.0608087 0.8738476 0.10677025
2.0606701 0.88966292 0.10657649
2.0474122 0.91959929 0.10552941
2.0602546 0.93710899 0.10599523
2.0601161 0.95292437 0.10580148
2.0763376 0.98605353 0.10889922
2.0769258 1.0012152 0.10854645
2.0883212 1.011348 0.1088476
2.0758729 1.0310457 0.10832842
2.0736837 1.0462689 0.10855193
2.0617306 1.0612838 0.10759818
2.0617707 1.0769082 0.10733574
2.0682838 1.0855966 0.1098612
2.0618107 1.0925326 0.10707328
2.0650921 1.1046431 0.10820016
2.0738852 1.1248481 0.10723202
2.0739255 1.140564 0.10696804
2.0804753 1.1474155 0.10946795
2.0619709 1.1550304 0.1060235
2.0685337 1.1632605 0.10850263
2.0652974 1.1747241 0.10699597
2.0740461 1.1877115 0.10617609
2.0806262 1.194288 0.10864802
2.0620911 1.2019036 0.10523615
2.1056609 1.2100235 0.10980639
2.0807269 1.2255365 0.10810138
2.0687838 1.2409244 0.10714406
2.0979764 0.77713215 0.11453426
2.0860281 0.79389155 0.11355121
2.0730798 0.81053156 0.11251169
2.0861092 0.82552123 0.11301991
2.0861497 0.84133613 0.11275426
2.0795197 0.85055572 0.1146609
2.0861902 0.85715097 0.11248862
2.0862308 0.87296581 0.11222297
2.0982618 0.88847607 0.11266398
2.0977304 0.94451529 0.11098833
2.1101048 0.95409191 0.11135124
2.0920618 1.0213784 0.11236085
2.0681338 1.0389982 0.11067633
2.0801735 1.0536703 0.11110783
2.0922136 1.0685252 0.11153612
2.0803747 1.1161671 0.11001457
2.092416 1.1313876 0.11043647
2.1024046 1.2188665 0.11490719
2.1025143 1.2343979 0.11458081
2.1026237 1.2499292 0.11425443
2.1364844 0.59582531 0.11985973
2.1293569 0.81000769 0.11823747
2.1164243 0.82833171 0.11717145
2.1045408 0.86210144 0.11589257
2.1045918 0.8779161 0.11561592
2.1046426 0.89373076 0.11533928
2.13889 1.1488791 0.11846638
2.1140521 1.1698139 0.11661533
2.1141622 1.1854367 0.11628702
2.1841247 0.55649304 0.12371462
2.1841164 0.57310998 0.12362658
2.1364429 0.57962191 0.1201319
2.1701138 0.58770227 0.12272879
2.162497 0.60800153 0.12117522
2.1700974 0.62072271 0.12255386
2.1560953 0.63488823 0.12165833
2.1560869 0.65129185 0.12157143
2.0862164 0.81270635 0.12483598
2.1112099 0.82253301 0.1216478
2.0982101 0.83645862 0.12071592
2.0850949 0.94075274 0.12326728
2.0849547 0.95675862 0.12307119
2.0848145 0.97276437 0.1228751
2.0735893 1.093681 0.12347438
2.0736296 1.1093968 0.12321041
2.0866623 1.1262698 0.12378604
2.0987775 1.1750568 0.12375952
2.0868244 1.1895293 0.12272345
2.0868649 1.2053442 0.12245779
2.0869055 1.221159 0.12219215
2.086946 1.2369739 0.12192651
2.1643147 0.5503518 0.12741505
2.178299 0.56739634 0.12812589
2.1503067 0.58272994 0.12625268
2.1502986 0.59913307 0.12610282
2.1502907 0.61553621 0.12595296
2.1642661 0.64941049 0.12651004
2.1394544 0.6690979 0.12971288
2.1782498 0.66709507 0.12721504
2.0990617 0.82981348 0.12540579
2.1119051 0.84711868 0.12597317
2.1110721 0.85557497 0.1256623
2.111763 0.86332256 0.12577465
2.1110888 0.87163055 0.12545431
2.1110322 0.88841546 0.12943338
2.1243188 0.91353071 0.12593894
2.1503325 1.0178498 0.12983643
2.0798762 1.0226958 0.12727749
2.1243925 1.0330262 0.12786338
2.1114426 1.0484686 0.12674493
2.1114836 1.0644739 0.12647608
2.1170948 1.0990134 0.12834616
2.1301343 1.1143849 0.12892182
2.117197 1.1308255 0.12778968
2.1144686 1.1456161 0.12632164
2.0924206 1.1945256 0.12505127
2.1174531 1.2103559 0.12639846
2.1535926 0.65270883 0.130753
2.1292071 0.82629335 0.13396139
2.142242 0.84008032 0.13456477
2.1422939 0.85618442 0.13428305
2.1293616 0.87430859 0.13312146
2.1294131 0.89031368 0.13284148
2.1294646 0.90631878 0.13256152
2.1295161 0.92232388 0.13228154
2.1685236 0.9334572 0.13462041
2.1387055 1.1492126 0.13427892
2.1388168 1.1650259 0.13394663
2.1259551 1.1834012 0.13272765
2.1392629 1.228279 0.13261744
2.1393745 1.2440922 0.13228515
2.176213 0.58960289 0.138814
2.1762552 0.60611093 0.13853672
2.1902812 0.6205591 0.13921916
2.1763399 0.63912714 0.13798213
2.1839795 0.6396656 0.13989109
2.1494133 0.65919673 0.13586083
2.1494553 0.6754992 0.13558698
2.1421382 0.80787206 0.13512819
2.1370385 0.82684439 0.13952248
2.1240396 0.84096718 0.13848972
2.1370225 0.85945255 0.13922456
2.0848336 0.95695364 0.13907717
2.0846934 0.9729594 0.13888109
2.1505673 1.1307603 0.13543546
2.1901534 0.57071483 0.1400564
2.1969819 0.62512732 0.14082904
2.1910915 0.65162301 0.14487718
2.1500456 0.79612029 0.14070688
2.1500378 0.81252348 0.14055702
2.1249092 0.83221477 0.14324068
2.1117826 0.84731615 0.14217722
2.1116405 0.86352003 0.14197871
2.1639953 0.88069832 0.14090738
2.1371753 0.91532707 0.1431009
2.1370318 0.93172896 0.14289996
2.0979526 0.94274354 0.1401297
2.1371615 1.0338619 0.1449149
2.1242132 1.0494016 0.14369574
2.124337 1.0977147 0.14288422
2.1243782 1.113819 0.14261371
2.1244195 1.1299233 0.14234319
2.1115513 1.1767805 0.14059801
2.1245847 1.1943407 0.14126116
2.1116333 1.208791 0.14006032
2.1302421 1.2106961 0.14324586
2.1247497 1.2587581 0.14017913
2.1683345 0.55323255 0.14942893
2.2201226 0.55221891 0.14780132
2.2201142 0.56915534 0.14764659
2.2051153 0.58540344 0.14645542
2.205107 0.6022256 0.14630173
2.1674614 0.65292412 0.14820762
2.1496913 0.85510004 0.14887571
2.1497331 0.8714025 0.14860187
2.1501091 1.0181241 0.14613734
2.142817 1.0819244 0.14644207
2.1428688 1.0980285 0.14616035
2.1429207 1.1141328 0.14587864
2.1429725 1.1302369 0.14559694
2.1430244 1.146341 0.14531523
2.1430762 1.1624451 0.14503352
2.1641417 1.2402645 0.14997727
2.1945968 0.63613039 0.1502378
2.1761563 0.65591311 0.15421142
2.1903942 0.75375664 0.15359972
2.1904368 0.77037144 0.15332064
2.1808801 0.80091107 0.15418862
2.1679511 0.81962776 0.15291761
2.1680036 0.83592987 0.15263243
2.1810384 0.8501147 0.1533279
2.1659775 0.86643672 0.15481466
2.1551778 0.88675576 0.15079974
2.15523 0.90295887 0.1505163
2.1682661 0.91744083 0.15120657
2.1634645 1.1442424 0.15199506
2.1895199 1.1549282 0.15363434
2.1896341 1.1711299 0.15329388
2.1638031 1.1922535 0.15098616
2.2028363 1.2011715 0.15359451
2.1770031 1.221998 0.15129304
2.2168465 0.54958755 0.15901916
2.2168896 0.56640792 0.15873662
2.2169328 0.58322841 0.15845408
2.2029939 0.60221374 0.15710336
2.2030365 0.61892754 0.15682261
2.2258625 0.62985402 0.15966164
2.2030795 0.63564134 0.15654185
2.2031651 0.66906887 0.15598036
2.2397611 0.81957239 0.15969045
2.1638544 0.84782946 0.15771811
2.2398636 0.6150496 0.16077389
2.233901 0.65506214 0.16487871
2.2198696 0.73867428 0.16303495
2.2048726 0.75377858 0.16173992
2.1790113 0.80356956 0.16395746
2.1905761 0.80304784 0.16479659
2.19085 0.81893057 0.16006479
2.1928489 0.82136583 0.16479211
2.1787186 0.83699811 0.16354793
2.1654437 0.86912489 0.16217683
2.1652982 0.88574016 0.16197328
2.1511738 0.90074015 0.16073683
2.1650071 0.9189707 0.16156617
2.1918178 0.93911248 0.16334958
2.1770298 1.0854014 0.16350845
2.163084 1.100873 0.16211008
2.1686907 1.1133529 0.16408545
2.1771142 1.1184176 0.16295385
2.1817296 1.129223 0.16485049
2.1771567 1.1349257 0.16267657
2.1817822 1.1456242 0.16456358
2.1911883 1.1527902 0.16351497
2.168848 1.1622593 0.16322993
2.1661444 1.1970727 0.16155833
2.1560171 1.2111028 0.16133286
2.1773682 1.2174661 0.16129011
2.1774528 1.2504823 0.16073553
2.2100558 0.56849676 0.1690179
2.2489326 0.57042176 0.16680905
2.2099075 0.58543199 0.16881041
2.2339346 0.5868898 0.16550153
2.2097592 0.60236716 0.16860294
2.2339261 0.60393286 0.16534583
2.2236056 0.61910456 0.16945057
2.1762683 0.78825569 0.16849968
2.1903794 0.83711004 0.16881754
2.1914883 0.85436624 0.1664592
2.1764798 0.8707962 0.16711323
2.1765223 0.88730425 0.16683593
2.1809902 0.89960593 0.16886716
2.1815183 1.0636181 0.1659981
2.1955557 1.079234 0.1668478
2.1816239 1.0964205 0.1654243
2.2182107 1.1722267 0.16538414
2.1895595 1.1876734 0.16915442
2.202646 1.2015153 0.16989452
2.2027609 1.2178161 0.16955197
2.1899021 1.2362787 0.16813304
2.253351 0.53238064 0.17269358
2.2531998 0.54964346 0.1724821
2.2031505 0.75291908 0.17128891
2.2031932 0.76963282 0.17100815
2.1946523 0.79860032 0.17175691
2.206003 0.81619537 0.17140023
2.2087379 0.82923108 0.17234392
2.2087913 0.84584558 0.17205329
2.2218258 0.86044347 0.17284061
2.2088983 0.87907463 0.17147203
2.1892166 1.1390681 0.17017579
2.2023013 1.152613 0.17092213
2.2153871 1.166356 0.17166433
2.2605951 0.55922258 0.17925906
2.260639 0.57637811 0.17897089
2.2606828 0.59353375 0.17868271
2.2457478 0.61289275 0.17713772
2.2458789 0.66401678 0.17627898
2.2459226 0.68105811 0.17599273
2.239655 0.81966263 0.1767337
2.2196503 0.85738397 0.17888747
2.2329032 1.2271605 0.17574552
2.2740195 1.2303516 0.17892225
2.2041633 1.2378999 0.1798595
2.2746637 1.2469518 0.17853601
2.2894638 0.51954699 0.18228379
2.2745304 0.53958392 0.18072741
2.2627497 0.58838016 0.18498957
2.2687414 0.61955827 0.18015622
2.2627072 0.67470038 0.18420094
2.2626903 0.70922846 0.1838855
2.2626817 0.72649246 0.18372777
2.2486849 0.74215221 0.18239814
2.2221334 0.7726891 0.1846136
2.2079997 0.78886098 0.18325612
2.2336719 0.79156256 0.18067539
2.2351613 0.82531208 0.18278959
2.2075548 0.83966666 0.1826337
2.2336466 0.8426919 0.18020827
2.2074063 0.85660189 0.18242623
2.207258 0.87353712 0.18221876
2.1921322 0.88885462 0.18078893
2.1919849 0.90567553 0.18058287
2.1918375 0.92249656 0.1803768
2.2066648 0.94127798 0.18138885
2.2176356 1.0379462 0.18446334
2.190748 1.0699961 0.18152361
2.209331 1.0787401 0.18459767
2.2177649 1.0884075 0.18361573
2.217808 1.1052279 0.18333319
2.2178512 1.1220484 0.18305065
2.2039063 1.1376172 0.18154398
2.2179375 1.1556892 0.18248558
2.1956134 1.1620628 0.18191059
2.2179804 1.1725097 0.18220304
2.2097588 1.2116562 0.18227257
2.2527668 0.58437937 0.18932211
2.2386208 0.6019454 0.18794756
2.2524645 0.61890501 0.18889914
2.2777038 0.65858382 0.1856195
2.2518597 0.68795621 0.18805319
2.251255 0.75700742 0.18720725
2.2328382 0.80506074 0.18514425
2.2508013 0.80879587 0.18657279
2.2320561 0.81845051 0.18948436
2.2320995 0.8353852 0.18919991
2.2321429 0.8523199 0.18891545
2.2172046 0.86974198 0.18728872
2.2357571 0.90902734 0.1899377
2.2222612 1.0612991 0.18604448
2.2224226 1.1114397 0.18516737
2.2364609 1.1276898 0.18611264
2.236515 1.14451 0.1858184
2.243365 1.1944233 0.18991476
2.2434821 1.2110364 0.18956566
2.2990618 0.54780614 0.19357949
2.2989075 0.56541944 0.19336371
2.231926 0.76764643 0.19033773
2.2319694 0.78458112 0.19005328
2.2643857 0.80294871 0.1943402
2.2644405 0.8199898 0.1940421
2.2644954 0.83703089 0.193744
2.2505715 0.85624194 0.19217841
2.2646053 0.87111318 0.19314781
2.2646601 0.88815427 0.19284971
2.242662 1.0947449 0.19200939
2.2699494 1.1390703 0.19342496
2.2561004 1.1586415 0.19179672
2.2562182 1.1753535 0.19144553
2.3053796 0.58687556 0.19995576
2.2894483 0.60672212 0.19819933
2.2746034 0.66071033 0.19595839
2.2746477 0.67797256 0.19566843
2.2793067 0.78312564 0.19600433
2.2685299 0.82682383 0.1963229
2.2624581 0.84749842 0.19988693
2.2835116 0.8478601 0.19754775
2.2624495 0.86476243 0.19972922
2.2835028 0.86523896 0.19745567
2.2834942 0.88261777 0.19736362
2.2483444 1.1026138 0.19626296
2.2738259 1.2307456 0.1955336
2.2744701 1.2473457 0.19514737
2.3351524 0.51133645 0.2038928
2.3351977 0.52906334 0.20359503
2.3202662 0.54933453 0.20192045
2.3053348 0.56937712 0.20024967
2.2934899 0.72996849 0.2038243
2.2774956 0.74563414 0.2022032
2.2934728 0.76496899 0.20350453
2.2934642 0.78246915 0.20334464
2.2774699 0.79776907 0.20172688
2.3115463 0.80416101 0.20428741
2.2774615 0.8151474 0.20156811
2.3145084 0.82042497 0.20045465
2.2655003 0.82743108 0.2049665
2.2774529 0.83252573 0.20140934
2.265348 0.84480816 0.20475361
2.2651958 0.86218524 0.20454073
2.2500658 0.87805742 0.20298982
2.2774272 0.88466072 0.20093302
2.2359366 0.89380902 0.20153083
2.2357862 0.9109652 0.20132065
2.2496123 0.92984581 0.20235536
2.2494612 0.94710863 0.20214388
2.2642827 0.96644771 0.2032634
2.2634439 1.1435804 0.20459375
2.2466781 1.1587895 0.20205736
2.2467217 1.1758308 0.20177111
2.2654877 1.2122343 0.20422567
2.2655425 1.2292753 0.20392758
2.298003 0.65370023 0.2098982
2.2956824 0.67439067 0.20699319
2.2976944 0.6889267 0.20946664
2.266109 0.75792277 0.20581804
2.2659569 0.77529985 0.20560516
2.2658045 0.79267693 0.20539227
2.2816331 0.81117165 0.20661259
2.2608724 0.85144556 0.20866831
2.2748978 0.86814809 0.20973957
2.2645004 0.90549415 0.20959146
2.2649941 1.0588642 0.20690857
2.2510674 1.0766869 0.20526059
2.2754729 1.0925577 0.20597009
2.2651587 1.1099875 0.20601426
2.275517 1.1098199 0.20568013
2.2652135 1.1270287 0.20571616
2.2755613 1.1270822 0.20539017
2.2698717 1.1562438 0.2098895
2.2653232 1.1611109 0.20511997
2.2943449 1.1778586 0.20759486
2.2944005 1.1951207 0.2072929
2.2702274 1.2067 0.20882922
2.2856715 1.2718282 0.20887883
2.3133042 0.6182645 0.21168882
2.313149 0.63599205 0.21147163
2.3055437 0.74465591 0.21480726
2.2896111 0.76340342 0.2129474
2.2746766 0.78183675 0.21118936
2.2747209 0.79909903 0.2108994
2.274765 0.81636131 0.21060944
2.2748094 0.83362359 0.21031949
2.2932334 0.832618 0.21363413
2.3082647 0.84755719 0.21480446
2.3083208 0.86493349 0.2145005
2.3059022 0.88464332 0.21245584
2.3209276 0.90188491 0.21361458
2.2900119 0.91979229 0.21032047
2.2795327 0.9206695 0.21075764
2.2935669 0.93619025 0.21182235
2.3136446 1.1304467 0.21459162
2.284955 1.1702302 0.21101378
2.2850745 1.1871632 0.21065795
2.2992826 1.2187055 0.21131878
2.2864666 1.2269917 0.21347041
2.335182 0.61799657 0.21983156
2.3202958 0.65530711 0.21775642
2.3203409 0.67291981 0.21746057
2.3294239 0.7531448 0.21987677
2.3240135 0.77508676 0.21759929
2.3240697 0.79258502 0.21729319
2.3293972 0.80633265 0.21959502
2.3081529 0.81280458 0.21541239
2.3293796 0.84179115 0.21940717
2.3293705 0.85952049 0.21931326
2.3293617 0.87724978 0.21921934
2.293323 0.8860172 0.21630651
2.3293529 0.89497906 0.21912542
2.2932374 0.90513051 0.21972489
2.2932289 0.92263073 0.21956502
2.3272448 1.0758083 0.21706343
2.3081188 1.1192541 0.21926852
2.30811 1.1368686 0.21910758
2.3350003 0.54708868 0.22102262
2.3232775 0.7687993 0.22397022
2.3232687 0.78652811 0.22380824
2.3082747 0.80219305 0.22216521
2.3232512 0.8219856 0.22348429
2.345377 0.82784188 0.22102831
2.3232424 0.83971441 0.22332232
2.3232338 0.85744321 0.22316036
2.3082399 0.87265098 0.2215215
2.2958643 0.88288701 0.2247065
2.2957101 0.90050018 0.22449072
2.2955558 0.91811347 0.22427493
2.2952471 0.95333993 0.22384338
2.2903082 1.1286032 0.22419287
2.2785888 1.1438652 0.22003852
2.293396 1.1646988 0.22125401
2.3390691 1.1634719 0.22196433
2.3064246 1.1824112 0.22495592
2.2904863 1.1981094 0.22302537
2.2755461 1.2136841 0.22120109
2.3078911 1.2212161 0.22203238
2.2905755 1.2328625 0.2224416
2.3066041 1.2524049 0.22378021
2.306649 1.2699033 0.22348629
2.3216794 1.2896607 0.22471708
2.3128598 0.65393555 0.22898215
2.3127043 0.67166305 0.22876497
2.3393061 0.68150353 0.22636764
2.3722479 0.73859036 0.22914582
2.3392708 0.7529062 0.22571529
2.3277547 0.77890348 0.22901997
2.3561893 0.78882772 0.22602494
2.3275983 0.79675293 0.22880128
2.3114624 0.81348318 0.22702754
2.311307 0.83121073 0.22681035
2.3111517 0.84893823 0.22659317
2.3109965 0.86666572 0.22637598
2.3103755 0.93757582 0.22550726
2.2899075 0.9722144 0.22681978
2.3247511 1.0728627 0.22989257
2.321183 1.095921 0.22797139
2.3088853 1.1085063 0.22762002
2.3062453 1.1124175 0.22613162
2.3089411 1.1258826 0.22731605
2.3076661 1.1453366 0.22627793
2.3077164 1.162774 0.22597899
2.325089 1.1778518 0.228056
2.309165 1.1953878 0.22610021
2.3092208 1.2127641 0.22579624
2.325258 1.2303464 0.22713771
2.3253143 1.2478446 0.22683161
2.3621435 0.61780161 0.23422927
2.3449955 0.63600844 0.23233937
2.3203254 0.76127976 0.23359245
2.3204608 0.81411785 0.23270491
2.3205061 0.83173054 0.23240907
2.3205512 0.84934324 0.23211323
2.3355751 0.86647242 0.2333882
2.3391063 0.87829041 0.23484214
2.3356206 0.88419944 0.23309043
2.3241878 0.89788085 0.2329535
2.3206866 0.90218133 0.23122568
2.3392196 0.91351533 0.23422594
2.3207316 0.91979402 0.23092984
2.3392763 0.93112779 0.23391785
2.3207767 0.93740672 0.230634
2.3358023 0.95510727 0.23189938
2.3423703 1.1248956 0.23483182
2.3275301 1.1452146 0.23287234
2.3283687 1.2139659 0.23315696
2.3590698 1.2266132 0.23432902
2.3591931 1.2441099 0.23396134
2.3313625 1.281781 0.23330781
2.4122782 0.59862715 0.23936667
2.3671613 0.72167504 0.23915413
2.3352571 0.74238372 0.23547256
2.3387661 0.77261573 0.23669069
2.353796 0.78756452 0.23797515
2.3388796 0.80784065 0.23607451
2.3389361 0.82545304 0.23576641
2.3539672 0.84074467 0.23704487
2.3540244 0.85847139 0.23673479
2.3579593 1.0691433 0.23763806
2.3730426 1.083353 0.23887193
2.3422477 1.1075208 0.23519693
2.3420739 1.1585577 0.23591703
2.3421977 1.1746107 0.23733367
2.3586996 1.1741232 0.23543203
2.2931082 1.1825267 0.23865166
2.3428626 1.1917512 0.23693486
2.3588231 1.1916199 0.23506436
2.3079123 1.2037046 0.23997727
2.38381 0.59338939 0.24307999
2.3668849 0.61385059 0.24096528
2.3942659 0.76661652 0.24431574
2.355058 0.80882382 0.24477758
2.361263 0.81374389 0.24062349
2.3390658 0.82447195 0.24291283
2.3782415 0.83573401 0.24228044
2.339057 0.84232265 0.24274975
2.3782325 0.8538366 0.24218455
2.3550315 0.86274159 0.244285
2.3782234 0.87193918 0.24208865
2.3550227 0.88071418 0.24412079
2.361227 0.88563627 0.24024265
2.3390307 0.89587474 0.24226049
2.361218 0.9036094 0.24014744
2.355005 0.91665936 0.2437924
2.3612089 0.92158246 0.24005222
2.3549962 0.93463194 0.24362819
2.3519945 1.0664504 0.24128041
2.3526638 1.0836976 0.24087912
2.3407669 1.1034812 0.24458651
2.3406096 1.1214525 0.24436635
2.3244929 1.1361091 0.24249609
2.3718798 1.1370019 0.2436087
2.3243365 1.1539586 0.24227741
2.3718708 1.1551039 0.24344333
2.3241801 1.1718079 0.24205874
2.3396652 1.2292802 0.24304534
2.3362861 1.239037 0.24486047
2.3395078 1.2472515 0.24282518
2.3393505 1.2652228 0.24260502
2.388068 0.72224659 0.24911974
2.3880501 0.75869453 0.24878676
2.4018207 0.77316028 0.24855745
2.388041 0.77691859 0.24862026
2.4178903 0.78555119 0.24993172
2.3720489 0.79306197 0.24675097
2.3432853 0.81594038 0.24810919
2.343128 0.83391166 0.24788901
2.3429706 0.85188299 0.24766885
2.3428133 0.86985433 0.24744868
2.3426557 0.88782561 0.24722852
2.4027016 0.89808959 0.24593222
2.3265252 0.9040668 0.24533884
2.3263688 0.92191625 0.24512017
2.3591528 0.94383669 0.24833868
2.3205807 0.95531589 0.24794924
2.3519027 1.0982922 0.24901339
2.3519483 1.1161411 0.24871358
2.3546572 1.124683 0.2498088
2.3360136 1.1326753 0.24664706
2.3397353 1.142786 0.24783187
2.3360589 1.1504023 0.2463493
2.3548262 1.164206 0.24534111
2.3361044 1.1681292 0.24605155
2.3521314 1.1875365 0.24751434
2.3521771 1.2053853 0.24721453
2.339962 1.2132359 0.24659948
2.3522227 1.2232342 0.24691471
2.3549995 1.2310433 0.24794824
2.4217787 1.2431569 0.24801944
2.3523142 1.2589319 0.24631509
2.35236 1.2767808 0.24601528
2.4050417 0.7422927 0.25076598
2.3870542 0.78502142 0.25252751
2.4349577 0.79785264 0.25141004
2.387737 0.80261862 0.25211808
2.3511708 0.81271058 0.25381038
2.3512166 0.83055943 0.25351056
2.4045084 0.84845757 0.25258386
2.3904679 0.87300766 0.25048032
2.3677442 1.0454509 0.25168973
2.3889208 1.2399665 0.25484565
2.387017 1.2494299 0.25116843
2.4119763 0.61733407 0.25762215
2.3840721 0.79279667 0.2578342
2.4456389 0.79740351 0.25940448
2.4286666 0.81036997 0.25760752
2.4457159 0.83463013 0.2594198
2.3856864 0.83610868 0.25839862
2.3672376 0.84777272 0.25501022
2.4015028 0.86718231 0.25905424
2.4002802 0.88290614 0.25810939
2.403878 1.0947835 0.25965306
2.4035296 1.1049806 0.25557688
2.4040039 1.1126306 0.25927803
2.3699322 1.1479719 0.25829852
2.3863895 1.1599903 0.25977531
2.4203417 1.1632776 0.25997037
2.3712795 1.1826947 0.25749063
2.4045072 1.1840187 0.2577779
2.357147 1.2048366 0.25532883
2.404633 1.2018658 0.25740287
2.4047589 1.2197129 0.25702783
2.4046004 1.2429674 0.25949126
2.4046686 1.2642226 0.25590456
2.3911376 1.2823718 0.25692785
2.3938782 1.3134483 0.25964364
2.4407628 1.3764606 0.2597883
2.4414546 1.3942937 0.2593734
2.3999066 0.73712909 0.26055804
2.4185092 0.79456353 0.26277792
2.4027138 0.85158068 0.26000959
2.4110932 0.86198264 0.26393822
2.4188025 0.88567293 0.26118416
2.4188612 0.90389484 0.26086539
2.4110656 0.9170447 0.26364654
2.4110472 0.95375276 0.26345208
2.4192011 1.0015574 0.2633687
2.3970902 1.0493977 0.26399505
2.3829978 1.0725749 0.2618092
2.4164715 1.0762796 0.26340416
2.4109826 1.0822309 0.26277149
2.3991385 1.1021895 0.26276675
2.3998213 1.1197867 0.26235732
2.4200883 1.1273398 0.26072556
2.4371717 1.1421041 0.26228163
2.3876617 1.1962371 0.26301399
2.3721135 1.2740412 0.26420966
2.4278755 1.2727679 0.26366514
2.4108813 1.2841252 0.26170197
2.4108722 1.3024794 0.26160476
2.4108539 1.3391874 0.2614103
2.404876 0.72410679 0.26928633
2.3721447 0.79284573 0.26831767
2.46209 0.79945368 0.26997843
2.4620805 0.81819618 0.26987913
2.4350019 0.83443123 0.268747
2.4450846 0.83305079 0.26789746
2.4280889 0.84764624 0.26591715
2.4351294 0.85252964 0.26836669
2.4217844 0.87366486 0.26987889
2.418314 0.87577486 0.26601186
2.4280703 0.88461334 0.26572132
2.4184408 0.89374375 0.26563427
2.4217753 0.8921479 0.26971003
2.428061 0.90309691 0.26562342
2.4355123 0.90682483 0.26722574
2.4217663 0.91063094 0.26954117
2.4356401 0.92492324 0.26684543
2.4217572 0.92911398 0.26937231
2.3877871 0.94110101 0.26534495
2.4280427 0.94006395 0.26542759
2.3877783 0.95932502 0.26517844
2.391794 0.96648353 0.26990348
2.4248488 0.96629715 0.2693316
2.4280241 0.97703111 0.26523176
2.391633 0.98483574 0.26967865
2.4236355 0.98434675 0.26889122
2.4217207 1.0030462 0.26869684
2.4691823 1.0074353 0.26873451
2.4426751 1.0136012 0.26998737
2.4047315 1.0177631 0.26660347
2.4047046 1.0728235 0.26610044
2.3906686 1.094949 0.26832965
2.4046955 1.091177 0.26593277
2.4074662 1.1165656 0.26999071
2.46193 1.1180778 0.26829055
2.4046774 1.1278841 0.2655974
2.3903472 1.1316533 0.26787996
2.3732307 1.1464822 0.2657724
2.4216483 1.1509104 0.26734596
2.3900259 1.1683578 0.26743031
2.421639 1.1693935 0.2671771
2.4046502 1.1829448 0.26509437
2.3898649 1.1867101 0.26720548
2.4449072 1.186699 0.26602405
2.3897042 1.2050623 0.26698065
2.4798672 1.2186502 0.26977271
2.4216118 1.2248425 0.2666705
2.4064949 1.2274559 0.2686322
2.4798579 1.23753 0.26967269
2.4448791 1.2425382 0.26572827
2.406333 1.2459376 0.26840577
2.4385824 1.2486459 0.26841193
2.3892221 1.2601188 0.26630613
2.4058473 1.3013828 0.26772651
2.455534 1.3101923 0.26980856
2.4056854 1.3198644 0.2675001
2.4216533 1.4362206 0.26800048
2.4218481 0.74428362 0.27106094
2.421839 0.7627666 0.27089208
2.4344912 0.76203758 0.27026826
2.4505613 0.7746824 0.27175915
2.4620993 0.78071105 0.27007771
2.4506898 0.79290271 0.27137628
2.4508183 0.81112301 0.27099341
2.4357088 0.83405149 0.27416497
2.4557552 0.86038268 0.27391806
2.4094086 0.89478493 0.27270776
2.392276 0.9114269 0.27057797
2.3921154 0.92977911 0.27035314
2.423465 0.9306308 0.27016145
2.4398887 0.94178128 0.27165842
2.3919547 0.94813132 0.27012831
2.4419785 0.99564624 0.27040514
2.4175205 1.0846667 0.27497607
2.4175675 1.1030184 0.2746678
2.4193943 1.1410987 0.2749421
2.4799051 1.1431314 0.27017277
2.4194529 1.1593206 0.27462336
2.4798958 1.162011 0.27007276
2.4007778 1.174767 0.27143252
2.4008243 1.1929891 0.27112645
2.400871 1.2112112 0.27082035
2.4349229 1.2520075 0.27419528
2.4179909 1.2681831 0.27189347
2.4915092 1.2842491 0.27419388
2.4180379 1.2865348 0.27158523
2.4735217 1.2973579 0.27199998
2.4180849 1.3048865 0.27127698
2.4520929 1.3286262 0.2749384
2.4394128 1.347983 0.27100739
2.4734938 1.3539956 0.27148253
2.4392488 1.3667238 0.27077782
2.4354439 1.4553001 0.27078053
2.4742963 1.4722768 0.27356306
2.4524746 1.4775114 0.27243751
2.4917991 0.69474232 0.27957967
2.4737723 0.78761923 0.27665699
2.4441729 0.80450177 0.27766562
2.4537375 0.80612355 0.27553344
2.4456718 0.81600922 0.27802548
2.4270325 0.82205033 0.27552471
2.4737537 0.82537764 0.27631202
2.4438446 0.84198326 0.27720642
2.4530952 0.84425926 0.27579361
2.4627218 0.84039879 0.27996728
2.4737444 0.84425688 0.27613956
2.4436805 0.86072397 0.27697682
2.4435163 0.87946475 0.27674723
2.4000773 0.90143496 0.27602378
2.4514253 1.0680771 0.27931491
2.4362509 1.1039718 0.2776027
2.4345913 1.1226395 0.27636832
2.4532843 1.1217695 0.27930251
2.4346387 1.1411207 0.27605787
2.4346862 1.1596018 0.27574745
2.4373434 1.1967812 0.27923828
2.4535222 1.1956931 0.27800936
2.4374712 1.2148796 0.27885798
2.4362371 1.2332523 0.2764917
2.4706776 1.2514886 0.27904448
2.4212749 1.2920837 0.27772826
2.4708574 1.3073198 0.27806783
2.4709175 1.3259301 0.27774227
2.4879565 1.345541 0.27941036
2.4880772 1.3830208 0.27875474
2.4873438 1.4474363 0.27712232
2.4874887 1.5040681 0.27617106
2.5099955 1.5034153 0.27725998
2.5055201 1.5271692 0.27793249
2.5055687 1.5461836 0.2776131
2.4876339 1.5606999 0.27521977
2.5097888 0.67710799 0.28181493
2.4645653 0.72773099 0.28026131
2.4826477 0.75587845 0.28147256
2.5000341 0.76607847 0.28310141
2.4507577 0.80752796 0.28369144
2.4338336 0.82694119 0.28133526
2.433881 0.84542239 0.28102481
2.4524512 0.86303711 0.2838285
2.4678731 0.86281627 0.28479284
2.4679213 0.88155645 0.28447804
2.4683533 1.0502179 0.281645
2.4526615 1.103032 0.28308684
2.4315598 1.1450522 0.28302756
2.4700034 1.1546206 0.28399867
2.4322517 1.1628854 0.28261262
2.4329436 1.1807187 0.28219768
2.4336355 1.1985519 0.28178278
2.4357111 1.2520515 0.28053799
2.436403 1.2698846 0.28012305
2.4877753 1.2893213 0.28039381
2.4536119 1.301307 0.2812703
2.4718292 1.3329663 0.28252938
2.5059955 1.3654772 0.28119105
2.4739342 1.3872193 0.28126708
2.4746358 1.4053037 0.28084633
2.4753373 1.423388 0.28042555
2.4675369 0.73163521 0.28699633
2.4676812 0.78785568 0.28605196
2.4692998 0.82344961 0.28653213
2.4693596 0.84205997 0.28620657
2.5348103 0.88415468 0.28816718
2.4695394 0.89789116 0.28522992
2.5168376 0.89705569 0.286127
2.4683208 0.9160735 0.28901145
2.4685798 0.95277309 0.28824025
2.468709 0.9711228 0.28785467
2.4688385 0.98947263 0.28746906
2.4689679 1.0078224 0.28708345
2.4618509 1.0432066 0.2874299
2.4653301 1.0622863 0.28738379
2.4694855 1.0812215 0.28554106
2.4452524 1.0858471 0.2862834
2.4798162 1.086592 0.28935215
2.4798067 1.1054718 0.28925213
2.4866991 1.1145898 0.28683579
2.4797971 1.1243515 0.28915215
2.4868293 1.133069 0.28644747
2.454298 1.177541 0.28565186
2.5051987 1.3430506 0.28616881
2.5227442 1.3573942 0.2878308
2.4844835 0.80044222 0.29343721
2.4979241 0.84527308 0.2927826
2.4848745 0.85588002 0.29227224
2.4799297 0.86003524 0.29055232
2.4850047 0.87435925 0.29188392
2.4799204 0.87891501 0.2904523
2.4851351 0.89283854 0.29149562
2.4947052 0.90320969 0.29458225
2.4735274 0.91994607 0.294328
2.4721231 0.92843056 0.29382008
2.4853957 0.92979705 0.29071897
2.5158708 0.92600667 0.294507
2.4728293 0.94663668 0.29339647
2.515861 0.94516063 0.29440552
2.4735091 0.95770454 0.29398304
2.5158515 0.96431464 0.29430407
2.4577961 0.97127897 0.29094478
2.4734998 0.97658372 0.29381055
2.4944141 0.97736561 0.29338926
2.4978478 0.99740809 0.29197669
2.4978383 1.0164249 0.29187593
2.473444 1.089859 0.29277566
2.4734347 1.1087382 0.29260316
2.4591954 1.1267807 0.29463744
2.4914031 1.132292 0.29459926
2.4410765 1.1420634 0.29227385
2.4977715 1.149543 0.29117078
2.4913936 1.1513083 0.29442555
2.475112 1.1668223 0.29419562
2.4586995 1.1834142 0.29394364
2.458534 1.2022922 0.29371235
2.4733882 1.2031343 0.29174078
2.5157266 1.2133168 0.29298502
2.4583688 1.2211699 0.29348108
2.4733789 1.2220135 0.29156828
2.5337002 1.2393312 0.2949993
2.4582033 1.2400479 0.29324982
2.4733696 1.2408926 0.29139578
2.4977238 1.2446275 0.29066706
2.4945259 1.2645253 0.29197472
2.4758177 1.2823586 0.29490778
2.5156882 1.2899328 0.29257914
2.4577074 1.2966814 0.29255599
2.5156784 1.3090869 0.2924777
2.5092769 1.3476549 0.29484299
2.5092676 1.3668084 0.29466799
2.5092392 1.4242688 0.29414305
2.4744854 1.4344785 0.29304415
2.4916182 0.69491595 0.29859519
2.4736297 0.71227479 0.29622531
2.5180969 0.75190043 0.29844907
2.515938 0.79192847 0.29521725
2.505547 0.81243783 0.29745048
2.5159283 0.81108248 0.2951158
2.5186257 0.82685339 0.29687405
2.5095313 0.83051074 0.29956767
2.5159187 0.83023655 0.29501432
2.5095217 0.84966421 0.29939267
2.4613447 0.88136852 0.29764402
2.4915245 0.88507944 0.29685783
2.4430461 0.91717458 0.29502898
2.4608488 0.93800205 0.29695019
2.4914966 0.94212854 0.29633662
2.475903 0.99629837 0.29602006
2.4758153 1.0152454 0.29581738
2.4682407 1.1067537 0.29943904
2.4952724 1.1145446 0.29914001
2.4682887 1.1254939 0.29912424
2.5527122 1.1882648 0.29754141
2.4684808 1.2004545 0.29786512
2.4515519 1.2172754 0.295423
2.486553 1.240104 0.2994858
2.4866014 1.2589812 0.29916874
2.4759841 1.2633436 0.29514074
2.4866498 1.2778585 0.29885164
2.5093052 1.2901945 0.29536796
2.4866979 1.2967359 0.29853454
2.4876001 1.3083897 0.29880446
2.5092957 1.3093479 0.29519296
2.4687688 1.3128954 0.2959764
2.4934273 1.325218 0.29655904
2.5092864 1.3285015 0.29501799
2.4867947 1.3344903 0.29790038
2.5048211 1.3563595 0.29981968
2.4878414 1.3833493 0.29749319
2.492924 1.3826742 0.29585513
2.5462098 1.3992352 0.29891717
2.4927564 1.4018264 0.2956205
2.5058796 1.4035622 0.29940626
2.527225 1.4117098 0.29646906
2.5525951 1.4214958 0.29630592
2.5105252 1.4264934 0.29749465
2.5101874 1.4650719 0.29702204
2.5051136 1.4704461 0.29790333
2.5100186 1.4843612 0.29678571
2.4871817 1.4855087 0.29536366
2.5075302 1.5060626 0.29690701
2.5275571 0.73653805 0.30263749
2.5095689 0.75389683 0.30026761
2.5172136 0.77697873 0.30333105
2.5465157 0.7773031 0.3045992
2.5465062 0.79673851 0.30442163
2.5157626 0.82852697 0.30482036
2.5360711 0.82514691 0.30420604
2.4976208 0.84641504 0.30242488
2.4794815 0.86402887 0.30003273
2.4966145 0.96132773 0.30101708
2.514411 0.9828409 0.30292985
2.5040903 1.0711436 0.30461055
2.5135663 1.0792871 0.30174831
2.5133975 1.0985763 0.30151197
2.4869363 1.1022508 0.30241045
2.5049682 1.120407 0.30435947
2.487057 1.1397307 0.3017548
2.486311 1.1457176 0.30107126
2.4871173 1.1584705 0.30142698
2.4863594 1.1645949 0.30075416
2.5051503 1.177038 0.30336881
2.4864078 1.1834722 0.30043706
2.4873586 1.2334301 0.30011573
2.5053935 1.2525461 0.30204797
2.52349 1.2909503 0.30364275
2.5056365 1.3280541 0.3007271
2.5236735 1.3479928 0.30264491
2.5417116 1.3682057 0.30455792
2.5418966 1.4256594 0.3035529
2.5500877 0.72278059 0.30870089
2.552283 0.7793628 0.3073844
2.4798501 0.78461629 0.30983174
2.5530148 0.7982235 0.30694556
2.4854403 0.80592662 0.30677882
2.5034568 0.82395637 0.30876261
2.5538173 0.89074743 0.30976519
2.5220139 1.0529271 0.3072032
2.503722 1.0916002 0.3060959
2.5203891 1.1083226 0.30970502
2.5036986 1.1488687 0.30672753
2.4978709 1.1601305 0.30878285
2.5207856 1.1645374 0.30852371
2.5231838 1.1958797 0.30530581
2.5026383 1.2149645 0.30510569
2.5007164 1.2334726 0.30707636
2.5182304 1.2470429 0.30888584
2.5214465 1.2582287 0.30655491
2.5189466 1.2655079 0.30845621
2.5414033 1.2724494 0.30623296
2.5196631 1.2839729 0.30802661
2.5203795 1.3024378 0.30759698
2.521096 1.3209027 0.30716735
2.5408044 1.3910325 0.30766097
2.5415256 1.4096267 0.30722833
2.5684733 0.7330308 0.31057552
2.521327 0.78480577 0.3117069
2.5726681 0.81902444 0.31203952
2.5214741 0.84226036 0.31074181
2.5917211 0.84477174 0.314354
2.5394919 0.86083865 0.31271642
2.5917621 0.86449736 0.31436214
2.5727899 0.87776715 0.31206369
2.5918846 0.9236744 0.31438646
2.5191996 0.93967825 0.31324887
2.5023863 0.96278107 0.31063795
2.519464 0.97715479 0.31246135
2.5195961 0.995893 0.31206757
2.5197284 1.0146313 0.31167382
2.4977007 1.0545594 0.31069097
2.5199926 1.0521078 0.31088629
2.494314 1.0684528 0.31091592
2.5201249 1.0708461 0.31049255
2.5132153 1.1177886 0.31189322
2.5384727 1.1236737 0.31163293
2.5139318 1.1362535 0.31146359
2.5568259 1.1773238 0.31275603
2.539005 1.1991751 0.31004637
2.5570941 1.2153488 0.31195697
2.5572281 1.2343613 0.31155747
2.475507 1.3016052 0.31369001
2.5554674 1.3311315 0.31117991
2.5561938 1.3498551 0.31074426
2.5569203 1.3685788 0.31030861
2.5581105 0.72419983 0.31742528
2.5582101 0.76306659 0.31677243
2.5337932 0.81502789 0.3165383
2.5536516 0.85603452 0.31913763
2.5537138 0.87525874 0.31888637
2.536875 0.89716929 0.31639266
2.5527372 0.89682907 0.31852135
2.5370083 0.91604465 0.31599602
2.5527275 0.91626495 0.31841841
2.5093017 0.92645311 0.31784534
2.5272691 0.94891095 0.31998858
2.5527081 0.95513678 0.31821248
2.5272596 0.96820164 0.31981233
2.5526984 0.97457272 0.31810954
2.5092547 1.0222205 0.31697041
2.5336869 1.0272306 0.31541419
2.5526397 1.0911882 0.31749177
2.509217 1.0988345 0.31627044
2.5526299 1.1106241 0.3173888
2.5715928 1.1560144 0.31956476
2.5125754 1.1759684 0.3198562
2.571583 1.175595 0.31946105
2.5271554 1.1803985 0.31787369
2.5124066 1.1952577 0.31961989
2.5271459 1.1996891 0.31769747
2.5461109 1.2244945 0.31994978
2.5271268 1.2382703 0.31734496
2.5525618 1.2466755 0.31666809
2.5271175 1.257561 0.31716871
2.5117307 1.2724144 0.31867462
2.5460823 1.2828004 0.31941709
2.4936178 1.287147 0.31618062
2.5463116 0.81635141 0.32367861
2.5723493 0.82965547 0.32231236
2.5463021 0.83578676 0.32350105
2.5717499 0.84272355 0.32122439
2.5462923 0.85522211 0.32332349
2.5272882 0.91032976 0.32034105
2.5740304 0.94154167 0.32271478
2.5140958 1.0023652 0.32198301
2.5322046 1.1021738 0.32320228
2.5130823 1.1181006 0.32056513
2.5129132 1.1373899 0.32032883
2.5905848 1.1428074 0.32205114
2.546149 1.1467528 0.32066002
2.5127444 1.1566792 0.3200925
2.5430789 1.167985 0.3236509
2.6105361 1.2091498 0.32424328
2.5042195 1.2235788 0.32106808
2.5501297 1.2230086 0.32416394
2.5301621 1.3353817 0.32034525
2.5404634 1.3433795 0.32390341
2.5489292 1.3600597 0.32248494
2.569726 0.7714771 0.328702
2.5842834 0.78185105 0.3289516
2.5900137 0.78563839 0.32548779
2.5533876 0.85101271 0.32872128
2.5532162 0.87059146 0.32848144
2.5340769 0.88839996 0.32582125
2.5741487 0.88546336 0.32604986
2.5748856 0.90446103 0.32560787
2.593329 0.91622126 0.32758453
2.5523586 0.96848512 0.32728213
2.5521872 0.98806393 0.32704228
2.5513299 1.0859575 0.32584298
2.5406075 1.1004238 0.3283979
2.5400679 1.1890702 0.32649538
2.5588865 1.1961471 0.32912716
2.5401173 1.2083589 0.32617137
2.541039 1.2344826 0.32605281
2.5402162 1.2469362 0.32552338
2.5411005 1.2536339 0.32571781
2.5888448 1.251569 0.32882664
2.5402656 1.2662249 0.3251994
2.559135 1.2733006 0.32777753
2.5592883 1.2880951 0.32739049
2.6280141 0.79314297 0.33008114
2.6042483 0.80402851 0.33135834
2.6072958 0.81262541 0.3322452
2.5587904 1.0937612 0.33065477
2.5586383 1.1189936 0.33047679
2.5587003 1.1382821 0.3301394
2.5564699 1.1587125 0.33216718
2.5777309 1.1572461 0.33234498
2.5501637 1.2005098 0.33296576
2.5694056 1.2329152 0.33459926
2.6252036 0.78484631 0.3352668
2.5961235 0.85935521 0.33970913
2.596174 0.87907809 0.33937782
2.5864577 1.2088753 0.33754602
2.5927811 1.2103524 0.33585733
2.592917 1.2296391 0.33545202
2.6057267 1.2419655 0.33916357
2.5886688 1.2658684 0.33621997
2.5960729 0.83963239 0.34004042
2.5690989 1.2077565 0.34651947
2.623816 1.2473161 0.34994826
2.5691857 1.2333628 0.35347268
2.5862362 1.2093263 0.35655653
