# .PCD v0.7 - Point Cloud Data file format
VERSION 0.7
FIELDS x y z
SIZE 4 4 4
TYPE F F F
COUNT 1 1 1
WIDTH 135
HEIGHT 1
VIEWPOINT 0 0 0 1 0 0 0
POINTS 135
DATA ascii
2.2518582 -0.72252703 -0.96253711
2.2518938 -0.705369 -0.96253002
2.2475441 -0.73734748 -0.95694745
2.2475355 -0.72030389 -0.95703775
2.2475269 -0.70326036 -0.95712805
2.2335114 -0.74795306 -0.95088512
2.2368963 -0.70064753 -0.93907446
2.2228687 -0.71317142 -0.93320394
2.2043228 -0.73452854 -0.92179888
2.2043145 -0.71781272 -0.92188746
2.2228281 -0.73011547 -0.91627371
2.2228985 -0.69624126 -0.91625983
2.2332582 -0.66308922 -0.91746062
2.2078719 -0.70833558 -0.91008365
2.2079418 -0.67468989 -0.91006982
2.2042189 -0.73444009 -0.90508324
2.2042105 -0.7177242 -0.90517181
2.2078319 -0.72516531 -0.89326775
2.2078667 -0.70834249 -0.89326078
2.2079017 -0.69151962 -0.89325386
2.2181199 -0.67349756 -0.89437622
2.2079713 -0.65787405 -0.89324003
2.1939435 -0.67039007 -0.88758272
2.2040727 -0.65077198 -0.88881034
2.1910784 -0.72837508 -0.88311929
2.1910703 -0.71175826 -0.88320732
2.2039938 -0.70083135 -0.87182915
2.2039852 -0.68411541 -0.87191767
2.1939385 -0.67039698 -0.87086654
2.1939731 -0.65368086 -0.87085962
2.1809106 -0.68301499 -0.86571276
2.1909418 -0.66181952 -0.86685479
2.1909335 -0.64520258 -0.86694282
2.1769285 -0.7053411 -0.86104482
2.1628985 -0.7154156 -0.85541201
2.1908383 -0.66173154 -0.8502382
2.1939678 -0.65368772 -0.85414344
2.1809402 -0.66640472 -0.84908879
2.1768258 -0.70525372 -0.84453493
2.1768177 -0.68874353 -0.84462243
2.1627719 -0.66611809 -0.83926946
2.1939628 -0.65369457 -0.8374272
2.1497617 -0.70935333 -0.83395857
2.1809351 -0.66641152 -0.83247161
2.2176754 -0.62267351 -0.82735437
2.1939232 -0.67041755 -0.82071793
2.1626697 -0.66603124 -0.82286614
2.1496437 -0.67665786 -0.81782711
2.1496274 -0.64404881 -0.81799984
2.1669714 -0.64560109 -0.81061023
2.2175708 -0.6225844 -0.81053203
2.1625593 -0.64954084 -0.80654979
2.149534 -0.660267 -0.80160916
2.1905279 -0.66146761 -0.80038846
2.1905196 -0.64485067 -0.80047649
2.1495175 -0.62765801 -0.80178189
2.0975149 -0.66945851 -0.79793388
2.2324944 -0.61165088 -0.79917377
2.2437663 -0.61499733 -0.79501158
2.1234751 -0.66501874 -0.79181647
2.2174745 -0.63931799 -0.79362065
2.2034316 -0.61680907 -0.78869367
2.2464228 -0.61714023 -0.78714699
2.1904161 -0.64476269 -0.78385991
2.1763897 -0.65537339 -0.77875757
2.2173696 -0.63922894 -0.77679837
2.2006242 -0.62730163 -0.77954179
2.2173612 -0.6224063 -0.77688748
2.1875846 -0.63733274 -0.77480721
2.2449603 -0.61594588 -0.77403653
2.2584951 -0.6220538 -0.76598835
2.2004735 -0.64386433 -0.76267439
2.2032316 -0.63334805 -0.75517386
2.2612455 -0.62293607 -0.75809264
2.2032232 -0.6166321 -0.75526243
2.1902092 -0.64458674 -0.75062674
2.2723715 -0.61150855 -0.75360668
2.2003143 -0.64371175 -0.74595964
2.2583318 -0.62189716 -0.74883175
2.2171519 -0.62222821 -0.74324286
2.2611387 -0.62284523 -0.74093515
2.1491199 -0.64361721 -0.73647875
2.2722073 -0.61135083 -0.73634344
2.1900973 -0.62788188 -0.7340982
2.2581685 -0.62174052 -0.73167515
2.1760728 -0.63860095 -0.72931534
2.217047 -0.6221391 -0.72642052
2.2610316 -0.6227544 -0.72377759
2.1899939 -0.62779391 -0.71748155
2.1759701 -0.63851351 -0.71280539
2.2580051 -0.62158388 -0.71451849
2.1999798 -0.60997552 -0.71283555
2.2579968 -0.60442644 -0.71467519
2.2029195 -0.63308257 -0.70502692
2.2169423 -0.62205005 -0.7095983
2.2289174 -0.62428206 -0.70524126
2.2458923 -0.61668909 -0.70193082
2.1728961 -0.61302155 -0.70398766
2.1758673 -0.63842613 -0.69629538
2.2578421 -0.62142712 -0.69736189
2.2578337 -0.60426968 -0.69751859
2.2168458 -0.63878363 -0.69268686
2.2168374 -0.621961 -0.69277596
2.2287562 -0.62412733 -0.68830562
2.260818 -0.62257272 -0.68946254
2.172739 -0.61287075 -0.68747848
2.271723 -0.62814206 -0.68439597
2.1866276 -0.61980599 -0.67526484
2.228595 -0.62397271 -0.67136997
2.2607112 -0.62248188 -0.67230499
2.2027028 -0.6161896 -0.67168427
2.2456882 -0.63355219 -0.66775411
2.1896834 -0.62752998 -0.6676318
2.2575154 -0.62111384 -0.66304874
2.2606044 -0.62239105 -0.65514749
2.2455821 -0.63346195 -0.65071082
2.2284338 -0.6238181 -0.65443426
2.2573521 -0.6209572 -0.64589214
2.2423148 -0.63063985 -0.6414749
2.2745254 -0.62787426 -0.64193988
2.2369797 -0.61555469 -0.63225091
2.2164185 -0.62160474 -0.62548679
2.2603993 -0.63936728 -0.62074161
2.202399 -0.63264006 -0.62144876
2.2421527 -0.63048428 -0.62443262
2.2744179 -0.62778282 -0.62467575
2.1939664 -0.62035149 -0.62010306
2.2421443 -0.61344117 -0.62458831
2.2079544 -0.62434584 -0.6072377
2.1892695 -0.62717813 -0.60116553
2.2452638 -0.63319129 -0.59958106
2.2079494 -0.62435275 -0.59041482
2.2451577 -0.63310105 -0.58253789
2.1751394 -0.62130404 -0.58081341
2.1750367 -0.6212166 -0.56430346
