# .PCD v0.7 - Point Cloud Data file format
VERSION 0.7
FIELDS x y z
SIZE 4 4 4
TYPE F F F
COUNT 1 1 1
WIDTH 229
HEIGHT 1
VIEWPOINT 0 0 0 1 0 0 0
POINTS 229
DATA ascii
1.5309279 0.69017321 -0.63438427
1.5144451 0.96863985 -0.63202143
1.5143433 0.98025763 -0.63216376
1.5142415 0.99187535 -0.6323061
1.5310445 0.66686732 -0.62237251
1.530942 0.67859167 -0.62251616
1.5308392 0.69031608 -0.6226598
1.522388 0.85353076 -0.62182558
1.5220814 0.88854396 -0.62225449
1.5380795 0.65530652 -0.61328518
1.5309558 0.66701019 -0.61064804
1.530853 0.67873454 -0.61079168
1.5301342 0.76080525 -0.61179709
1.5300317 0.7725296 -0.61194074
1.5299289 0.78425401 -0.61208439
1.5298262 0.79597843 -0.61222804
1.5222998 0.85367298 -0.61015439
1.5221975 0.86534405 -0.61029732
1.5220952 0.87701511 -0.61044037
1.5219932 0.88868618 -0.61058331
1.5255051 0.90406215 -0.61172765
1.5230913 0.91767293 -0.610448
1.5227087 0.80698878 -0.60958242
1.526022 0.84577358 -0.60913336
1.5261102 0.88019145 -0.60971147
1.5261395 0.89166409 -0.60990417
1.5194373 0.99619007 -0.60901952
1.5380936 0.64367235 -0.60136306
1.5378873 0.66722775 -0.60165167
1.5377841 0.6790055 -0.60179591
1.5376809 0.6907832 -0.60194016
1.5374746 0.7143386 -0.60222876
1.5373714 0.72611636 -0.602373
1.5372684 0.73789406 -0.60251737
1.5300455 0.76094812 -0.60007262
1.5298402 0.78439689 -0.6003598
1.5290486 0.82654321 -0.6003679
1.5318967 0.84558612 -0.60000193
1.5292242 0.85474318 -0.60122168
1.5305591 0.70232618 -0.59935439
1.5318377 0.82254946 -0.59961498
1.5258943 0.85743928 -0.59785444
1.5259824 0.89185715 -0.59843254
1.5247072 0.90660685 -0.59926677
1.5261 0.93774772 -0.59920341
1.5246899 0.9413259 -0.59951735
1.5243489 0.9837535 -0.59961987
1.5234301 0.99525762 -0.59959453
1.53598 0.79320598 -0.59110433
1.5359743 0.80487788 -0.59121096
1.5359685 0.81654978 -0.59131759
1.5324036 0.83985531 -0.59013426
1.5323919 0.86309308 -0.59025735
1.5323861 0.87471199 -0.59031892
1.5323802 0.88633084 -0.59038043
1.5263577 0.96757919 -0.59460044
1.5379012 0.65559357 -0.58972955
1.5307782 0.66729587 -0.58719897
1.5305729 0.69074464 -0.58748627
1.5303676 0.7141934 -0.58777344
1.5302649 0.72591782 -0.58791709
1.5300596 0.74936658 -0.58820438
1.5385382 0.75276363 -0.5896064
1.5315324 0.76515162 -0.58713025
1.5315619 0.77666992 -0.58732373
1.5315914 0.78818828 -0.5875172
1.5316504 0.81122494 -0.58790416
1.5272934 0.82493186 -0.58727729
1.5273052 0.83647746 -0.58742672
1.5289094 0.88474202 -0.58928055
1.5273645 0.89420545 -0.58817387
1.5250291 0.90563446 -0.58751392
1.5261211 0.92627066 -0.58811593
1.5273024 0.93413639 -0.58854777
1.526274 0.95479357 -0.5888083
1.5237033 0.96928489 -0.58785796
1.5228426 0.97574854 -0.58783197
1.522837 0.98732138 -0.58793771
1.5237762 0.99192512 -0.58825397
1.5238127 1.0032452 -0.58845204
1.5250925 1.0133147 -0.58865744
1.5250318 1.0278037 -0.58906078
1.5233681 1.0354092 -0.58870333
1.5193443 1.1092467 -0.58792502
1.5193735 1.1206661 -0.58811682
1.5429337 0.71264893 -0.5813027
1.5354953 0.79776537 -0.58431125
1.5355427 0.84414649 -0.58482182
1.53835 0.74138671 -0.5778414
1.531345 0.7538271 -0.57541949
1.5384094 0.76453006 -0.57823014
1.5314631 0.79990047 -0.57619339
1.5358632 0.80498445 -0.5795396
1.5314926 0.81141883 -0.57638687
1.5358517 0.82832825 -0.57975286
1.5362144 0.84184933 -0.57930559
1.5292218 0.85489118 -0.57684171
1.5337255 0.85458213 -0.57856345
1.5343192 0.87544012 -0.57930255
1.5323079 0.88639235 -0.57876182
1.532302 0.89801121 -0.57882339
1.5322905 0.92124897 -0.57894647
1.5271784 0.93428755 -0.57707804
1.5261475 0.95494604 -0.57733965
1.5280638 0.96526885 -0.57796043
1.5291886 0.97885597 -0.57877022
1.526206 1.0022388 -0.57792842
1.5262269 1.0119581 -0.5777905
1.5246748 1.0252516 -0.57731098
1.5242343 1.0351859 -0.57726902
1.5260798 1.0528601 -0.57818741
1.5249808 1.0621886 -0.57825148
1.5238888 1.0713644 -0.57832086
1.5250607 1.0817063 -0.57802808
1.5427817 0.79483259 -0.57032794
1.5427887 0.73666424 -0.56924146
1.5382509 0.76472479 -0.56665957
1.5382805 0.7762965 -0.56685394
1.5352895 0.78639483 -0.56683028
1.5392971 0.79588592 -0.5692398
1.533666 0.81541193 -0.56617874
1.5335525 0.8257829 -0.56657231
1.5376568 0.83076644 -0.56855643
1.5370264 0.84157699 -0.56852084
1.5370349 0.85316473 -0.56864363
1.5347048 0.86385149 -0.56790274
1.5377185 0.87694919 -0.56907964
1.537734 0.88849485 -0.56921041
1.534242 0.89860892 -0.56804538
1.5322239 0.90969163 -0.56726617
1.5322181 0.92131048 -0.56732774
1.5343039 0.94468504 -0.56856799
1.5350507 0.95470983 -0.56584543
1.5307906 0.97635454 -0.56947654
1.5295178 0.99148035 -0.56786257
1.5365133 0.75599033 -0.5636732
1.5436736 0.78511435 -0.56432313
1.5445952 0.79640782 -0.56489879
1.5336521 0.9640609 -0.56480825
1.5447072 0.74633074 -0.55661088
1.5380924 0.76491958 -0.55508894
1.5440331 0.76271188 -0.55581784
1.5444663 0.77318466 -0.55918407
1.5381219 0.77649122 -0.55528331
1.5427231 0.78321368 -0.55825889
1.5357133 0.79504937 -0.55588013
1.5428441 0.80615807 -0.55842316
1.5426587 0.81839007 -0.55881745
1.5358902 0.83083051 -0.55626929
1.5369173 0.84169984 -0.55693364
1.5369257 0.85328752 -0.55705643
1.5338936 0.86341739 -0.55606574
1.5391775 0.88932544 -0.55806243
1.5361108 0.8993454 -0.55746782
1.5391717 0.9009977 -0.55812424
1.5361476 0.91076458 -0.55766755
1.5321399 0.93299097 -0.55577075
1.5341959 0.94481587 -0.55704951
1.5295578 1.0485088 -0.55749166
1.5379441 0.70706123 -0.55411708
1.5417367 0.72709215 -0.55173308
1.5425931 0.72469532 -0.54623574
1.5455594 0.74767125 -0.54726851
1.5443827 0.75568104 -0.54734337
1.5442324 0.76270121 -0.54665512
1.5457864 0.77225715 -0.54780269
1.5425644 0.78332138 -0.54677135
1.5426997 0.80635917 -0.54695159
1.5391341 0.83102626 -0.5460813
1.5416002 0.83714664 -0.54881996
1.5428843 0.86372149 -0.54795504
1.5419168 0.88202709 -0.54976302
1.5362252 0.92960835 -0.54849541
1.5341344 0.97950381 -0.54592299
1.5310801 1.0547249 -0.54885721
1.5453655 0.75584018 -0.53556919
1.5418061 0.76226449 -0.53999287
1.5442758 0.78507918 -0.5358187
1.5422815 0.79589438 -0.53680378
1.5424984 0.80671966 -0.53537047
1.5413902 0.82616323 -0.5373646
1.5414692 0.83738333 -0.5376004
1.5427401 0.8639226 -0.53648341
1.5427771 0.87539512 -0.5366841
1.5421023 0.92714417 -0.53948659
1.5421815 0.93836427 -0.53972238
1.5422606 0.94958436 -0.53995818
1.5364888 0.98571604 -0.53849566
1.536804 1.0304136 -0.53943491
1.5368828 1.0415881 -0.53966975
1.5369617 1.0527625 -0.53990459
1.5456002 0.71583354 -0.53254682
1.5424758 0.73652762 -0.53461814
1.5424701 0.74825281 -0.53472531
1.5424516 0.77192307 -0.53490871
1.5453031 0.89194787 -0.53440404
1.5454618 0.91444135 -0.5348767
1.5460023 0.8336941 -0.52511388
1.5414174 0.84884012 -0.52661645
1.5425957 0.86412376 -0.52501172
1.5456473 0.87736738 -0.52750212
1.5419713 0.92738086 -0.52826691
1.5420505 0.93860096 -0.5285027
1.5421296 0.94982105 -0.52873844
1.5422087 0.96104121 -0.52897424
1.5422878 0.97226125 -0.52921003
1.542367 0.98348135 -0.52944583
1.5424461 0.99470145 -0.52968156
1.5425253 1.0059216 -0.52991736
1.5366734 1.0306494 -0.52826101
1.545303 0.74798024 -0.52402651
1.5441816 0.78530419 -0.5242362
1.5435766 0.79635572 -0.52405477
1.5418403 0.92761755 -0.51704735
1.5419195 0.93883765 -0.51728314
1.5419986 0.95005774 -0.51751894
1.5420777 0.9612779 -0.51775467
1.5421568 0.97249794 -0.51799047
1.542236 0.98371804 -0.51822627
1.5423943 1.0061582 -0.5186978
1.5426316 1.0398185 -0.51940513
1.5427108 1.0510386 -0.51964092
1.5459292 0.83375615 -0.51338851
1.5459234 0.84548175 -0.51345062
1.5480806 0.83452034 -0.50629842
1.5483191 0.86834061 -0.50700909
1.5483986 0.87961406 -0.50724602
1.5425798 1.0512753 -0.50842136
1.5426589 1.0624955 -0.5086571
