# .PCD v0.7 - Point Cloud Data file format
VERSION 0.7
FIELDS x y z
SIZE 4 4 4
TYPE F F F
COUNT 1 1 1
WIDTH 433
HEIGHT 1
VIEWPOINT 0 0 0 1 0 0 0
POINTS 433
DATA ascii
2.2048595 3.0567555 -0.03021617
2.2159154 3.0321827 -0.029607395
2.2042572 3.0412359 -0.02985508
2.2412736 3.0460284 -0.014032034
2.2286017 3.0547233 -0.014373532
2.2292109 3.0704255 -0.014738872
2.4675908 2.7921376 -0.0075933072
2.5015798 2.790746 -0.0071994476
2.45348 2.8154874 -0.0063017723
2.7256386 2.7065177 -0.0041421186
2.7240701 2.7195203 -0.0033112895
2.7257047 2.7270095 -0.0045005847
2.5622578 2.7304583 -0.0031242045
2.7041519 2.7310181 -0.0037673768
2.3026741 2.9831829 0.0044235168
2.3295667 2.9800143 0.0049920827
2.3033059 2.9994707 0.0040445412
2.2906737 3.0091453 0.0035811849
2.2913017 3.0253344 0.0032045115
2.2527306 3.0369813 0.0022187438
2.29193 3.0415235 0.0028278362
2.2533472 3.0528736 0.0018489789
2.2417023 3.0622044 0.0014119484
2.2423153 3.0780053 0.001044305
2.4345186 2.8118696 0.0096142404
2.4346454 2.8298388 0.0092366431
2.4187138 2.8392763 0.0087448172
2.4095693 2.8499107 0.0095770583
2.4188397 2.8571234 0.0083697811
2.3949823 2.8607903 0.0090490077
2.4029055 2.8661952 0.0078856368
2.3814039 2.8718662 0.0085347109
2.3667998 2.882297 0.0080171153
2.4030304 2.8839207 0.0075131636
2.3731635 2.9022322 0.006578044
2.3827169 2.9057059 0.0077473614
2.3572233 2.9104662 0.0061115073
2.3833733 2.9226258 0.0073536895
2.3545001 2.9263372 0.0067358315
2.3419068 2.9370162 0.0062491037
2.3282869 2.9470267 0.0057596024
2.343195 2.9702168 0.0054766275
2.6447623 2.743001 0.014541245
2.6845086 2.7444606 0.014901757
2.5710633 2.7497442 0.013432875
2.6070411 2.7471848 0.014147045
2.5799906 2.7550311 0.014973635
2.5462267 2.7616332 0.014196886
2.5711975 2.7687566 0.013033349
2.5307024 2.7741349 0.013612764
2.553273 2.7791314 0.01248515
2.4843068 2.7827187 0.011144014
2.516222 2.7834866 0.012414728
2.4525979 2.7984195 0.011599854
2.4986103 2.7980363 0.012451835
2.4514506 2.8025765 0.010121368
2.484436 2.8010683 0.010758419
2.4532762 2.8159025 0.011193074
2.4377 2.8270724 0.010639939
2.4383738 2.8444335 0.010235995
2.6305144 2.7161963 0.016830243
2.787643 2.7237365 0.017600793
2.6130078 2.7291875 0.016198076
2.6448827 2.7254 0.015301909
2.743892 2.7284775 0.017053308
2.7041976 2.7336118 0.015847888
2.7464821 2.7392864 0.016185608
2.5965042 2.7422388 0.015582846
2.7894859 2.7427096 0.016953364
2.3037479 3.0161457 0.019964635
2.2911131 3.0257187 0.01940457
2.2917414 3.0419078 0.019027894
2.2790945 3.0511842 0.018474739
2.2664404 3.0602627 0.017926183
2.2537787 3.0691431 0.017382231
2.2543952 3.0850353 0.017012462
2.3728356 2.8851047 0.024441581
2.3672559 2.8995013 0.024443086
2.3729591 2.9026012 0.02407391
2.3536575 2.9100344 0.023834731
2.3410692 2.9208102 0.023246679
2.3730824 2.9200978 0.023706235
2.3571432 2.9282074 0.023120396
2.3417132 2.9374104 0.022860449
2.3280947 2.9474182 0.022264317
2.3430014 2.9706106 0.022087973
2.302484 2.9835694 0.02072259
2.3293746 2.9804058 0.021496799
2.3031158 2.9998574 0.020343615
2.5011482 2.7915256 0.029757436
2.4842217 2.8014555 0.029107373
2.4672937 2.8111267 0.028462753
2.4828506 2.8102202 0.029608231
2.4530723 2.8163173 0.02868792
2.4674222 2.8293469 0.028079879
2.4344356 2.8302178 0.027204752
2.4537508 2.8338006 0.028281137
2.4185054 2.8396528 0.026591059
2.4381714 2.8448458 0.027608979
2.4093692 2.8503175 0.026729167
2.4186313 2.8574998 0.026216023
2.394784 2.8611944 0.026086867
2.4026985 2.866569 0.025610011
2.3877678 2.8759508 0.025023397
2.3954446 2.8782208 0.025690712
2.3818634 2.8891878 0.025072269
2.6068158 2.7475917 0.033432867
2.6447921 2.745389 0.034465808
2.6642869 2.7531841 0.034396168
2.5797753 2.7554693 0.033450995
2.5888968 2.758512 0.032736037
2.5632532 2.7679996 0.032718327
2.5709755 2.7691576 0.032044969
2.5530527 2.7795296 0.031359669
2.5160086 2.783896 0.030702224
2.546721 2.7802715 0.031991687
2.4984024 2.7984595 0.030297037
2.2921805 3.0584812 0.034851279
2.2795312 3.0676563 0.03420141
2.2801554 3.0837464 0.03382704
2.2807798 3.0998368 0.033452664
2.764713 2.7378674 0.037739582
2.8076866 2.7353988 0.038907923
2.7237411 2.7405496 0.036618676
2.6674998 2.7472498 0.035925683
2.834223 2.7469559 0.039072502
2.7040563 2.75418 0.03563723
2.8122578 2.7559581 0.038323957
2.6500001 2.7603748 0.035153233
2.7462888 2.7603006 0.036474776
2.7892895 2.7640572 0.037564341
2.3415196 2.9378042 0.039471794
2.3421638 2.9544044 0.039085556
2.3560543 2.9772272 0.03899093
2.343452 2.9876046 0.03831308
2.3298221 2.9972906 0.037617754
2.316184 3.0067635 0.036927391
2.3035581 3.0165322 0.036263708
2.3041902 3.0328202 0.035884731
2.2915525 3.0422921 0.035227954
2.4361606 2.8469117 0.044888616
2.4233978 2.8564668 0.044217627
2.4098344 2.8678651 0.043482464
2.4344792 2.8665347 0.044417676
2.395246 2.8786249 0.042728577
2.4185486 2.8757234 0.043687236
2.4026165 2.8846684 0.042961907
2.3876863 2.8939335 0.042263445
2.3959067 2.8956513 0.042332422
2.3727548 2.9029703 0.041569781
2.3823223 2.9065094 0.041609824
2.367712 2.9167058 0.040869053
2.3541107 2.92713 0.040156547
2.3879347 2.9291553 0.041523304
2.3730016 2.9379635 0.040834438
2.5309823 2.7930779 0.049385071
2.5529652 2.7988029 0.049837533
2.5162091 2.802587 0.048585318
2.5010629 2.8103948 0.04784755
2.4988863 2.816716 0.047727313
2.4837341 2.8242722 0.046995103
2.4512835 2.8395371 0.045555931
2.4842663 2.8385425 0.046685126
2.4687827 2.8401394 0.046141688
2.2938762 3.1074331 0.049921319
2.6838706 2.7643447 0.054943684
2.6447017 2.765378 0.0536297
2.5802765 2.7743726 0.051498737
2.625783 2.7761197 0.052765869
2.5637505 2.7867703 0.050639603
2.5708876 2.7885714 0.05065706
2.6259201 2.7955513 0.052357543
2.3439023 3.0045991 0.054538187
2.3445463 3.0211992 0.054151949
2.3309097 3.0306692 0.05335496
2.3172648 3.0399265 0.052562919
2.3179007 3.0563135 0.052181639
2.305264 3.065783 0.051425852
2.3058958 3.0820713 0.051046874
2.2932479 3.091244 0.05029799
2.7250631 2.7690713 0.056253891
2.7873511 2.7661695 0.058427069
2.7647631 2.7792802 0.057367709
2.7890933 2.7854044 0.058175322
2.4109647 2.9025531 0.05983695
2.387605 2.9119158 0.059503492
2.4116299 2.9196937 0.059438143
2.3877292 2.9295268 0.059133422
2.3970292 2.9301081 0.058577973
2.3856459 2.943944 0.05825853
2.36882 2.950716 0.056904014
2.369472 2.9675219 0.056512993
2.3701241 2.9843276 0.056121971
2.3565075 2.9943228 0.055312749
2.5000622 2.8528056 0.064742655
2.4692602 2.8581543 0.063341349
2.4841816 2.8572793 0.064648479
2.4546998 2.8695965 0.062457275
2.4672537 2.8665562 0.063753054
2.4513273 2.8761158 0.062892899
2.4367547 2.8826375 0.061777629
2.424535 2.8913703 0.060673784
2.4345229 2.9028516 0.061630603
2.418592 2.9117939 0.060783405
2.5635366 2.7872057 0.068987489
2.5642481 2.8055413 0.068560869
2.5528781 2.8180766 0.068315417
2.5888548 2.8167686 0.06982626
2.5649595 2.8238769 0.068134263
2.5349543 2.8278937 0.06736742
2.5180316 2.8379478 0.066455662
2.5484154 2.8357542 0.067157686
2.5011077 2.847743 0.065549359
2.5328765 2.8477602 0.066219315
2.3313575 3.0475545 0.069475904
2.3319974 3.0640481 0.069092155
2.3183451 3.0730896 0.068198442
2.3189809 3.0894766 0.067817166
2.3196168 3.1058636 0.06743589
2.3069701 3.1150341 0.066587999
2.6447492 2.8049433 0.072382227
2.6837237 2.8035073 0.074019387
2.6067734 2.8062656 0.070788667
2.3838971 2.9580719 0.074291259
2.3845537 2.9749918 0.073897585
2.38521 2.9919116 0.073503911
2.3705802 3.0015321 0.072547942
2.3569608 3.0114183 0.071634576
2.3443527 3.0215931 0.07076329
2.3449969 3.0381932 0.070377052
2.7248714 2.7899227 0.076385885
2.7036402 2.7927845 0.075068817
2.7678668 2.7945058 0.078116283
2.8118618 2.7990093 0.079890192
2.7646682 2.8002024 0.077426419
2.4551742 2.8874946 0.079545349
2.4343131 2.9032304 0.07959871
2.4558525 2.9049776 0.079138562
2.4402585 2.9155271 0.07811214
2.4344397 2.9211993 0.079221115
2.4256723 2.9262738 0.077129945
2.4153023 2.9336293 0.077223025
2.3974915 2.9475386 0.075219676
2.4186354 2.9478645 0.077879578
2.4027026 2.9563169 0.076920763
2.5489097 2.8543925 0.084952474
2.5341835 2.8660197 0.084606193
2.4840968 2.8760161 0.082611829
2.5174382 2.8765333 0.083542705
2.4849796 2.8823271 0.081129879
2.484226 2.8943658 0.082226232
2.467298 2.9033813 0.081206769
2.3337247 3.1139205 0.084445596
2.3200617 3.1226397 0.083452702
2.5812788 2.8121789 0.087594211
2.5853806 2.833483 0.087868579
2.5654573 2.8426476 0.086055517
2.5529237 2.8562255 0.086396635
2.5889013 2.8554716 0.088170171
2.3863258 3.0261531 0.0896478
2.3716886 3.0355422 0.088582888
2.3580618 3.0452127 0.087567851
2.3587098 3.0619121 0.087179303
2.3460917 3.0717878 0.086215913
2.3324449 3.0809333 0.08521311
2.3473799 3.1049881 0.085443452
2.6446586 2.8249326 0.091546118
2.6836317 2.8237996 0.093474105
2.6257405 2.8352337 0.090401977
2.4414032 2.9506617 0.09467724
2.3979535 2.9649692 0.091861397
2.4268095 2.9611773 0.093586102
2.3986139 2.9819956 0.091465235
2.4145551 3.0062101 0.091748297
2.3999352 3.0160484 0.090672925
2.7886329 2.8071196 0.099764273
2.8075447 2.8199873 0.099608496
2.7236035 2.8225384 0.095453605
2.7645736 2.821125 0.097485125
2.50103 2.8893187 0.099603206
2.4854605 2.9004588 0.098441109
2.4861476 2.9181702 0.098029017
2.4672139 2.9219859 0.099043354
2.471581 2.9293787 0.096921772
2.4407296 2.9333005 0.095081195
2.4512877 2.9311748 0.097947136
2.4514153 2.9492729 0.097566828
2.4515431 2.9673715 0.097186506
2.4346101 2.9754853 0.096056446
2.5832126 2.868012 0.10478269
2.5494037 2.8730307 0.10274728
2.5528367 2.875499 0.10487452
2.5338581 2.8847876 0.10157084
2.5009367 2.8854814 0.10172959
2.5529697 2.8943744 0.10447787
2.5010672 2.9039607 0.10134128
2.4841411 2.9131029 0.1001896
2.3578672 3.045609 0.10427819
2.3585153 3.0623083 0.10388966
2.3598111 3.0957065 0.10311258
2.3471863 3.105382 0.1020548
2.3478303 3.1219821 0.10166857
2.3617547 3.1458039 0.10194696
2.6345372 2.8504596 0.10812548
2.6256504 2.8550751 0.10942419
2.6067312 2.8649392 0.10814445
2.6352692 2.8693204 0.10768665
2.5888126 2.8750253 0.10691649
2.4130254 2.9723358 0.10969804
2.3984153 2.9823997 0.10850309
2.4143553 3.0066171 0.10890041
2.4150205 3.0237575 0.1085016
2.4003973 3.0334787 0.10731463
2.386785 3.0434744 0.10618536
2.644568 2.8449216 0.11071002
2.6835396 2.8440921 0.11292881
2.7263598 2.8456206 0.11342968
2.6885765 2.8513105 0.11115293
2.4713759 2.9297965 0.11453086
2.4873154 2.9540133 0.11492819
2.4727414 2.9649909 0.11371198
2.4418745 2.9684353 0.11164628
2.7853901 2.831172 0.11895773
2.7644787 2.8420475 0.11754383
2.7435653 2.8526032 0.11613667
2.534349 2.903301 0.11924662
2.5177741 2.9142709 0.11790252
2.5022058 2.9254084 0.11661856
2.467258 2.9588108 0.11649708
2.4844446 2.9868889 0.11699615
2.3609121 3.1295009 0.11904587
2.5708041 2.9042504 0.1243064
2.6182361 2.9003675 0.12469517
2.5844302 2.90538 0.12240081
2.5528827 2.9136479 0.12295574
2.5710721 2.9422753 0.12350735
2.6890996 2.8710396 0.12998922
2.6533151 2.8766158 0.12755364
2.6066418 2.8846328 0.12702499
2.6446157 2.8844867 0.12946254
2.635781 2.8886285 0.12612122
2.5887241 2.8945787 0.1256628
2.7453959 2.8528795 0.13406269
2.7268906 2.8656461 0.13254866
2.6635313 2.8743362 0.13089311
2.7235591 2.8839231 0.13453555
2.7434714 2.8733625 0.1360388
2.7854404 2.8729079 0.13873909
2.5676615 2.9172952 0.13939272
2.8073523 2.8625011 0.1403672
2.635561 2.8890762 0.14499465
2.5705822 2.9046516 0.14331801
2.6180177 2.9008119 0.14343147
2.5842149 2.9058185 0.14087817
2.5707161 2.9236641 0.1429185
2.5889056 2.9524314 0.14360431
2.6713583 2.8839178 0.14769483
2.6445253 2.9044757 0.14862643
2.625608 2.9141891 0.1470603
2.7253728 2.8850102 0.15319011
2.6634402 2.8944731 0.15019867
2.7034111 2.8946021 0.15306339
2.7652507 2.8821263 0.15612385
2.8281622 2.8727217 0.16248389
2.8072557 2.8837581 0.16074654
2.588412 2.9145362 0.16355786
2.6543462 2.915513 0.16469061
2.6368048 2.9272454 0.16299039
2.6065996 2.9433064 0.16438077
2.7086749 2.8984613 0.16944844
2.6442966 2.9048889 0.1682017
2.6718774 2.9035065 0.16639726
2.6444347 2.9244652 0.16779032
2.7031772 2.8950243 0.17308803
2.683264 2.9049697 0.17129295
2.7862608 2.8881435 0.17587331
2.7851038 2.8944292 0.17960364
2.7654729 2.9027524 0.17585775
2.8070128 2.8841972 0.18156335
2.6548619 2.9349616 0.18325911
2.7084484 2.8989222 0.18887784
2.6631188 2.9150262 0.18922424
2.7092018 2.9183383 0.18842608
2.6723967 2.9230955 0.18509963
2.6632578 2.934747 0.18880983
2.7665198 2.9011612 0.19386673
2.7030845 2.9154725 0.19269188
2.8063061 2.8959336 0.19746485
2.7850082 2.9155152 0.19981894
2.7640998 2.9257371 0.19777866
2.8279684 2.9155622 0.20355575
2.7274964 2.906625 0.20993489
2.8508759 2.9054797 0.20576692
2.7089756 2.9187994 0.20785549
2.6904438 2.9306846 0.20578283
2.7229013 2.9259818 0.21439551
2.702992 2.9359205 0.21229573
2.7031331 2.955946 0.21187492
2.7865708 2.9091034 0.21545471
2.7638607 2.9261694 0.21826793
2.8476379 2.9114153 0.22116745
2.7847672 2.9159508 0.22046816
2.8277233 2.9160047 0.22453251
2.7668273 2.9219615 0.23314701
2.8957326 2.9272504 0.23072533
2.7675977 2.9418194 0.23268498
2.7228081 2.9465852 0.23414847
2.8066182 2.917053 0.23734736
2.7427144 2.9364974 0.23640379
2.8686881 2.9195898 0.24362192
2.8065772 2.92715 0.24313885
2.7846715 2.9370365 0.24068347
2.8505309 2.927525 0.2476263
2.8954818 2.9277039 0.25222003
2.8071654 2.9376936 0.25705406
2.847955 2.9328616 0.26166725
2.7844305 2.9374719 0.26133272
2.8907475 2.928138 0.26649746
2.8273816 2.9378674 0.26604521
2.8723319 2.9385712 0.27097079
2.9182799 2.9390635 0.27601066
2.8272135 2.945806 0.27940017
2.8690076 2.9412034 0.28443787
2.8272846 2.9592876 0.28658113
2.935102 2.944757 0.29210326
2.8951313 2.9501061 0.29475772
2.8722334 2.9603412 0.29184231
2.9348555 2.9452586 0.313254
2.912359 2.9577868 0.31008714
2.8948803 2.9505596 0.31625244
2.8950319 2.9720554 0.31580076
2.8947811 2.9725089 0.33729547
2.9176738 2.9621058 0.34056494
