# .PCD v0.7 - Point Cloud Data file format
VERSION 0.7
FIELDS x y z
SIZE 4 4 4
TYPE F F F
COUNT 1 1 1
WIDTH 963
HEIGHT 1
VIEWPOINT 0 0 0 1 0 0 0
POINTS 963
DATA ascii
1.4856055 1.2154261 -0.54437089
1.4855053 1.2268457 -0.54451072
1.4852054 1.2611048 -0.54493046
1.4865191 1.1013687 -0.53155208
1.4863191 1.124208 -0.53183186
1.4856191 1.2041457 -0.53281116
1.4851189 1.2612439 -0.53351068
1.4935331 1.09214 -0.52242458
1.4864328 1.1015079 -0.5201323
1.4933321 1.115086 -0.52270567
1.4862328 1.1243472 -0.52041209
1.4929302 1.1609778 -0.52326798
1.4851325 1.2499634 -0.52195096
1.5011613 0.89822114 -0.51059163
1.5010605 0.90973979 -0.51073277
1.5009594 0.92125851 -0.51087391
1.5008585 0.93277723 -0.51101494
1.5007577 0.94429588 -0.51115608
1.5006568 0.9558146 -0.51129723
1.500556 0.96733332 -0.51143837
1.5004551 0.97885197 -0.51157939
1.4937477 1.0578609 -0.51052976
1.4934461 1.0922798 -0.51095152
1.4933457 1.1037527 -0.51109207
1.4971354 1.1162407 -0.51195765
1.4931448 1.1266987 -0.51137316
1.4927428 1.1725906 -0.51193535
1.4926424 1.1840637 -0.5120759
1.4920394 1.2529016 -0.51291931
1.4919388 1.2643745 -0.51305985
1.4848459 1.2729418 -0.51081097
1.4917381 1.2873205 -0.51334095
1.4916375 1.2987936 -0.5134815
1.4915371 1.3102665 -0.51362205
1.4914365 1.3217394 -0.51376259
1.4855461 1.1930043 -0.50983167
1.5030707 0.97904956 -0.50051033
1.500267 0.99051106 -0.50020182
1.4999645 1.0250671 -0.50062513
1.4998634 1.0365858 -0.50076628
1.4995608 1.071142 -0.50118959
1.4992583 1.105698 -0.5016129
1.4991572 1.1172167 -0.50175405
1.4990563 1.1287354 -0.50189519
1.492656 1.1727304 -0.50046229
1.4925556 1.1842034 -0.50060284
1.492455 1.1956763 -0.50074339
1.492254 1.2186223 -0.50102448
1.4921536 1.2300954 -0.50116503
1.492053 1.2415683 -0.5013057
1.4919527 1.2530413 -0.50144625
1.4915507 1.2989333 -0.50200844
1.5011749 0.88684279 -0.49893174
1.5009732 0.90988016 -0.49921396
1.5008724 0.92139888 -0.49935511
1.5007715 0.93291759 -0.49949619
1.5005696 0.95595491 -0.49977842
1.5004687 0.96747363 -0.49991956
1.4941633 1.0006356 -0.49835396
1.4940629 1.0121086 -0.49849454
1.4937613 1.0465276 -0.49891618
1.4936609 1.0580006 -0.49905676
1.4934599 1.0809466 -0.49933788
1.4933593 1.0924195 -0.49947843
1.4844594 1.30734 -0.49981096
1.4843595 1.3187597 -0.49995086
1.5046823 0.97347283 -0.49007991
1.499171 1.1058383 -0.49009407
1.4990699 1.117357 -0.49023518
1.4989691 1.1288757 -0.49037629
1.4987674 1.1519132 -0.49065852
1.4984648 1.1864693 -0.49108189
1.4983637 1.197988 -0.49122301
1.4982629 1.2095065 -0.49136412
1.4977586 1.2671001 -0.49206969
1.4974558 1.3016562 -0.49249303
1.4911623 1.333492 -0.49095696
1.5090075 0.78392875 -0.48839745
1.5089061 0.79550076 -0.48853922
1.5087035 0.81864482 -0.48882276
1.5086021 0.83021683 -0.48896453
1.5085008 0.84178889 -0.4891063
1.5083995 0.85336089 -0.48924807
1.5082982 0.86493289 -0.48938984
1.5011885 0.87546444 -0.48727176
1.5080953 0.88807696 -0.48967338
1.5079939 0.89964896 -0.48981515
1.500886 0.91002047 -0.4876951
1.5007851 0.92153919 -0.48783621
1.5026398 0.93628496 -0.48874339
1.5005834 0.94457662 -0.48811844
1.5004823 0.95609528 -0.48825955
1.5003815 0.967614 -0.48840067
1.5002806 0.97913265 -0.48854178
1.5001798 0.99065137 -0.4886829
1.5000789 1.0021701 -0.48882404
1.4999781 1.0136888 -0.48896515
1.4998772 1.0252075 -0.48910627
1.4997761 1.0367262 -0.48924738
1.4936745 1.0466673 -0.48744306
1.4865735 1.0562466 -0.48531333
1.4994736 1.0712823 -0.48967072
1.4933729 1.0810864 -0.48786473
1.4992719 1.0943196 -0.48995295
1.4856732 1.1590236 -0.48657244
1.4855733 1.1704433 -0.48671234
1.4921672 1.2187622 -0.4895514
1.4920666 1.2302352 -0.48969197
1.4849732 1.2389612 -0.48755175
1.4948189 1.2544514 -0.48519143
1.4773824 1.3044122 -0.48610651
1.484273 1.3188989 -0.48853108
1.4978731 1.244203 -0.48026869
1.4975705 1.2787591 -0.48069203
1.497268 1.3133152 -0.48111537
1.515744 0.69165462 -0.47757354
1.5156422 0.70327234 -0.47771588
1.50892 0.78406978 -0.47682533
1.5088186 0.79564178 -0.4769671
1.5087173 0.80721378 -0.47710887
1.508616 0.81878579 -0.47725064
1.5085146 0.83035785 -0.47739241
1.5084133 0.84192991 -0.47753417
1.508312 0.85350192 -0.47767594
1.5012023 0.86408609 -0.47561187
1.5081091 0.87664592 -0.47795948
1.5103211 0.88286549 -0.47912484
1.5080078 0.88821793 -0.47810125
1.5079064 0.89978993 -0.47824302
1.5103794 0.90559745 -0.47950667
1.5007989 0.9101609 -0.47617632
1.5006979 0.92167962 -0.47631744
1.5025187 0.93645042 -0.4773244
1.5004961 0.94471699 -0.47659966
1.5024322 0.95362926 -0.47756058
1.5023963 0.96504873 -0.47772622
1.5023603 0.97646821 -0.47789186
1.5000927 0.9907918 -0.47716412
1.4999917 1.0023105 -0.47730526
1.4998908 1.0138291 -0.47744638
1.49979 1.0253478 -0.47758749
1.4996891 1.0368665 -0.47772861
1.4995883 1.0483853 -0.47786972
1.4994874 1.0599039 -0.47801083
1.4993865 1.0714226 -0.47815195
1.4932861 1.0812261 -0.47639161
1.4991846 1.09446 -0.47843418
1.4990838 1.1059787 -0.47857529
1.4929848 1.1156452 -0.47681329
1.4928842 1.1271181 -0.47695383
1.5017159 1.1301003 -0.47885385
1.4986804 1.1520535 -0.47913975
1.4985793 1.1635722 -0.47928086
1.4984784 1.1750908 -0.479422
1.4923818 1.1844831 -0.47765663
1.5016878 1.1872026 -0.47937554
1.4922814 1.195956 -0.47779718
1.4921808 1.2074289 -0.47793773
1.5016766 1.2100434 -0.47958422
1.498075 1.2211657 -0.47998646
1.5033259 1.2227057 -0.47516447
1.5032725 1.234202 -0.47528756
1.4916785 1.2647939 -0.47864053
1.4914775 1.2877399 -0.47892162
1.4843867 1.2961986 -0.4768315
1.4911761 1.3221588 -0.4793433
1.4840865 1.3304577 -0.4772512
1.4839864 1.3418772 -0.47739109
1.4833863 1.4103951 -0.47823051
1.5094134 1.0293828 -0.47157365
1.4964745 1.3940864 -0.47058439
1.515656 0.69179618 -0.4659557
1.5155542 0.7034139 -0.46609804
1.515249 0.73826712 -0.46652502
1.5151472 0.74988484 -0.46666735
1.5159738 0.76504612 -0.46739888
1.5149436 0.77312028 -0.46695203
1.5088325 0.78421074 -0.46525317
1.5087311 0.7957828 -0.46539494
1.5086298 0.80735481 -0.46553671
1.5085282 0.81892681 -0.46567848
1.5084269 0.83049881 -0.46582025
1.5083256 0.84207088 -0.46596202
1.5082242 0.85364288 -0.46610379
1.5081229 0.86521494 -0.46624556
1.5101947 0.89442277 -0.46795082
1.5102237 0.90578872 -0.46814173
1.5102528 0.91715473 -0.46833265
1.5102819 0.92852068 -0.46852359
1.5023975 0.93661582 -0.46590534
1.5004091 0.94485736 -0.46508086
1.502311 0.95379466 -0.46614152
1.5022752 0.96521413 -0.46630716
1.5022392 0.97663367 -0.4664728
1.5000055 0.99093211 -0.46564531
1.4999046 1.0024508 -0.46578646
1.5104859 1.0080825 -0.46985999
1.4998038 1.0139694 -0.46592757
1.4997029 1.0254881 -0.46606869
1.4996018 1.0370069 -0.4662098
1.499501 1.0485256 -0.46635091
1.5055257 1.0478129 -0.46706128
1.4963499 1.0649686 -0.465635
1.5086545 1.0758526 -0.469064
1.5086489 1.0873264 -0.46916881
1.4930987 1.092839 -0.46505904
1.5070729 1.0961481 -0.46828848
1.4929984 1.1043119 -0.46519962
1.4928977 1.1157849 -0.46534017
1.5016129 1.118784 -0.46732953
1.4987948 1.1291565 -0.46733871
1.5056906 1.1429434 -0.46964803
1.4925964 1.1502039 -0.46576184
1.4984922 1.1637125 -0.46776205
1.5015905 1.1644659 -0.46774688
1.4964786 1.1739435 -0.46679914
1.4934276 1.1843228 -0.4659912
1.5015736 1.1987273 -0.4680599
1.4980886 1.2097872 -0.46832654
1.501568 1.2101477 -0.46816424
1.5015624 1.2215682 -0.46826857
1.5015568 1.2329887 -0.46837291
1.5015455 1.2558296 -0.46858159
1.5015399 1.2672501 -0.46868593
1.4914911 1.2764065 -0.46730796
1.4913907 1.2878797 -0.4674485
1.4912901 1.2993526 -0.46758905
1.4971807 1.3134556 -0.46959656
1.4970798 1.3249743 -0.46973768
1.4909887 1.3337716 -0.46801072
1.4833999 1.3991147 -0.46667084
1.4833 1.4105344 -0.46681073
1.5010142 0.87574518 -0.46423417
1.5009134 0.88726389 -0.46437529
1.5008125 0.89878249 -0.4645164
1.5007117 0.91030121 -0.46465752
1.5006108 0.92181993 -0.46479863
1.4931993 1.0813659 -0.46491849
1.4852004 1.1935608 -0.4641526
1.4777083 1.2478576 -0.46267736
1.4846003 1.2620788 -0.46499202
1.5039814 1.3282367 -0.46034423
1.4769118 1.3387883 -0.46379134
1.4768124 1.3501546 -0.46393061
1.5229912 0.64544272 -0.45585534
1.5168337 0.80303973 -0.45714518
1.5169215 0.83729762 -0.45772064
1.5169801 0.86013627 -0.45810425
1.510039 0.89461404 -0.45658588
1.5100681 0.90597999 -0.4567768
1.5101554 0.94007796 -0.45734957
1.5143561 0.95117378 -0.45828038
1.5102136 0.96280992 -0.4577314
1.5021181 0.97679913 -0.45505375
1.5114095 1.0069315 -0.45800409
1.5103884 1.0310057 -0.45887691
1.5054603 1.0364525 -0.4555802
1.5104176 1.0423717 -0.45906782
1.5054545 1.0478734 -0.4556407
1.5054488 1.0592942 -0.4557012
1.5085453 1.0759573 -0.45759076
1.5069885 1.0847834 -0.45675889
1.5015154 1.0960473 -0.4557009
1.5054259 1.1049774 -0.45594323
1.4987075 1.1292968 -0.45581985
1.508517 1.1333265 -0.45811489
1.4986067 1.1408155 -0.45596096
1.5085114 1.1448002 -0.45821971
1.4985058 1.1523342 -0.45610207
1.5085058 1.1562741 -0.45832452
1.498405 1.1638529 -0.45624319
1.5085001 1.1677479 -0.45842937
1.4983041 1.1753716 -0.45638433
1.5014762 1.1759906 -0.45643127
1.4963276 1.1855085 -0.45547885
1.4981022 1.1984091 -0.45666656
1.5014648 1.1988316 -0.45663995
1.4980013 1.2099276 -0.45680767
1.5014592 1.210252 -0.45674428
1.4979005 1.2214463 -0.45694879
1.5014536 1.2216725 -0.45684862
1.4977996 1.232965 -0.4570899
1.5065756 1.2476485 -0.45925748
1.5014368 1.255934 -0.45716164
1.4915047 1.2650735 -0.45569435
1.5014312 1.2673545 -0.45726597
1.4973962 1.2790399 -0.45765436
1.4913039 1.2880194 -0.45597544
1.4912033 1.2994925 -0.45611599
1.4911029 1.3109655 -0.45625657
1.4909019 1.3339114 -0.45653766
1.490701 1.3568573 -0.45681879
1.4965889 1.3711894 -0.4587833
1.4964881 1.3827081 -0.45892441
1.4903994 1.3912764 -0.45724046
1.4962864 1.4057455 -0.45920664
1.5154662 0.70355546 -0.45448017
1.515161 0.73840868 -0.45490715
1.5090489 0.7496357 -0.45325574
1.5089474 0.7612077 -0.45339751
1.508846 0.77277976 -0.45353928
1.5087447 0.78435177 -0.45368105
1.5086434 0.79592377 -0.45382282
1.5085421 0.80749583 -0.45396459
1.5084407 0.81906784 -0.45410636
1.5013306 0.82981074 -0.45215085
1.5012298 0.84132946 -0.45229197
1.5081367 0.85378391 -0.45453167
1.5080354 0.86535591 -0.45467344
1.500927 0.87588549 -0.45271531
1.5008261 0.8874042 -0.45285642
1.5007253 0.89892286 -0.45299754
1.5023482 0.91394234 -0.45415503
1.5023124 0.92536181 -0.45432067
1.5004227 0.93347901 -0.45342088
1.5003219 0.94499767 -0.45356199
1.5002208 0.95651639 -0.45370311
1.5001199 0.9680351 -0.45384422
1.4999182 0.99107248 -0.45412645
1.4998174 1.0025911 -0.45426759
1.4997165 1.0141098 -0.45440871
1.5132393 1.0186646 -0.45485657
1.4996157 1.0256286 -0.45454982
1.4995146 1.0371473 -0.45469093
1.4994137 1.048666 -0.45483205
1.4933136 1.0585598 -0.45316434
1.4932129 1.0700328 -0.45330489
1.4987658 1.0864766 -0.45451072
1.493012 1.0929787 -0.45358598
1.4929116 1.1044518 -0.45372656
1.492811 1.1159247 -0.45386711
1.4846139 1.2507982 -0.45343232
1.4838135 1.3421556 -0.45455152
1.5029814 1.432526 -0.450048
1.5028801 1.444098 -0.45018974
1.5222895 0.71561128 -0.44504207
1.5167066 0.81465125 -0.44591874
1.5167358 0.82607055 -0.44611055
1.5184791 0.90488523 -0.44725662
1.513483 0.94423294 -0.4461714
1.5112348 0.95569432 -0.44598579
1.5100579 0.96300119 -0.44636643
1.5142658 0.97418571 -0.44709006
1.5101745 1.0084652 -0.44713008
1.5102036 1.0198311 -0.44732103
1.5102327 1.0311971 -0.44751194
1.5084417 1.0645883 -0.44601262
1.5136732 1.0878335 -0.44579303
1.5133703 1.1150577 -0.44518846
1.5114129 1.121258 -0.44784316
1.5069587 1.1440653 -0.44662508
1.513083 1.1433672 -0.44603756
1.5083966 1.1563789 -0.44685122
1.5105531 1.1562228 -0.44961202
1.5013674 1.1760949 -0.44501132
1.498116 1.1870307 -0.44500664
1.5013617 1.1875154 -0.44511566
1.4980152 1.1985494 -0.44514775
1.508374 1.2022741 -0.44727054
1.4979143 1.210068 -0.44528887
1.5013505 1.2103562 -0.44532433
1.4978135 1.2215867 -0.44542998
1.4977126 1.2331054 -0.44557109
1.4976115 1.2446241 -0.44571221
1.5083514 1.2481692 -0.44768983
1.4975107 1.2561429 -0.44585332
1.5083458 1.2596431 -0.44779468
1.5044005 1.2705176 -0.44806322
1.497309 1.2791803 -0.44613555
1.5083289 1.2940645 -0.44810915
1.5038936 1.3283777 -0.44877207
1.4906139 1.356997 -0.44534567
1.4965019 1.3713298 -0.44726449
1.4964011 1.3828485 -0.44740561
1.4963002 1.3943671 -0.44754672
1.5031841 1.4093819 -0.44976446
1.5030828 1.420954 -0.4499062
1.522903 0.64558494 -0.44418418
1.5228007 0.65725595 -0.44432718
1.5226984 0.66892701 -0.44447017
1.5225961 0.68059808 -0.44461313
1.5224941 0.69226915 -0.44475612
1.5223918 0.70394021 -0.44489911
1.5151749 0.72693253 -0.443147
1.5150731 0.73855025 -0.44328931
1.5149713 0.75016797 -0.44343165
1.5088599 0.76134872 -0.44182536
1.5147679 0.77340341 -0.44371632
1.5086572 0.78449273 -0.4421089
1.5085559 0.79606479 -0.44225067
1.5084546 0.8076368 -0.44239244
1.508353 0.81920886 -0.44253421
1.5012436 0.82995111 -0.44063205
1.5011425 0.84146976 -0.44077316
1.5010417 0.85298848 -0.44091427
1.5009408 0.8645072 -0.44105539
1.5008399 0.87602586 -0.4411965
1.5007391 0.88754457 -0.44133762
1.5052607 0.89693427 -0.44334984
1.503888 0.9063133 -0.44366202
1.5022272 0.9141078 -0.442736
1.5052035 0.92550194 -0.44377732
1.5003355 0.93361938 -0.44190207
1.5051172 0.9427036 -0.44401389
1.5001338 0.95665669 -0.4421843
1.5000329 0.96817541 -0.44232541
1.4999321 0.97969413 -0.44246653
1.4998312 0.99121284 -0.44260764
1.4997301 1.0027316 -0.44274879
1.5054065 1.0022507 -0.44397816
1.4996293 1.0142502 -0.4428899
1.4995284 1.0257689 -0.44303101
1.4994276 1.0372876 -0.44317213
1.5053892 1.0365131 -0.44415966
1.5131559 1.0414994 -0.44392544
1.4933271 1.0472265 -0.44155064
1.5053835 1.0479338 -0.44422016
1.5131886 1.0528196 -0.44411951
1.4932265 1.0586996 -0.44169122
1.5053778 1.0593545 -0.44428065
1.5132213 1.0641397 -0.44431359
1.499125 1.0718436 -0.44359547
1.505372 1.0707754 -0.44434115
1.513254 1.07546 -0.44450763
1.4990239 1.0833623 -0.44373658
1.5053663 1.0821962 -0.44440165
1.4989231 1.0948811 -0.4438777
1.5033836 1.0948843 -0.44437155
1.5133195 1.0981004 -0.4448958
1.4928246 1.1045915 -0.44225344
1.5014011 1.1075721 -0.44438529
1.4927242 1.1160645 -0.44239399
1.5013955 1.1189926 -0.44448963
1.4926236 1.1275375 -0.44253454
1.5013899 1.1304131 -0.44459397
1.4984188 1.1524746 -0.44458327
1.4983177 1.1639934 -0.44472438
1.5013731 1.1646745 -0.44490698
1.4982169 1.175512 -0.44486552
1.4912169 1.2881593 -0.44450232
1.4911165 1.2996323 -0.44464287
1.4910159 1.3111053 -0.44478345
1.4838271 1.3308752 -0.44299185
1.4837272 1.3422947 -0.44313174
1.5235177 0.79130679 -0.43609601
1.5214906 0.81510234 -0.43591148
1.5166378 0.84910136 -0.43507594
1.5214508 0.89611232 -0.43665159
1.5099022 0.96319252 -0.43500146
1.5183786 0.96254534 -0.43604216
1.5099314 0.97455847 -0.43519238
1.516989 0.98613298 -0.43737769
1.5099896 0.99729049 -0.4355742
1.5159048 0.99533802 -0.43935913
1.5147718 1.0079645 -0.43720257
1.5171467 1.0232322 -0.43808374
1.5171059 1.0318103 -0.43814495
1.5177367 1.0432069 -0.43740305
1.5112292 1.0528637 -0.43566862
1.5147555 1.0645747 -0.43679479
1.5147673 1.0760214 -0.43692112
1.5102227 1.0882183 -0.43710154
1.5102518 1.0995843 -0.43729249
1.5112993 1.1213841 -0.43642372
1.5082986 1.1335361 -0.4351683
1.5068605 1.1441882 -0.43510234
1.5082705 1.1909051 -0.4356924
1.5082648 1.2023789 -0.43579724
1.5134833 1.2058138 -0.43542176
1.5082592 1.2138526 -0.43590206
1.510543 1.2132441 -0.43920165
1.504617 1.2359426 -0.43606576
1.5082253 1.2826955 -0.43653101
1.5040088 1.3053747 -0.43691638
1.4969192 1.3138766 -0.43504012
1.4968181 1.3253953 -0.43518123
1.4964147 1.3714701 -0.43574572
1.5032995 1.3863789 -0.43790877
1.5031979 1.3979509 -0.43805054
1.5030966 1.409523 -0.43819231
1.5027926 1.444239 -0.43861762
1.5226102 0.66906923 -0.43279895
1.5225079 0.6807403 -0.43294191
1.5224056 0.69241136 -0.43308491
1.5223033 0.70408243 -0.4332279
1.5151887 0.71545637 -0.4313868
1.5150869 0.72707403 -0.43152913
1.5149851 0.73869181 -0.43167144
1.5226619 0.75382781 -0.43465883
1.5147817 0.76192725 -0.43195611
1.508671 0.77306175 -0.43039498
1.5085697 0.78463376 -0.43053675
1.5084684 0.79620576 -0.43067852
1.5083671 0.80777782 -0.43082029
1.5165501 0.81484342 -0.43450049
1.5082655 0.81934983 -0.43096206
1.5165793 0.82626271 -0.43469229
1.5080628 0.84249389 -0.4312456
1.5097276 0.89499664 -0.43385595
1.5097567 0.90636259 -0.43404686
1.5051179 0.91422546 -0.43216944
1.50207 0.92569268 -0.43148261
1.5002482 0.93375969 -0.43038329
1.5084974 0.9435513 -0.43357056
1.5049598 0.95431179 -0.43273804
1.4999456 0.96831578 -0.43080664
1.4998448 0.97983444 -0.43094775
1.4997439 0.99135315 -0.43108886
1.4996428 1.0028719 -0.43123001
1.499542 1.0143906 -0.43137112
1.4994411 1.0259092 -0.43151224
1.4993403 1.0374279 -0.43165335
1.4932404 1.0473664 -0.43007752
1.4991386 1.0604653 -0.43193558
1.4990377 1.0719841 -0.43207669
1.4989367 1.0835028 -0.43221781
1.5052952 1.0822567 -0.43298104
1.5052894 1.0936775 -0.43304154
1.4988358 1.0950214 -0.43235892
1.498735 1.1065401 -0.43250003
1.5012923 1.1076763 -0.43296531
1.5142504 1.1062741 -0.4339107
1.4926374 1.1162043 -0.43092087
1.5012867 1.1190968 -0.43306965
1.5132216 1.1152523 -0.43386918
1.4925368 1.1276772 -0.43106142
1.5132689 1.1322554 -0.43415874
1.5133016 1.1435755 -0.43435282
1.4983315 1.1526148 -0.43306449
1.5012699 1.1533582 -0.43338266
1.51298 1.1548886 -0.43481639
1.4932412 1.1618482 -0.43148717
1.5133669 1.166216 -0.43474093
1.4981296 1.1756523 -0.43334675
1.5012587 1.1761992 -0.43359134
1.5133996 1.1775362 -0.434935
1.4980288 1.187171 -0.43348786
1.4979279 1.1986897 -0.43362898
1.4978271 1.2102083 -0.43377009
1.4977262 1.221727 -0.4339112
1.5012362 1.2218812 -0.43400869
1.4975243 1.2447643 -0.43419343
1.4974234 1.256283 -0.43433455
1.4973226 1.2678018 -0.43447566
1.4912305 1.276826 -0.43288866
1.4926578 1.2874688 -0.43283141
1.4881651 1.2947326 -0.43102181
1.4907281 1.3341911 -0.43359143
1.4836407 1.3424339 -0.43171197
1.5253839 0.79238939 -0.42520165
1.5253956 0.80393493 -0.42535108
1.5254076 0.81548053 -0.42550051
1.5011563 0.83009148 -0.42911327
1.5009544 0.85312885 -0.4293955
1.5008535 0.86464751 -0.42953661
1.5224473 0.86091757 -0.42527136
1.5006518 0.88768494 -0.42981884
1.500551 0.8992036 -0.42995995
1.5227324 0.91810894 -0.42663977
1.5215638 0.92678297 -0.42859608
1.5227612 0.94485968 -0.42694917
1.5213121 0.95408225 -0.42560792
1.5215051 0.97464567 -0.42760378
1.515763 0.99553573 -0.42808557
1.5163453 1.007987 -0.42731291
1.5158356 1.0180845 -0.42848
1.5169203 1.0205832 -0.42653486
1.5169495 1.0320024 -0.42672667
1.5176227 1.0433335 -0.42593408
1.5150681 1.0528055 -0.42650548
1.5150881 1.0641948 -0.42665544
1.515108 1.0755841 -0.42680538
1.512785 1.0867437 -0.42630562
1.5100961 1.0997756 -0.42592755
1.5101253 1.1111416 -0.42611846
1.512182 1.1236084 -0.4257814
1.517213 1.1347761 -0.428453
1.5172422 1.1461954 -0.42864481
1.5147357 1.156275 -0.42635912
1.5112324 1.1671903 -0.42550769
1.5029078 1.4212359 -0.4267619
1.5028064 1.4328079 -0.42690369
1.4957223 1.4407227 -0.42507356
1.5026035 1.4559519 -0.4271872
1.5025022 1.4675241 -0.42732897
1.5301521 0.59894961 -0.42219409
1.5299466 0.62239838 -0.42248136
1.5228283 0.63419825 -0.42069882
1.5297413 0.64584714 -0.42276862
1.5296385 0.65757155 -0.42291227
1.5225217 0.66921145 -0.4211278
1.5224195 0.68088251 -0.42127076
1.5222151 0.70422465 -0.42155674
1.5221128 0.71589565 -0.4216997
1.5256079 0.72467953 -0.42347848
1.5219085 0.73923779 -0.42198569
1.5218062 0.75090885 -0.42212865
1.5164814 0.84929353 -0.42365766
1.5213634 0.84992659 -0.42465633
1.5042119 0.87675858 -0.42488825
1.5165691 0.88355148 -0.42423308
1.5165985 0.89497077 -0.42442492
1.5166277 0.90639007 -0.42461672
1.516657 0.91780937 -0.42480853
1.5096592 0.92928588 -0.42306378
1.5143061 0.92887735 -0.4234643
1.5083758 0.94371748 -0.42210203
1.5097175 0.95201784 -0.42344561
1.5183126 0.95108658 -0.42446148
1.5097466 0.96338379 -0.42363653
1.5097758 0.9747498 -0.42382744
1.518301 0.97412622 -0.42458355
1.5098048 0.98611575 -0.42401835
1.5098339 0.99748176 -0.42420927
1.499253 1.0375683 -0.42013451
1.4991522 1.049087 -0.42027563
1.4990513 1.0606056 -0.42041674
1.4989505 1.0721244 -0.42055786
1.4988496 1.0836431 -0.42069897
1.4987488 1.0951617 -0.42084008
1.4986479 1.1066804 -0.4209812
1.5082008 1.1106932 -0.42348534
1.5081894 1.1336408 -0.423695
1.5032535 1.1427748 -0.42260891
1.4961944 1.151546 -0.42078322
1.4981434 1.164274 -0.42168677
1.5011557 1.1648831 -0.42206708
1.5066016 1.1788797 -0.42394954
1.5030396 1.1887598 -0.42310113
1.4978406 1.1988301 -0.42211014
1.5011388 1.1991444 -0.42238009
1.5133345 1.2060082 -0.42410249
1.4977398 1.2103486 -0.42225125
1.5011332 1.2105649 -0.42248443
1.5063875 1.2249714 -0.42444271
1.5163834 1.2324959 -0.42095363
1.5063339 1.2364943 -0.42456603
1.4974372 1.2449048 -0.4226746
1.4973364 1.2564235 -0.42281571
1.4972355 1.2679422 -0.42295682
1.4911437 1.2769659 -0.42141557
1.5010996 1.2790878 -0.42311046
1.4910433 1.2884388 -0.42155612
1.5010939 1.2905083 -0.42321479
1.5025048 1.3037223 -0.42433167
1.4908423 1.3113849 -0.42183724
1.4907417 1.3228579 -0.42197779
1.4966302 1.3370544 -0.42380351
1.4905407 1.3458037 -0.42225891
1.4904404 1.3572767 -0.42239946
1.4963274 1.3716104 -0.42422688
1.4902394 1.3802228 -0.42268056
1.4961257 1.3946478 -0.42450911
1.4960248 1.4061666 -0.42465022
1.5153041 0.69236243 -0.41948429
1.5086846 0.76163071 -0.41868106
1.5085833 0.77320278 -0.41882282
1.508482 0.78477478 -0.41896459
1.5083807 0.79634678 -0.41910636
1.5082793 0.80791879 -0.41924813
1.5281481 0.81472462 -0.41612783
1.508178 0.81949085 -0.4193899
1.528164 0.82630992 -0.41622615
1.5080767 0.83106285 -0.41953167
1.5079753 0.84263492 -0.41967344
1.5008674 0.85326922 -0.41787666
1.527244 0.85457933 -0.41621184
1.5007665 0.86478788 -0.41801777
1.5272595 0.86607146 -0.41636431
1.5005646 0.88782525 -0.4183
1.5003629 0.91086262 -0.41858223
1.500262 0.92238134 -0.41872334
1.5001612 0.93390006 -0.41886446
1.5213356 0.93467188 -0.4156495
1.5246578 0.94558525 -0.41599798
1.4999592 0.95693743 -0.41914669
1.5246624 0.96481973 -0.4161756
1.4998584 0.96845615 -0.4192878
1.4997575 0.97997481 -0.41942891
1.5226659 0.97567421 -0.41576007
1.5213943 0.9862442 -0.41630989
1.4996567 0.99149352 -0.41957003
1.5216401 0.99490207 -0.41846496
1.4995558 1.0030122 -0.41971117
1.5222059 1.0054582 -0.41664529
1.499455 1.0145309 -0.41985229
1.5214431 1.0147972 -0.41671264
1.5167639 1.0207753 -0.41511661
1.4993541 1.0260496 -0.4199934
1.5214586 1.0262437 -0.41686451
1.5231863 1.0352454 -0.41502327
1.5163271 1.0535693 -0.41674507
1.5211394 1.0814892 -0.41519868
1.5211337 1.093062 -0.41530442
1.5159478 1.097203 -0.41858697
1.5159842 1.1084775 -0.41878417
1.4925504 1.1163441 -0.41944778
1.5157081 1.1150588 -0.41642058
1.5170273 1.1235491 -0.41684291
1.49245 1.127817 -0.41958833
1.5211166 1.1277807 -0.41562161
1.5155756 1.1356511 -0.41543722
1.5141054 1.1445585 -0.41522256
1.5166223 1.155691 -0.41849571
1.5131404 1.1665062 -0.41773921
1.5156227 1.1815288 -0.4160313
1.5172321 1.2034842 -0.41818562
1.5172614 1.2149035 -0.41837743
1.5140096 1.3091266 -0.41541833
1.5140039 1.320646 -0.41552359
1.5029213 1.4098049 -0.41504806
1.50282 1.4213769 -0.41518983
1.5027187 1.4329491 -0.41533157
1.5026174 1.444521 -0.41547337
1.502516 1.4560931 -0.41561511
1.508399 1.470892 -0.41740251
1.5300632 0.59909248 -0.41046959
1.5299604 0.61081684 -0.41061321
1.5298579 0.62254125 -0.41075686
1.5297551 0.63426566 -0.41090047
1.5296524 0.64599001 -0.41104412
1.5295498 0.65771443 -0.41118777
1.5220246 0.71603787 -0.41002849
1.5289335 0.72806072 -0.41204956
1.528831 0.73978508 -0.41219321
1.5291656 0.76805955 -0.41437089
1.5291951 0.77957791 -0.41456437
1.5282606 0.79224062 -0.41445935
1.5232328 0.80316567 -0.41334555
1.5252974 0.83872133 -0.41425455
1.5233505 0.84905612 -0.41411638
1.5163543 0.86090505 -0.41243121
1.5253329 0.87335813 -0.41470286
1.5164127 0.88374364 -0.41281483
1.50494 0.89736164 -0.4147836
1.5094453 0.9067452 -0.41131699
1.5165006 0.91800159 -0.41339028
1.521219 0.91946936 -0.41371846
1.5165298 0.92942089 -0.41358209
1.5095327 0.94084316 -0.41188976
1.5035388 0.95216596 -0.41046488
1.5095909 0.96357512 -0.41227159
1.5096201 0.97494107 -0.4124625
1.5096492 0.98630708 -0.41265342
1.5167054 0.99793673 -0.41473296
1.5063674 1.0163562 -0.41022789
1.5097656 1.0317709 -0.4134171
1.514925 1.0415665 -0.41496697
1.5121745 1.0632029 -0.41192141
1.509853 1.065869 -0.41398984
1.5098822 1.077235 -0.41418076
1.5181773 1.0778657 -0.41361317
1.5099113 1.0886009 -0.41437167
1.5181715 1.0893856 -0.41367418
1.5099404 1.0999669 -0.41456261
1.5051358 1.1166401 -0.41032144
1.5054553 1.1205044 -0.41150382
1.5052526 1.1436484 -0.41178736
1.5051513 1.1552205 -0.41192913
1.5065565 1.1674796 -0.41230354
1.5049484 1.1783645 -0.41221267
1.5029414 1.1888824 -0.41160512
1.5010301 1.1992487 -0.41096011
1.5047457 1.2015085 -0.41249621
1.4976528 1.210489 -0.41073242
1.5080408 1.2140622 -0.41295546
1.5045431 1.2246525 -0.41277975
1.5140493 1.2284899 -0.41468164
1.5062356 1.2366172 -0.41304332
1.5026741 1.2463636 -0.41222036
1.4972491 1.2565639 -0.41129687
1.5010021 1.256351 -0.4114818
1.5041378 1.2709407 -0.41334683
1.5060215 1.2827089 -0.41353649
1.5059681 1.2942317 -0.41365981
1.5038335 1.3056567 -0.41377214
1.4967449 1.3141572 -0.41200244
1.4906549 1.3229976 -0.41050467
1.5009683 1.3248739 -0.41210783
1.5035295 1.3403728 -0.41419744
1.5034282 1.3519448 -0.41433921
1.5033269 1.3635168 -0.41448098
1.5032256 1.3750889 -0.41462275
1.4901526 1.3803625 -0.41120744
1.4960387 1.3947881 -0.41299027
1.5224335 0.66935366 -0.40945658
1.5223312 0.68102473 -0.40959954
1.5152164 0.69250399 -0.40786645
1.5151145 0.70412171 -0.40800878
1.5147076 0.75059265 -0.4085781
1.5146058 0.76221037 -0.40872043
1.5084958 0.77334374 -0.40725073
1.5083945 0.7849158 -0.4073925
1.5082932 0.79648781 -0.40753427
1.5081918 0.80805981 -0.40767604
1.5080903 0.81963181 -0.40781781
1.5139952 0.83191675 -0.40957442
1.5078876 0.84277588 -0.40810135
1.5007801 0.85340953 -0.40635782
1.5006793 0.86492825 -0.40649894
1.5075836 0.87749195 -0.40852666
1.5074823 0.88906395 -0.40866843
1.5003767 0.89948428 -0.40692228
1.5002759 0.91100299 -0.40706339
1.5001748 0.92252171 -0.40720451
1.5000739 0.93404043 -0.40734562
1.5259699 0.94478971 -0.4053556
1.4999731 0.94555914 -0.40748674
1.5068741 0.95849609 -0.40951905
1.5213883 0.96114022 -0.4065516
1.4997714 0.96859646 -0.40776896
1.5242597 0.97592413 -0.40549541
1.4996705 0.98011518 -0.40791008
1.5263205 0.98598301 -0.40600336
1.4995697 0.99163389 -0.40805119
1.5242932 0.99305356 -0.40574652
1.4994686 1.0031526 -0.40819234
1.5243087 1.0045229 -0.40589857
1.5243239 1.0159922 -0.40605068
1.4992669 1.0261899 -0.40847456
1.5243644 1.0250108 -0.40539435
1.499166 1.0377086 -0.40861568
1.5241323 1.0445881 -0.40624556
1.4990652 1.0492274 -0.40875679
1.5051701 1.0481153 -0.40995842
1.5216799 1.0517011 -0.40813577
1.4989643 1.0607461 -0.40889791
1.5243855 1.0618696 -0.40665901
1.4988635 1.0722648 -0.40903902
1.4987624 1.0837834 -0.40918013
1.5214093 1.0836282 -0.40617812
1.52222 1.0934414 -0.40645054
1.4986615 1.0953021 -0.40932125
1.4985607 1.1068208 -0.40946236
1.4982395 1.1269661 -0.40911117
1.5165058 1.1672328 -0.40734434
1.5135307 1.2256918 -0.40514708
1.5209496 1.2436148 -0.40510657
1.5163143 1.3580883 -0.40622139
1.5084126 1.4594157 -0.40564233
1.5369906 0.59900117 -0.40056267
1.5368874 0.61077887 -0.40070695
1.5289476 0.71647918 -0.40018144
1.5287423 0.73992795 -0.40046871
1.5289783 0.75673509 -0.40266013
1.5290079 0.76825345 -0.40285361
1.5290374 0.77977175 -0.40304708
1.5230463 0.79188609 -0.40168124
1.5290965 0.8028084 -0.40343404
1.5291259 0.81432676 -0.40362751
1.5281622 0.82709593 -0.40334111
1.5291849 0.83736348 -0.40401447
1.5292145 0.84888178 -0.40420794
1.5292441 0.86040014 -0.40440142
1.5292735 0.8719185 -0.4045949
1.5252159 0.88213944 -0.40499383
1.5162857 0.89535517 -0.40158841
1.5233697 0.91808504 -0.40380105
1.5252612 0.92542642 -0.40385211
1.5271175 0.93291372 -0.40381658
1.5252819 0.95432687 -0.40420401
1.5164613 0.963871 -0.40273929
1.5094644 0.97513241 -0.40109757
1.5094935 0.98649836 -0.40128848
1.5122793 1.017942 -0.40023381
1.5252894 1.0352155 -0.40473261
1.5120757 1.0411775 -0.40051848
1.5135927 1.05327 -0.40177378
1.5118723 1.064413 -0.40080312
1.5117705 1.0760306 -0.40094545
1.5186653 1.089654 -0.40293279
1.5115669 1.0992662 -0.4012301
1.5114653 1.1108838 -0.40137243
1.5113635 1.1225016 -0.40151477
1.5112617 1.1341193 -0.4016571
1.5146153 1.1463914 -0.40212956
1.5155174 1.1569231 -0.4046905
1.5179496 1.1713514 -0.40393367
1.5209837 1.1741776 -0.4044722
1.5159049 1.1827698 -0.40340912
1.5079429 1.1912193 -0.40127254
1.5107529 1.1922079 -0.40236875
1.5046582 1.2016495 -0.40092406
1.5139509 1.2055562 -0.40295213
1.5079316 1.2141669 -0.40148219
1.5105495 1.2154434 -0.4026534
1.504354 1.2363656 -0.40134937
1.5155811 1.2523415 -0.40415382
1.5120325 1.2625341 -0.40335053
1.5119789 1.2741027 -0.40347433
1.509939 1.2851498 -0.40350738
1.5098372 1.2967675 -0.40364972
1.5097353 1.3083853 -0.40379202
1.5138999 1.3092318 -0.40389931
1.5036447 1.3173697 -0.40234175
1.5138942 1.3207513 -0.40400457
1.5057093 1.3289235 -0.40250701
1.5094302 1.3432385 -0.40421903
1.5032392 1.363658 -0.40290883
1.5031378 1.3752298 -0.4030506
1.5030365 1.386802 -0.40319237
1.5058776 1.4056365 -0.4042033
1.5027325 1.421518 -0.40361765
1.5026312 1.43309 -0.40375945
1.5025299 1.4446621 -0.40390119
1.5297692 0.62268412 -0.39903235
1.5226517 0.63448268 -0.39735645
1.5295637 0.64613289 -0.39931962
1.5294611 0.65785724 -0.39946327
1.5223451 0.66949588 -0.39778543
1.5222428 0.68116695 -0.39792839
1.5151284 0.69264555 -0.39624858
1.5220385 0.70450902 -0.39821437
1.5146196 0.75073421 -0.39696023
1.5145178 0.76235193 -0.39710256
1.521425 0.77453542 -0.39907226
1.5142126 0.79720515 -0.39752954
1.5141108 0.80882287 -0.39767188
1.514009 0.82044059 -0.39781421
1.5138056 0.84367609 -0.39809886
1.5076988 0.85448891 -0.39667097
1.5075974 0.86606097 -0.39681274
1.5074959 0.87763298 -0.39695451
1.5073946 0.88920498 -0.39709628
1.5082915 0.90385675 -0.39859504
1.5071919 0.91234899 -0.39737982
1.5070906 0.92392105 -0.39752159
1.5069892 0.93549305 -0.39766335
1.5068879 0.94706511 -0.39780512
1.5127881 0.95985335 -0.39952216
1.5126863 0.97147107 -0.39966449
1.5125844 0.98308885 -0.39980683
1.5064824 0.99335313 -0.3983722
1.506381 1.0049253 -0.39851397
1.5061784 1.0280693 -0.39879751
1.5274829 1.0285668 -0.39798445
1.5275195 1.0399326 -0.39818326
1.5158169 1.4049147 -0.39512211
1.5155103 1.4399278 -0.39555109
1.5354574 0.76403266 -0.39080486
1.5350447 0.81114352 -0.39138201
1.5277293 0.84559029 -0.39003694
1.5291452 0.88363069 -0.39327109
1.5273187 0.89248782 -0.39061147
1.5292042 0.90666735 -0.39365804
1.5268052 0.95110977 -0.39132965
1.5207996 1.3247304 -0.39427435
1.5161235 1.3699015 -0.39469317
1.509037 1.3782332 -0.39302814
1.502949 1.3869429 -0.39162022
1.5087316 1.4130864 -0.39345512
1.50863 1.4247041 -0.39359745
1.5084264 1.4479396 -0.39388213
1.5083246 1.4595573 -0.39402446
1.5295777 0.63455135 -0.38745147
1.5363858 0.65803325 -0.38950625
1.5362825 0.66981095 -0.38965055
1.5289617 0.70489764 -0.38831329
1.5286536 0.74007082 -0.38874421
1.5285509 0.75179517 -0.38888785
1.5279348 0.82214153 -0.38974965
1.5083387 1.4480813 -0.38226429
1.5152175 1.4634122 -0.38416585
