# .PCD v0.7 - Point Cloud Data file format
VERSION 0.7
FIELDS x y z
SIZE 4 4 4
TYPE F F F
COUNT 1 1 1
WIDTH 295
HEIGHT 1
VIEWPOINT 0 0 0 1 0 0 0
POINTS 295
DATA ascii
1.6145346 0.61278725 -0.087029539
1.6141007 0.66233587 -0.08763656
1.6139922 0.67472309 -0.087788321
1.6154768 0.7025249 -0.083561383
1.6155081 0.71473646 -0.083766505
1.6155394 0.72694802 -0.083971627
1.6140068 0.66248685 -0.07524927
1.6138983 0.67487401 -0.075401023
1.6132474 0.74919701 -0.076311558
1.6145492 0.60055101 -0.074490488
1.6144407 0.61293817 -0.074642241
1.6143322 0.62532532 -0.074794002
1.6142237 0.63771248 -0.074945755
1.6154034 0.7393651 -0.07196629
1.6154348 0.75157666 -0.072171412
1.6182706 0.75560439 -0.068141945
1.6147859 0.76720983 -0.068168521
1.6224606 0.60045582 -0.06241297
1.6223516 0.61290395 -0.062565476
1.6222425 0.62535208 -0.062717974
1.6221335 0.63780016 -0.06287048
1.6140215 0.65025061 -0.062710218
1.6152049 0.72735906 -0.05955071
1.6152362 0.73957062 -0.059755832
1.6193123 0.74532795 -0.055282686
1.6181357 0.75576675 -0.055926748
1.6181521 0.76798272 -0.056088932
1.6194291 0.7816422 -0.05591793
1.6161834 0.89004612 -0.059459843
1.6162667 0.9018755 -0.059708424
1.615054 0.92383385 -0.058928311
1.6150478 0.93610799 -0.058993332
1.6150416 0.94838208 -0.059058353
1.6150355 0.96065617 -0.059123367
1.6150293 0.97293031 -0.059188388
1.6150171 0.99747849 -0.059318431
1.6221483 0.62550372 -0.050269738
1.6220393 0.63795185 -0.050422244
1.6139278 0.65040153 -0.050322913
1.6239021 0.70397443 -0.04544007
1.6239147 0.71630466 -0.045599729
1.6150376 0.72756457 -0.047340252
1.6220267 0.82810169 -0.046323374
1.6220205 0.84042913 -0.046388678
1.6160452 0.89029568 -0.047630906
1.6161286 0.90212506 -0.047879487
1.6149837 0.91162467 -0.046589412
1.6149776 0.92389882 -0.046654433
1.6149714 0.93617296 -0.046719454
1.6158297 0.98510039 -0.048299551
1.6248162 0.73077291 -0.043993656
1.6248101 0.74316096 -0.044106834
1.618001 0.75592923 -0.043711551
1.6167967 0.76654053 -0.044145137
1.6292756 0.60054517 -0.03768089
1.6221631 0.61320734 -0.037668988
1.6140509 0.62577814 -0.037632111
1.6139424 0.6381653 -0.037783869
1.6138339 0.65055245 -0.037935622
1.6137254 0.66293967 -0.038087379
1.6228703 0.72670364 -0.035253733
1.621387 0.85153753 -0.035867341
1.62272 0.8636269 -0.035427943
1.6148517 0.87492919 -0.036494073
1.6159071 0.89054519 -0.035801958
1.6149733 0.90517008 -0.03673508
1.6160738 0.91420406 -0.036299121
1.6167413 1.0088398 -0.038287781
1.6272589 0.70361435 -0.033163954
1.6237718 0.71646452 -0.033270285
1.6238 0.73493111 -0.033533022
1.6166916 0.74199885 -0.031593349
1.6158092 0.75325966 -0.033623002
1.6166794 0.76665306 -0.031818591
1.6191635 0.79417145 -0.031921983
1.6219437 0.84049439 -0.034061477
1.6219066 0.91445911 -0.034453288
1.6169018 1.1458676 -0.033827484
1.6178547 1.1865315 -0.030187566
1.6291811 0.60069752 -0.025179319
1.6290717 0.61319894 -0.025332477
1.6139572 0.62592906 -0.025244813
1.6208841 0.87490332 -0.025270142
1.6161861 0.94994211 -0.025215924
1.6166033 1.0090895 -0.026458835
1.6166867 1.0209188 -0.026707416
1.6168536 1.0445778 -0.027204581
1.6170204 1.0682368 -0.027701743
1.6171038 1.0800662 -0.027950328
1.6171873 1.0918957 -0.028198909
1.6172707 1.1037252 -0.02844749
1.6173542 1.1155547 -0.028696075
1.6174376 1.1273842 -0.028944656
1.617521 1.1392137 -0.029193237
1.6174107 1.1543968 -0.025962185
1.6176878 1.1628726 -0.029690402
1.622287 0.58846277 -0.024915745
1.6296067 0.68900031 -0.022416344
1.6296383 0.70132619 -0.022623384
1.6226709 0.71463764 -0.022776196
1.6227337 0.73918271 -0.023188487
1.629916 0.74425232 -0.021303795
1.6299098 0.75664067 -0.02136942
1.6299036 0.76902914 -0.021435047
1.6298974 0.78141749 -0.021500671
1.6213274 0.82691258 -0.023479696
1.6253414 0.84130037 -0.023572512
1.6192062 0.85490739 -0.020876868
1.6253464 0.85299802 -0.023587357
1.6192451 0.86701214 -0.021088617
1.6253562 0.86535603 -0.023617633
1.625845 0.88519704 -0.022010576
1.6218359 0.90219694 -0.02206078
1.6218299 0.91452438 -0.02212608
1.6218237 0.92685181 -0.022191385
1.6185678 1.1925719 -0.023292743
1.6190182 1.204179 -0.023562811
1.6326114 0.66996896 -0.01871448
1.6326053 0.68241799 -0.018828215
1.6325992 0.69486696 -0.01894195
1.632593 0.70731598 -0.019055685
1.6235731 0.73519421 -0.015067876
1.6245744 0.74338722 -0.019331843
1.6165682 0.75443852 -0.01937942
1.6165621 0.76676559 -0.019492041
1.6172994 1.1276337 -0.017115712
1.6186084 1.2132509 -0.015536836
1.6188753 1.2249693 -0.01579616
1.6180503 1.234099 -0.01935295
1.6375296 0.5503571 -0.012128135
1.6374197 0.5629195 -0.012282038
1.6293054 0.57584691 -0.012371439
1.6221929 0.58861446 -0.012467502
1.6220837 0.60106254 -0.012620004
1.6289771 0.61335123 -0.012830907
1.6218657 0.6259588 -0.012925008
1.6294379 0.68920779 -0.010091627
1.6294695 0.70153362 -0.010298667
1.6225028 0.71484423 -0.010504797
1.6225342 0.7271167 -0.010710943
1.6287351 0.80487043 -0.013037481
1.6287608 0.81725901 -0.013032384
1.620778 0.82558787 -0.012962812
1.6288122 0.84203607 -0.013022189
1.6208546 0.8625707 -0.012947595
1.6208802 0.87489825 -0.012942523
1.6209058 0.88722587 -0.012937451
1.6231129 0.95919067 -0.013661042
1.6217159 0.9885543 -0.01019069
1.6178493 1.1840107 -0.014883157
1.6184325 1.1928474 -0.011677753
1.6349485 0.67282814 -0.0080742966
1.6351781 0.68345761 -0.007498336
1.6351719 0.69590682 -0.0075881779
1.6244749 0.70633614 -0.0066048158
1.6324685 0.71987867 -0.0067209778
1.6244626 0.73111224 -0.0068311719
1.6271477 0.74390912 -0.0079299947
1.6164509 0.75455105 -0.0070528723
1.6298326 0.75670624 -0.0089812633
1.6298264 0.76909471 -0.0090468898
1.6298202 0.78148305 -0.0091125155
1.6164206 0.81618661 -0.0076159798
1.6217902 0.84062493 -0.0094070546
1.621784 0.85295236 -0.009472358
1.619054 0.85511965 -0.0087730177
1.6190928 0.8672244 -0.0089847669
1.6253138 0.86538374 -0.0050959364
1.6253363 0.88390553 -0.0051236772
1.6297643 0.89297867 -0.0097031472
1.629758 0.90536708 -0.0097687729
1.6217531 0.91458964 -0.0097988723
1.6220984 0.5887661 -1.9256957e-05
1.6289918 0.60100216 -0.00017617736
1.6218805 0.61366236 -0.00032426137
1.6292598 0.79317415 -0.0049160742
1.62527 0.804254 -0.0049300287
1.6252799 0.81661201 -0.0049601314
1.6208766 0.87489319 -0.00061490579
1.6228904 0.94755846 -0.0015290752
1.6229742 0.9594413 -0.0017787814
1.6187475 1.20473 -0.00033282302
1.6187384 1.2252316 -0.0040741889
1.6200986 1.2395515 -0.0011430178
1.6222074 0.57631803 0.00013324525
1.6371074 0.62623501 0.0033353558
1.6371392 0.63862175 0.0031272909
1.6372026 0.66339535 0.002711161
1.6292374 0.67708933 0.0024401313
1.6358086 0.68508792 0.0040653036
1.6350739 0.69599664 0.0048605972
1.6293006 0.7017411 0.0020260504
1.6350677 0.70844579 0.0047707553
1.6260543 0.71732867 0.0026851858
1.622366 0.72732329 0.0015604533
1.6233711 0.73541057 0.0034553162
1.6297493 0.76916027 0.0033412683
1.6217443 0.77905297 0.0032466669
1.6217381 0.79138047 0.0031813635
1.6217319 0.8037079 0.003116061
1.6217258 0.81603533 0.0030507576
1.6217196 0.82836276 0.0029854551
1.6291134 0.83725083 0.00075729005
1.629712 0.8434906 0.0029475144
1.6219635 0.85275686 0.0016616969
1.6220024 0.86486202 0.001504194
1.6216948 0.87767255 0.0027242433
1.6216886 0.89000005 0.0026589409
1.6216824 0.90232748 0.0025936374
1.6216763 0.91465491 0.002528335
1.6216453 0.97629207 0.0022018207
1.6216391 0.98861957 0.0021365182
1.6248468 1.2448791 0.0041106204
1.6249306 1.2567618 0.0038609179
1.6393801 0.65849125 0.0063492944
1.6393739 0.67099357 0.0062350715
1.63235 0.71999228 0.0057274634
1.6243386 0.74361348 0.0054431446
1.6243325 0.75600153 0.0053299665
1.6244278 1.1854651 0.0053591328
1.6201131 1.2792104 0.0080235116
1.6222149 1.297863 0.0091216508
1.6291161 0.57615161 0.012631705
1.6290066 0.58865303 0.012478549
1.6368995 0.60091281 0.012381289
1.6367893 0.6134752 0.012227386
1.6286781 0.62615734 0.012019083
1.6215682 0.63871026 0.011818978
1.6221665 0.71525729 0.014037997
1.6221979 0.72752982 0.01383185
1.6366584 0.77144939 0.011781674
1.62518 0.78510463 0.013670504
1.6367358 0.80879796 0.011797041
1.6367617 0.82124746 0.011802163
1.6289741 0.83750266 0.012692869
1.6222488 0.87651241 0.0118514
1.6223326 0.88839519 0.011601694
1.6224164 0.90027797 0.011351995
1.6225002 0.91216081 0.011102289
1.6215935 0.92704761 0.014790239
1.6215687 0.97635734 0.014529029
1.6215625 0.98868483 0.014463725
1.6263939 1.2250121 0.010838278
1.6268463 1.2366726 0.010566976
1.6369377 0.62644351 0.015721012
1.6369696 0.63883024 0.015512947
1.6392549 0.67110777 0.018736839
1.6380199 0.68550092 0.01652821
1.6392426 0.69611239 0.018508397
1.6380221 0.70626432 0.01633874
1.6349635 0.7209847 0.017129688
1.6376892 0.73431283 0.016017523
1.6267266 0.73513228 0.015836731
1.6349511 0.74588305 0.016950004
1.6242146 0.7561146 0.017717458
1.6376767 0.75921154 0.015885627
1.6269404 0.76886427 0.016666852
1.6296598 0.79400271 0.015598174
1.6296535 0.80639106 0.015532548
1.6296473 0.81877947 0.015466923
1.6376393 0.8339076 0.015489934
1.6216367 0.84075546 0.01524736
1.6187494 0.85554409 0.015434681
1.6216244 0.86541045 0.015116753
1.6240376 1.1500673 0.017990502
1.6241214 1.1619501 0.017740799
1.6242052 1.1738329 0.017491097
1.6446958 0.61344832 0.024906
1.6444745 0.638695 0.024596702
1.6283646 0.65131253 0.024214342
1.6212559 0.66375816 0.023962218
1.6248684 0.72640318 0.024730554
1.6248298 0.73879015 0.024550783
1.6287496 0.81724375 0.024133328
1.6290873 0.87356269 0.023875978
1.6221938 0.88864583 0.023483954
1.6223614 0.91241145 0.022984551
1.6224452 0.92429423 0.022734849
1.622529 0.93617702 0.022485146
1.6226128 0.9480598 0.022235448
1.6226966 0.95994264 0.021985741
1.6261349 0.97585976 0.024368994
1.6298449 0.98098785 0.021618571
1.6229481 0.99559104 0.021236634
1.6370244 0.57594115 0.025251612
1.6448061 0.60082501 0.02506065
1.6218097 0.64182878 0.027546262
1.6289946 0.71448183 0.026468443
1.6220927 0.75228143 0.025690956
1.6375867 0.78417611 0.028202837
1.6186359 0.86786103 0.027326781
1.6321008 0.74511766 0.030396875
1.6219246 0.75248802 0.037962355
1.6259077 1.0003464 0.037304852
1.6257547 1.0005596 0.049462024
