# .PCD v0.7 - Point Cloud Data file format
VERSION 0.7
FIELDS x y z
SIZE 4 4 4
TYPE F F F
COUNT 1 1 1
WIDTH 151
HEIGHT 1
VIEWPOINT 0 0 0 1 0 0 0
POINTS 151
DATA ascii
2.0142233 1.6349052 0.031468648
2.0048361 1.6508553 0.030914258
1.9944479 1.6667914 0.030341871
2.0059547 1.6796868 0.030243434
2.0467718 1.5903004 0.043419626
2.0358799 1.6052969 0.042818885
2.0469844 1.6204644 0.042785764
2.0700896 1.6360759 0.043054886
2.0591969 1.6509961 0.042455751
2.0703049 1.6665902 0.042413663
2.0441647 1.5861387 0.047943249
2.0447364 1.6008742 0.0476004
2.0562449 1.61384 0.047584157
2.0458798 1.630345 0.0469147
2.0355082 1.6466825 0.046249148
2.0360765 1.6613342 0.045908246
2.0585446 1.6731166 0.046204966
2.0919788 1.6838828 0.046810757
2.1045158 1.6975708 0.046803653
2.0825236 1.5996954 0.054672781
2.0825737 1.6153196 0.054399464
2.0822721 1.5215744 0.056039345
2.0694811 1.5753689 0.059593853
2.0695887 1.590626 0.059273239
2.0696962 1.6058832 0.058952633
2.0818014 1.6213272 0.05903111
2.0699115 1.6363976 0.058311407
2.0820179 1.6520244 0.058386039
2.0821261 1.6673729 0.058063511
2.0750365 1.5357238 0.064977497
2.0646951 1.5528128 0.064210624
2.0652733 1.5677156 0.063863873
2.0658514 1.5826185 0.063517138
2.0664296 1.5975213 0.063170388
2.0670078 1.6124243 0.062823638
2.0675862 1.6273271 0.062476899
2.0681643 1.6422299 0.062130149
2.0687425 1.6571327 0.061783407
2.0802696 1.6706029 0.061839256
2.1037507 1.6827691 0.062328268
2.1272454 1.6952852 0.062809139
2.0629604 1.5081042 0.065250859
2.074455 1.5207372 0.065326199
2.0819244 1.4749758 0.072482318
2.0699747 1.4889042 0.071733385
2.0580244 1.50265 0.070987672
2.058074 1.5180913 0.070717543
2.0942786 1.5865893 0.071035147
2.0939195 1.6043522 0.072977111
2.0943799 1.6180205 0.070485324
2.0936189 1.6218395 0.074869528
2.0724931 1.535791 0.075446211
2.0760245 1.5660527 0.079276785
2.0994563 1.5769974 0.079969481
2.1053963 1.5909653 0.07601276
2.0887036 1.6092469 0.078724861
2.0783505 1.625999 0.077882007
2.0858016 1.6381934 0.076040044
2.104116 1.6529484 0.076456457
2.1159382 1.6678109 0.076602444
2.1384182 1.6788431 0.079041466
2.1629174 1.691515 0.079735175
2.0736988 1.5061064 0.080671549
2.0851955 1.5188251 0.080828711
2.086365 1.5489656 0.080127433
2.110976 1.5903097 0.08011283
2.0937266 1.4768555 0.088673964
2.0817783 1.4908738 0.087832034
2.0938277 1.5082867 0.088124141
2.0938785 1.5240023 0.08784923
2.0939291 1.5397179 0.087574318
2.1069796 1.5576684 0.087906748
2.1320312 1.5779712 0.088794723
2.1070817 1.5892978 0.087353453
2.0941312 1.6025804 0.086474672
2.0935476 1.6376053 0.089984402
2.1172092 1.5913007 0.09212923
2.1263161 1.6055079 0.094014488
2.1147056 1.6218543 0.093065828
2.1125727 1.6364077 0.094304308
2.1273746 1.6520844 0.092983909
2.142755 1.6703831 0.091688037
2.0957499 1.4863875 0.097257927
2.1072493 1.4991995 0.097496733
2.1078408 1.5144448 0.097142026
2.1084323 1.5296903 0.096787304
2.1090238 1.5449356 0.096432596
2.1346469 1.5866411 0.096633673
2.1495817 1.6622227 0.095460832
2.1621294 1.6762748 0.095719606
2.212523 1.6861527 0.097930267
2.2390409 1.6993606 0.098892018
2.1318297 1.5782518 0.10479861
2.1318812 1.594257 0.10451864
2.131933 1.610262 0.10423867
2.1316752 1.5302366 0.10563855
2.1541181 1.6075647 0.10950498
2.1542304 1.6234694 0.10917076
2.1423473 1.6390902 0.10816517
2.1804454 1.6560918 0.10995282
2.145788 1.5694749 0.11315718
2.1583135 1.5829811 0.11352012
2.1589191 1.5985918 0.1131569
2.1475942 1.616033 0.11207391
2.1481965 1.6315523 0.11171283
2.1607361 1.645424 0.11206725
2.1613419 1.6610347 0.11170404
2.186832 1.673593 0.11282259
2.2511675 1.6820675 0.11623697
2.2647471 1.6969664 0.11662392
2.1443157 1.4842451 0.12329642
2.1573637 1.5021914 0.12382704
2.1444194 1.5164534 0.12273301
2.2059009 1.6083466 0.12873095
2.2060158 1.6246474 0.12838842
2.1931372 1.6406385 0.12721953
2.1936584 1.5453668 0.13239501
2.1942749 1.561259 0.13202524
2.2078071 1.5749729 0.13253883
2.2084277 1.5909641 0.13216676
2.221971 1.6049749 0.13267344
2.2096684 1.6229467 0.13142261
2.1973579 1.6407206 0.13017641
2.2109094 1.6549292 0.13067847
2.2115297 1.6709205 0.13030641
2.2509778 1.6824541 0.13253605
2.1701026 1.4880173 0.1412255
2.1831503 1.5061634 0.14185168
2.183203 1.5225646 0.14156477
2.207 1.5593612 0.14891294
2.2325754 1.5924201 0.14730839
2.2466819 1.609049 0.14796256
2.2224078 1.621447 0.14840011
2.2328084 1.625433 0.14661467
2.2101023 1.6393175 0.14705259
2.2329247 1.6419394 0.1462678
2.2236564 1.6536274 0.14765137
2.2600267 1.6592989 0.14783853
2.2372184 1.6681352 0.14824556
2.2334497 1.5710002 0.1505056
2.2469962 1.5851121 0.151109
2.247628 1.6014003 0.15073001
2.2222202 1.6218289 0.16450116
2.2593601 1.5928031 0.1659546
2.2594779 1.6095152 0.16560341
2.2735858 1.6264585 0.16635765
2.2357736 1.6361411 0.16519897
2.2737045 1.6432773 0.16600423
2.2493341 1.6506512 0.16589214
2.2668543 1.5697988 0.18092574
2.2753618 1.6310618 0.18500267
